# .PCD v0.7 - Point Cloud Data file format
VERSION 0.7
FIELDS x y z intensity
SIZE 4 4 4 4
TYPE F F F F
COUNT 1 1 1 1
WIDTH 1106
HEIGHT 1
VIEWPOINT 0 0 0 1 0 0 0
POINTS 1106
DATA ascii
-76.058495 47.434826 1.0438805 0.062745102
-32.806671 16.24988 -2.559937 0.011764706
-27.48881 15.331661 -2.5693798 0.011764706
-5.662868 2.4681835 0.17979769 0
-42.518456 23.714319 0.84996468 0.031372551
-36.692131 15.992467 -2.5650761 0.043137256
-33.44582 20.858902 -2.295419 0.015686275
-84.19445 41.703373 5.4721384 0.078431375
-33.986179 16.83411 -1.7665639 0.0078431377
-39.204823 21.866175 -2.3524477 0.039215688
-88.980927 44.074211 12.192642 0.10196079
-78.887108 43.998631 7.3742213 0.16862746
-37.125294 16.181261 -1.6498131 0.035294119
-79.106522 44.120987 16.515175 0.16078432
-4.0071435 2.2524035 -2.1435061 0.062745102
-72.428482 31.854572 -1.3808476 0.18431373
-67.979752 38.211273 -2.2692492 0.078431375
-6.4474773 3.2202473 -2.0174794 0.094117649
-8.1410856 4.5760832 -1.8677903 0.043137256
-74.586319 37.2528 0.00028921154 0.24313726
-59.373356 37.302979 -0.81606364 0.050980393
-10.233029 5.1109753 -1.7795116 0.082352944
-10.999597 6.1828451 -1.6060891 0.015686275
-83.697281 36.810673 0.53172606 0.10980392
-14.089292 7.0370193 -1.696365 0.05882353
-74.551819 37.235561 1.9394114 0.074509807
-76.066727 47.791046 1.0461634 0.062745102
-32.824001 16.394241 -2.5655172 0.011764706
-27.49342 15.453989 -2.5745866 0.011764706
-90.0243 39.59333 2.8624909 0.24705882
-42.174614 23.706249 0.84465837 0.031372551
-36.722939 16.15102 -2.5709596 0.043137256
-33.302074 20.922962 -2.2903028 0.015686275
-84.119987 42.014465 5.476325 0.078431375
-39.034595 21.941261 -2.346586 0.039215688
-78.288971 44.006035 7.3319106 0.16862746
-36.851925 16.207743 -1.640044 0.035294119
-46.102753 28.965345 -1.9011267 0.047058824
-78.49324 44.120834 16.417597 0.16078432
-72.831062 36.376122 -1.8940818 0.10196079
-3.9964981 2.2638917 -2.1418157 0.062745102
-60.345177 34.183704 -2.0181704 0.070588239
-6.4402051 3.2433417 -2.0185578 0.078431375
-8.1190424 4.5991869 -1.8662214 0.047058824
-74.598145 37.568287 0.0002903119 0.24313726
-46.021233 29.127415 -0.63386822 0.074509807
-10.208967 5.141324 -1.7782818 0.06666667
-11.037728 6.2525334 -1.6146752 0.015686275
-83.048271 36.854362 0.52837712 0.10980392
-42.18153 23.894548 -0.28158963 0.023529412
-14.112057 7.1069541 -1.7019337 0.027450981
-12.205901 7.7252645 -1.3483821 0.0039215689
-74.567238 37.552715 1.9430414 0.074509807
-76.07682 48.149967 1.0484928 0.062745102
-32.730255 16.48325 -2.5624478 0.011764706
-27.435089 15.54114 -2.5739355 0.011764706
-89.252953 39.607803 2.8421259 0.24705882
-42.186253 23.897219 0.84647411 0.031372551
-36.654587 16.266222 -2.569936 0.043137256
-33.165028 20.990562 -2.2856517 0.015686275
-38.819122 21.989851 -2.3380034 0.039215688
-77.68821 44.00798 7.2892747 0.16862746
-36.513035 16.203402 -1.627344 0.019607844
-50.539543 31.987112 -2.0884469 0.050980393
-77.887695 44.120968 16.321451 0.16078432
-72.877892 36.701958 -1.898454 0.10196079
-3.9881737 2.2785237 -2.1418164 0.062745102
-42.083515 24.04318 -1.4103785 0.023529412
-6.4145384 3.2599425 -2.014246 0.082352944
-8.1089439 4.6328044 -1.8677918 0.047058824
-74.56337 37.89399 0.00027592006 0.24313726
-59.361019 37.875755 -0.81952041 0.050980393
-10.175961 5.1715422 -1.7758241 0.050980393
-11.011293 6.2909765 -1.6141721 0.015686275
-82.306732 36.886948 0.52449983 0.10980392
-63.262066 36.142925 -0.42320907 0.062745102
-14.139095 7.1856546 -1.708362 0.015686275
-74.632309 37.92902 1.9483316 0.074509807
-76.088661 48.548946 1.0510854 0.062745102
-32.687408 16.612131 -2.5638494 0.011764706
-27.381407 15.643564 -2.5742667 0.011764706
-88.705841 39.754791 2.8293071 0.24705882
-72.695526 41.532448 1.461679 0.10980392
-36.59837 16.402086 -2.570199 0.043137256
-32.993618 21.05183 -2.2791476 0.015686275
-98.850929 50.237209 6.4579844 0.078431375
-38.7244 22.12405 -2.3371739 0.039215688
-77.066002 44.029385 7.2459707 0.16862746
-36.114216 16.185104 -1.612209 0.019607844
-45.896057 29.284328 -1.9009963 0.047058824
-77.25396 44.136745 16.222424 0.16078432
-72.614555 36.903584 -1.895119 0.10196079
-3.9707713 2.2870033 -2.136745 0.05882353
-49.527912 22.404581 -0.94867927 0.83137256
-6.3791261 3.270014 -2.0066979 0.078431375
-8.0791273 4.6532521 -1.8646539 0.043137256
-59.366383 38.171425 -0.82142854 0.10196079
-10.126193 5.1908054 -1.7702899 0.054901961
-81.601646 36.913548 0.52082533 0.10980392
-74.944626 43.165108 -0.50236672 0.16078432
-14.117466 7.2367806 -1.7087902 0.015686275
-22.555294 14.502612 -2.503078 0.0078431377
-74.666702 38.275043 1.9527062 0.074509807
-76.080215 48.918083 1.0533215 0.062745102
-32.643429 16.733416 -2.5649655 0.011764706
-27.309361 15.729101 -2.5726392 0.011764706
-88.329727 39.957077 2.8217437 0.24705882
-72.709511 41.877773 1.4648914 0.10980392
-36.475422 16.500126 -2.565594 0.043137256
-32.819168 21.102085 -2.272171 0.015686275
-98.674973 50.581963 6.4579854 0.078431375
-74.679428 43.012356 3.5113778 0.24705882
-38.511936 22.181339 -2.3290095 0.039215688
-76.438545 44.025532 7.2013822 0.16862746
-35.875423 16.228704 -1.6040678 0.019607844
-58.695374 37.739983 -2.4365797 0.094117649
-76.622025 44.131191 16.121975 0.16078432
-72.524445 37.176907 -1.8961419 0.10196079
-3.9533587 2.2953892 -2.1316736 0.06666667
-49.496696 22.598925 -0.94958615 0.56862748
-59.331234 34.448795 -1.9964246 0.070588239
-6.3505635 3.2834163 -2.0013063 0.082352944
-8.066226 4.6833944 -1.8654382 0.047058824
-59.367046 38.46542 -0.82329011 0.050980393
-10.093968 5.2188601 -1.7678303 0.05882353
-10.908771 6.3338265 -1.6055859 0.039215688
-80.886482 36.930698 0.51708102 0.10980392
-74.717384 43.382267 -0.5018549 0.16078432
-14.070922 7.2750568 -1.7062199 0.019607844
-12.122965 7.854773 -1.3483843 0.0039215689
-74.681831 38.612587 1.9566156 0.074509807
-76.214447 49.381275 1.0575607 0.062745102
-32.570637 16.83993 -2.563849 0.011764706
-27.237051 15.814324 -2.571012 0.011764706
-87.465919 39.934696 2.7985857 0.24705882
-72.711609 42.21767 1.4678943 0.10980392
-36.450283 16.642269 -2.5678959 0.043137256
-32.661522 21.16223 -2.2663572 0.015686275
-34.038086 17.59864 -1.7848083 0.0078431377
-38.303005 22.23942 -2.3210547 0.039215688
-75.994789 44.12394 7.1740432 0.16862746
-35.578602 16.24428 -1.5933217 0.019607844
-52.765995 34.188431 -2.1953783 0.082352944
-76.031914 44.14547 16.030136 0.16078432
-72.525658 37.497791 -1.8995838 0.10196079
-3.939064 2.3055134 -2.1282926 0.062745102
-49.43132 28.931921 -1.6666929 0.043137256
-6.3356476 3.3037841 -2.0002282 0.082352944
-8.0362873 4.7035985 -1.8623004 0.050980393
-59.366371 38.759895 -0.8251518 0.050980393
-10.093209 5.2632022 -1.7709045 0.06666667
-10.961931 6.4159646 -1.6166972 0.031372551
-80.157654 36.936626 0.51324373 0.10980392
-12.850008 6.7007627 -1.5610007 0.015686275
-22.743622 14.849153 -2.5354211 0.0078431377
-74.656502 38.930374 1.9595011 0.074509807
-76.22245 49.765106 1.0600765 0.062745102
-32.483349 16.938768 -2.5616167 0.011764706
-27.216084 15.929446 -2.574266 0.011764706
-87.267883 40.213017 2.7967243 0.24705882
-74.772827 43.764187 1.5125817 0.10980392
-35.19558 16.218115 -2.4834762 0.023529412
-32.507198 21.223726 -2.2607758 0.015686275
-41.816891 21.805838 -2.196672 0.015686275
-38.07 22.282194 -2.3116348 0.039215688
-75.977921 44.469509 7.1870623 0.16862746
-35.220402 16.229551 -1.5798075 0.019607844
-52.656368 34.378983 -2.1957967 0.082352944
-75.846771 44.392723 16.02368 0.16078432
-72.404945 37.756287 -1.8998622 0.10196079
-3.9216261 2.3137224 -2.1232212 0.05882353
-6.3308959 3.3294642 -2.0023844 0.078431375
-8.0096865 4.7256408 -1.859947 0.047058824
-74.632401 39.249748 0.00028056192 0.24313726
-59.377747 39.063595 -0.82719958 0.050980393
-10.088771 5.305759 -1.7733641 0.074509807
-11.790433 6.9562483 -1.7424568 0.023529412
-79.466072 36.954758 0.50963902 0.10980392
-14.009231 7.3675594 -1.7049345 0.019607844
-12.137706 7.9851832 -1.356191 0.0039215689
-48.488548 25.500494 1.2750015 0.031372551
-76.188637 50.12318 1.0620332 0.062745102
-32.491131 17.087337 -2.5669177 0.011764706
-27.177486 16.034475 -2.5758932 0.011764706
-87.094368 40.502201 2.7956777 0.24705882
-74.781525 44.120434 1.515864 0.10980392
-34.414845 16.004217 -2.4323125 0.019607844
-32.359531 21.288778 -2.2556601 0.015686275
-48.529182 25.521862 3.1934092 0.035294119
-41.641506 21.899591 -2.1914606 0.015686275
-37.740845 22.266766 -2.2963533 0.039215688
-75.990486 44.833702 7.203011 0.16862746
-34.993214 16.273178 -1.572155 0.019607844
-52.305614 34.410961 -2.1861651 0.082352944
-75.84388 44.747181 16.055965 0.16078432
-3.910816 2.3248618 -2.1215308 0.05882353
-78.843529 36.983749 -1.519823 0.24705882
-6.3232231 3.3522444 -2.0034626 0.078431375
-8.0074568 4.7601938 -1.8630847 0.050980393
-59.391251 39.355293 -0.82920086 0.050980393
-10.064137 5.335484 -1.7721343 0.074509807
-10.42344 6.196424 -1.5434635 0.015686275
-78.760056 36.944592 0.5058946 0.10980392
-13.998776 7.4214277 -1.7066479 0.015686275
-22.648668 15.008017 -2.5361645 0.0078431377
-48.428444 25.674261 1.2756534 0.031372551
-76.258728 50.532429 1.0653409 0.062745102
-32.444859 17.200594 -2.5677543 0.011764706
-27.137871 16.132658 -2.5771947 0.011764706
-72.757767 43.252331 1.477741 0.10980392
-34.321831 16.099609 -2.4294982 0.019607844
-32.238827 21.362885 -2.2521715 0.015686275
-48.45134 25.686394 3.1938748 0.035294119
-41.441563 21.970182 -2.1847603 0.015686275
-37.515724 22.301989 -2.2871425 0.039215688
-75.981903 45.16898 7.2163563 0.16862746
-34.747284 16.299179 -1.5635254 0.019607844
-75.860825 45.096981 16.091125 0.16078432
-48.318924 25.616201 -1.2724054 0.035294119
-3.8871281 2.3291819 -2.1130784 0.05882353
-78.175331 37.003788 -1.5094227 0.24705882
-59.16959 35.454689 -2.0072434 0.070588239
-6.2978959 3.3670321 -1.9991493 0.086274512
-7.977334 4.7800517 -1.8599468 0.062745102
-42.634712 28.466333 -0.59663582 0.035294119
-10.021052 5.3575373 -1.76783 0.06666667
-10.343883 6.1980982 -1.5348773 0.023529412
-78.073845 36.95575 0.50231314 0.10980392
-76.102188 45.600773 -0.51532835 0.16078432
-14.021887 7.4964976 -1.7126449 0.0039215689
-22.556395 15.060446 -2.5317032 0.0078431377
-74.671341 39.921425 1.970578 0.074509807
-76.26149 50.918243 1.0678567 0.062745102
-32.359989 17.300575 -2.5658009 0.011764706
-27.088234 16.231388 -2.5778453 0.011764706
-72.681816 43.551262 1.4792776 0.10980392
-34.034508 16.110014 -2.4131255 0.019607844
-32.117565 21.444246 -2.2489159 0.015686275
-76.084953 45.590439 3.6139715 0.24705882
-41.2272 22.041239 -2.1775017 0.015686275
-37.166954 22.270605 -2.2706053 0.039215688
-76.001602 45.540489 7.2332811 0.16862746
-34.484264 16.322903 -1.5542446 0.019607844
-42.73465 28.533058 -1.7942128 0.043137256
-75.868347 45.460617 16.126284 0.16078432
-3.8723598 2.3396628 -2.1096973 0.050980393
-67.758347 32.377476 -1.3105717 0.18039216
-59.244579 35.795364 -2.0142238 0.070588239
-6.2787333 3.3864338 -1.9969928 0.078431375
-7.942977 4.7991147 -1.8560245 0.05882353
-73.875809 39.844936 0.00028098849 0.24313726
-9.9491682 5.3660841 -1.7586064 0.078431375
-11.723736 7.0834355 -1.7434666 0.023529412
-77.403732 36.986404 0.49887121 0.10980392
-76.061226 45.955914 -0.51618749 0.16078432
-12.706196 6.8530884 -1.555003 0.0078431377
-22.491133 15.136342 -2.5305874 0.0078431377
-74.644196 40.259365 1.9737426 0.074509807
-76.253555 51.317993 1.0703725 0.062745102
-32.292858 17.417164 -2.5655217 0.011764706
-27.035387 16.334679 -2.578496 0.011764706
-72.689445 43.91869 1.4826994 0.10980392
-34.083286 16.286272 -2.4207997 0.019607844
-31.979132 21.521683 -2.24473 0.015686275
-76.006294 45.922718 3.6182063 0.24705882
-41.026569 22.127695 -2.1711736 0.015686275
-36.879948 22.282728 -2.2580452 0.039215688
-75.967262 45.899128 7.245975 0.16862746
-34.380939 16.428501 -1.5522906 0.019607844
-75.862885 45.83604 16.160721 0.16078432
-72.567635 39.139378 -1.9182817 0.10196079
-3.8583865 2.3487215 -2.1063163 0.054901961
-6.2607002 3.4035571 -1.9948362 0.078431375
-7.9169669 4.8193102 -1.8536711 0.06666667
-9.9000664 5.3820572 -1.7530721 0.06666667
-11.679845 7.1098952 -1.7404362 0.027450981
-76.743767 36.984146 0.49540594 0.10980392
-76.062157 46.301487 -0.51723242 0.16078432
-14.196325 7.7176709 -1.7404891 0.015686275
-22.41444 15.192965 -2.5276134 0.0078431377
-74.664864 40.590714 1.9778382 0.074509807
-76.245186 51.680538 1.0726553 0.062745102
-32.273483 17.545122 -2.5685909 0.011764706
-26.984476 16.426317 -2.5788214 0.011764706
-76.103096 46.326401 1.555456 0.10980392
-34.025497 16.397476 -2.4205437 0.019607844
-31.857998 21.594002 -2.2412415 0.015686275
-76.007217 46.268036 3.6255348 0.24705882
-40.826588 22.194921 -2.1644731 0.015686275
-36.601128 22.280287 -2.2454851 0.039215688
-81.17775 44.131351 11.345371 0.10196079
-76.005341 46.266888 7.2642016 0.16862746
-34.157051 16.460873 -1.5446379 0.019607844
-51.452278 34.875404 -2.1703908 0.082352944
-75.87854 46.189678 16.196598 0.16078432
-72.180969 39.240379 -1.9114894 0.10196079
-3.8439844 2.3583839 -2.1029356 0.054901961
-67.363739 32.754005 -1.3072203 0.18039216
-59.241524 36.346256 -2.0224838 0.14509805
-6.2420254 3.4216874 -1.9926795 0.082352944
-7.8499465 4.8161488 -1.8419042 0.094117649
-74.770897 40.987144 0.00028661286 0.24313726
-100.36105 68.539276 -1.4144269 0.082352944
-8.6300364 4.7307215 -1.5310944 0.031372551
-11.651574 7.1485472 -1.7399311 0.015686275
-76.092598 36.998196 0.49203378 0.10980392
-76.070541 46.671299 -0.51839358 0.16078432
-14.239045 7.8054123 -1.7490566 0.019607844
-22.410603 15.304806 -2.5331895 0.0078431377
-74.673508 40.933754 1.9818405 0.074509807
-76.285622 52.097504 1.0757765 0.062745102
-32.170052 17.634651 -2.5652423 0.011764706
-26.926971 16.520411 -2.5788212 0.011764706
-76.073875 46.67334 1.5581799 0.10980392
-33.993179 16.528368 -2.4223342 0.019607844
-31.680201 21.635263 -2.2340324 0.015686275
-74.689934 40.942753 4.9607086 0.078431375
-76.015579 46.637569 3.6336772 0.24705882
-40.531635 22.21822 -2.1529343 0.031372551
-36.366512 22.311823 -2.2358558 0.039215688
-80.549728 44.154903 11.279074 0.10196079
-76.013283 46.636158 7.2804761 0.16862746
-34.07782 16.569519 -1.5436609 0.019607844
-51.35664 35.072838 -2.1715071 0.082352944
-75.864426 46.544807 16.228167 0.16078432
-74.670013 40.931847 -1.9811751 0.10196079
-3.8449781 2.3775082 -2.108007 0.054901961
-57.769711 28.338905 -1.1229572 0.17254902
-59.243515 36.632751 -2.0269046 0.070588239
-6.2131863 3.43414 -1.987288 0.082352944
-7.8230777 4.8373342 -1.8395507 0.086274512
-74.634354 41.251778 0.00028721176 0.24313726
-76.33725 52.524479 -1.0784278 0.082352944
-9.8172798 5.4261885 -1.7450783 0.043137256
-10.185462 6.2980952 -1.5242708 0.023529412
-75.438667 37.006401 0.48863831 0.10980392
-76.073853 47.03965 -0.51953155 0.16078432
-14.270883 7.8877773 -1.7563388 0.031372551
-22.314386 15.353598 -2.5283566 0.0078431377
-74.673645 41.273495 1.9856569 0.074509807
-76.274643 52.481392 1.0781991 0.062745102
-32.150204 17.77001 -2.5685902 0.011764706
-26.838619 16.595442 -2.575892 0.011764706
-76.090767 47.050102 1.5618811 0.10980392
-36.042564 17.680666 -2.5727541 0.043137256
-31.545267 21.704983 -2.2298465 0.015686275
-76.018875 47.005646 3.6416569 0.24705882
-40.261486 22.253267 -2.1426976 0.047058824
-36.162693 22.360909 -2.2281101 0.039215688
-79.884315 44.153507 11.207413 0.10196079
-76.009384 46.999771 7.295774 0.16862746
-34.066414 16.711262 -1.5457772 0.019607844
-58.452805 40.218941 -2.477474 0.098039217
-75.858788 46.906628 16.26189 0.16078432
-3.8120425 2.3755758 -2.0944831 0.054901961
-57.856834 28.632616 -1.1265862 0.17254902
-59.237442 36.91544 -2.0310926 0.14509805
-6.1843376 3.4464302 -1.9818965 0.094117649
-7.8494205 4.8915787 -1.8497486 0.090196081
-74.703056 41.630817 0.00028861067 0.24313726
-9.8017321 5.4623466 -1.7456933 0.039215688
-11.544134 7.1940398 -1.7313449 0.015686275
-74.799973 37.017563 0.48533586 0.10980392
-76.075539 47.408554 -0.5206694 0.16078432
-14.284952 7.960773 -1.7614791 0.023529412
-11.770228 8.1592798 -1.336859 0.0039215689
-42.525196 23.698608 1.1329851 0.019607844
-33.903679 23.502483 0.48040944 0.011764706
-32.094952 17.886005 -2.5691478 0.011764706
-26.783913 16.691126 -2.5762174 0.011764706
-76.078812 47.410587 1.5650237 0.10980392
-36.159515 17.89489 -2.5855448 0.043137256
-31.459467 21.80813 -2.2291486 0.015686275
-76.013756 47.370045 3.6493113 0.24705882
-39.967171 22.273067 -2.1311586 0.031372551
-35.942036 22.398264 -2.2193179 0.039215688
-79.258057 44.169224 11.141115 0.10196079
-76.024193 47.376545 7.3130245 0.16862746
-34.075935 16.863747 -1.5488703 0.019607844
-51.297798 35.560333 -2.1794624 0.082352944
-75.884972 47.289757 16.302788 0.16078432
-42.064114 23.441656 -1.1203775 0.019607844
-3.8129375 2.3946517 -2.099555 0.054901961
-74.606522 37.246586 -1.4552722 0.24705882
-59.233513 37.200665 -2.0354099 0.14509805
-6.1789865 3.4717696 -1.9840542 0.10588235
-7.8190126 4.9106026 -1.8466123 0.094117649
-69.007011 48.194088 -0.97961646 0.082352944
-9.7619305 5.4849095 -1.7420057 0.035294119
-11.451747 7.1920838 -1.7212461 0.015686275
-74.609482 37.248058 0.48492566 0.10980392
-76.075569 47.778042 -0.52182376 0.16078432
-11.660153 6.5514584 -1.4406289 0.0078431377
-22.203392 15.506716 -2.5279891 0.0078431377
-42.205151 23.713699 1.1266482 0.019607844
-34.211658 23.893213 0.48594502 0.011764706
-32.122772 18.048746 -2.5764086 0.011764706
-26.735617 16.790876 -2.577199 0.011764706
-76.092361 47.788586 1.5687083 0.10980392
-35.918262 17.931847 -2.5727608 0.043137256
-31.540302 22.027557 -2.2403173 0.015686275
-76.051018 47.762615 3.659066 0.24705882
-39.613987 22.257818 -2.1164637 0.031372551
-35.765541 22.461979 -2.2132549 0.039215688
-78.608437 44.167507 11.071388 0.10196079
-76.03392 47.751873 7.3299332 0.16862746
-34.05262 17.000443 -1.5505053 0.019607844
-51.193027 35.752907 -2.180311 0.082352944
-75.896049 47.665264 16.340799 0.16078432
-42.564243 23.915468 -1.1359236 0.019607844
-3.8010719 2.4066715 -2.0978646 0.054901961
-74.587379 37.57917 -1.457575 0.24705882
-45.891708 29.056643 -1.5806017 0.082352944
-6.1595182 3.4905953 -1.9818976 0.090196081
-7.7976484 4.9371305 -1.8458278 0.082352944
-42.143272 23.882582 0.00015419634 0.043137256
-33.878544 23.845789 -0.48217487 0.019607844
-9.7142515 5.5050621 -1.7370864 0.043137256
-11.4119 7.2255173 -1.7192258 0.015686275
-74.618912 37.595051 0.48587999 0.10980392
-76.082436 48.1721 -0.52307785 0.16078432
-14.206861 8.0510235 -1.7589117 0.043137256
-22.152922 15.592578 -2.5287328 0.0078431377
-42.236237 23.935263 1.1298126 0.019607844
-33.747719 23.753698 0.48058882 0.011764706
-32.035576 18.154556 -2.5747344 0.011764706
-26.66716 16.884489 -2.5765479 0.011764706
-99.126511 49.94265 3.230675 0.24705882
-76.089035 48.17627 1.5722698 0.10980392
-35.139313 17.704151 -2.5215969 0.023529412
-31.436495 22.126925 -2.2386894 0.015686275
-76.034157 48.141525 3.6667199 0.24705882
-39.379185 22.316179 -2.1082742 0.047058824
-35.743721 22.631378 -2.2170227 0.039215688
-77.972824 44.18716 11.004603 0.10196079
-76.023445 48.134735 7.3458819 0.16862746
-34.072174 17.166496 -1.5542496 0.019607844
-33.899433 23.860491 -1.4474927 0.031372551
-75.877098 48.042053 16.374519 0.16078432
-42.177097 23.901752 -1.1279219 0.019607844
-3.7930706 2.4192622 -2.0978646 0.05882353
-74.61924 37.905979 -1.4606454 0.24705882
-45.798473 29.210802 -1.5807178 0.12156863
-6.1479101 3.5110002 -1.9818976 0.082352944
-7.7746201 4.9587407 -1.8442589 0.082352944
-42.074272 24.028145 0.00015453731 0.043137256
-9.685648 5.531363 -1.7352417 0.043137256
-11.277477 7.1929045 -1.7025586 0.011764706
-74.369026 37.77887 0.48506638 0.10980392
-76.090904 48.531662 -0.52423906 0.16078432
-14.15591 8.08428 -1.7559128 0.023529412
-22.117344 15.677464 -2.5305912 0.0078431377
-42.003849 23.987926 1.1257181 0.019607844
-33.828659 23.978806 0.48287132 0.011764706
-32.020245 18.286407 -2.5783613 0.011764706
-26.634554 16.987829 -2.5788257 0.011764706
-76.10083 48.537991 1.5758312 0.10980392
-34.959412 17.759106 -2.5128992 0.023529412
-31.343403 22.217184 -2.2372937 0.015686275
-7.4657516 4.2635999 0.50071877 0
-76.045959 48.502991 3.6750255 0.24705882
-39.09679 22.327744 -2.0971076 0.031372551
-35.742573 22.797033 -2.2216277 0.039215688
-77.374237 44.187542 10.940742 0.10196079
-76.021393 48.487316 7.3611789 0.16862746
-34.075645 17.310156 -1.5570173 0.019607844
-50.691063 35.931412 -2.1695623 0.082352944
-75.8899 48.403427 16.411831 0.16078432
-60.168724 34.361687 -1.6120999 0.054901961
-3.7754533 2.4266086 -2.092793 0.054901961
-59.230865 38.069679 -2.0489049 0.14509805
-6.1155872 3.5209098 -1.9754279 0.070588239
-7.7572627 4.9858518 -1.8442588 0.06666667
-62.900269 36.213421 0.00023313743 0.1254902
-53.577557 38.259151 -0.76622671 0.047058824
-9.6491528 5.5552812 -1.7321671 0.047058824
-9.7034817 6.2367511 -1.4682109 0.015686275
-76.106094 48.915951 -0.52551645 0.16078432
-11.673626 6.7208252 -1.4509095 0.0078431377
-22.036552 15.736062 -2.5276172 0.0078431377
-74.680153 42.995411 2.0054669 0.074509807
-76.287804 54.476284 1.0916456 0.062745102
-31.938927 18.388123 -2.5769658 0.011764706
-26.598566 17.095795 -2.5811038 0.011764706
-76.102516 48.913643 1.5793927 0.10980392
-31.194162 22.275412 -2.2321777 0.015686275
-74.646675 42.976135 5.0165124 0.078431375
-76.03756 48.871895 3.6828425 0.24705882
-38.873169 22.38036 -2.0892906 0.015686275
-35.23938 22.64954 -2.1952517 0.039215688
-76.768776 44.19788 10.876881 0.10196079
-76.032776 48.868813 7.3787556 0.16862746
-34.121716 17.483679 -1.5619016 0.019607844
-48.779282 34.83276 -2.0929301 0.050980393
-75.919098 48.795727 16.454882 0.16078432
-59.722633 34.383968 -1.6033536 0.054901961
-3.760874 2.4358311 -2.0894122 0.05882353
-6.1099224 3.5461032 -1.9775844 0.070588239
-7.7299342 5.0065017 -1.8419054 0.070588239
-74.736595 43.375977 0.00027857628 0.24313726
-9.6194468 5.5829778 -1.7303225 0.050980393
-11.33689 7.3426466 -1.7192255 0.023529412
-5.6435795 3.6552134 -0.039059222 0
-11.622578 6.7455635 -1.4474826 0.0039215689
-21.994417 15.822194 -2.529104 0.0078431377
-74.702538 43.356205 2.0101209 0.074509807
-33.735104 24.268124 0.48394307 0.011764706
-31.871094 18.497498 -2.5766869 0.011764706
-26.545422 17.192873 -2.5817544 0.011764706
-75.790321 49.087681 1.5764607 0.10980392
-35.827518 18.515903 -2.5845275 0.043137256
-31.031933 22.32354 -2.2261314 0.015686275
-75.957077 49.195683 3.6872399 0.24705882
-38.584003 22.39357 -2.0779376 0.047058824
-35.129925 22.752863 -2.1933675 0.039215688
-76.157333 44.200535 10.812046 0.10196079
-75.92865 49.177261 7.3852654 0.16862746
-50.286446 36.174721 -2.1630011 0.078431375
-75.913445 49.167397 16.490755 0.16078432
-3.7497394 2.4463089 -2.0877216 0.05882353
-74.820824 38.982834 -1.4723696 0.24705882
-6.0981297 3.566345 -1.9775844 0.074509807
-7.7067199 5.027823 -1.8403364 0.054901961
-9.58041 5.6028743 -1.726633 0.047058824
-11.352358 7.4062195 -1.7252861 0.043137256
-74.735176 38.93821 0.49004585 0.10980392
-14.394617 8.4183502 -1.7961799 0.0078431377
-21.961182 15.909062 -2.5313346 0.0078431377
-74.744759 43.712704 2.015147 0.074509807
-76.320122 55.287617 1.0974689 0.062745102
-31.861246 18.633301 -2.5808716 0.011764706
-26.478241 17.274275 -2.5807781 0.011764706
-74.75444 38.948242 2.4534106 0.24705882
-75.761108 49.426163 1.5792543 0.10980392
-35.769455 18.636457 -2.5847828 0.043137256
-30.760468 22.283419 -2.211946 0.015686275
-75.542465 49.28352 3.6750271 0.24705882
-38.426758 22.472986 -2.0734706 0.015686275
-35.378792 23.080952 -2.2136724 0.039215688
-75.852699 44.360645 10.789622 0.10196079
-75.62825 49.339478 7.3719215 0.16862746
-43.465599 22.646269 -1.996621 0.039215688
-48.634937 35.231998 -2.0969775 0.078431375
-75.914757 49.526379 16.52663 0.16078432
-49.411003 28.896862 -1.3317704 0.14509805
-3.7407486 2.4600348 -2.0877216 0.062745102
-48.477501 25.483879 -0.95580167 0.094117649
-6.0883355 3.590627 -1.9786624 0.078431375
-7.6915183 5.0581875 -1.8411208 0.062745102
-9.5495977 5.6319256 -1.7247881 0.043137256
-11.417969 7.508822 -1.7394278 0.039215688
-48.49469 25.492908 0.31859452 0.035294119
-14.45616 8.5255976 -1.8077459 0.019607844
-21.909161 15.994141 -2.5320778 0.0078431377
-74.584053 43.986351 2.0151474 0.074509807
-76.294647 55.696671 1.1000311 0.062745102
-31.751501 18.725624 -2.5775232 0.011764706
-26.434742 17.384338 -2.5827305 0.011764706
-48.496216 25.49371 1.5946817 0.05882353
-75.612862 49.725456 1.579953 0.10980392
-35.760983 18.799002 -2.5891316 0.043137256
-30.356068 22.160561 -2.1886916 0.015686275
-38.127304 22.48579 -2.0617449 0.015686275
-35.497551 23.344339 -2.2264411 0.039215688
-75.840088 44.727089 10.811072 0.10196079
-43.23727 22.729168 -1.9899452 0.039215688
-48.550682 35.443008 -2.0989313 0.078431375
-75.920151 49.927509 16.56753 0.16078432
-49.342655 29.100105 -1.3327935 0.14509805
-3.7260945 2.4690726 -2.0843408 0.05882353
-48.409451 25.664179 -0.95622009 0.094117649
-59.253502 39.263996 -2.0684502 0.074509807
-6.0691419 3.6079206 -1.9765059 0.070588239
-7.667275 5.0806723 -1.8395518 0.05882353
-9.4959049 5.6450281 -1.7186391 0.031372551
-11.404918 7.5574007 -1.7414479 0.015686275
-48.426613 25.673271 0.31873447 0.035294119
-14.45024 8.5902328 -1.8107445 0.019607844
-21.843571 16.06344 -2.5309625 0.0078431377
-76.293106 56.10482 1.1028265 0.062745102
-31.795696 18.90159 -2.5864515 0.011764706
-26.443686 17.522755 -2.5895646 0.011764706
-48.512909 25.719019 1.5981734 0.05882353
-75.772209 50.210014 1.5869358 0.10980392
-35.684563 18.918106 -2.5883639 0.043137256
-29.947174 22.022711 -2.1647394 0.015686275
-37.880287 22.518696 -2.0526254 0.031372551
-35.472454 23.505621 -2.2299995 0.039215688
-75.840469 45.084866 10.833498 0.10196079
-43.143536 22.872465 -1.9892936 0.039215688
-48.294624 35.51516 -2.0932081 0.050980393
-75.909416 50.300907 16.603403 0.16078432
-3.7114232 2.4780383 -2.0809598 0.05882353
-74.052391 39.5905 -1.4654579 0.24705882
-6.0532074 3.6271052 -1.9754276 0.074509807
-7.6397071 5.1008716 -1.8371984 0.054901961
-9.3405266 5.59688 -1.6940433 0.039215688
-11.421369 7.6258092 -1.7480136 0.019607844
-74.03067 39.578884 0.48816356 0.10980392
-76.215485 50.887508 -0.53232139 0.16078432
-14.423576 8.6426649 -1.8111727 0.019607844
-21.812967 16.158558 -2.5339365 0.0078431377
-76.034859 45.560402 2.062891 0.074509807
-76.315338 56.532688 1.1059941 0.062745102
-31.633688 18.95504 -2.5786388 0.011764706
-26.418831 17.639307 -2.5931442 0.011764706
-75.84594 50.640766 1.592173 0.10980392
-35.466934 18.961628 -2.5773635 0.043137256
-29.783484 22.062937 -2.1584609 0.015686275
-37.835724 22.671328 -2.0544863 0.031372551
-35.260624 23.542795 -2.2218354 0.039215688
-75.839294 45.443203 10.855923 0.10196079
-43.007038 22.992781 -1.9866883 0.039215688
-44.177578 32.725765 -1.9197046 0.047058824
-75.910095 50.683571 16.642149 0.16078432
-3.703186 2.4903314 -2.0809598 0.05882353
-72.498344 39.069321 -1.4372594 0.24705882
-42.57143 28.628613 -1.4928722 0.039215688
-6.0345516 3.6431746 -1.9732709 0.074509807
-7.6064777 5.1152329 -1.8332762 0.062745102
-76.02034 45.894966 0.00028913931 0.23921569
-9.2813129 5.6033072 -1.6866642 0.082352944
-11.524434 7.7499967 -1.7677109 0.015686275
-74.722977 40.268173 0.49360701 0.10980392
-14.377816 8.6801672 -1.8090308 0.019607844
-21.73373 16.211748 -2.5309622 0.0078431377
-76.030571 45.901142 2.0668936 0.074509807
-76.342278 56.945663 1.1091154 0.062745102
-26.337038 17.711239 -2.5908661 0.011764706
-35.203564 18.971186 -2.5627816 0.043137256
-29.662148 22.125759 -2.1549723 0.015686275
-75.970367 45.864792 5.1683831 0.078431375
-37.117264 22.408421 -2.0194969 0.031372551
-34.632126 23.289558 -2.1870866 0.039215688
-75.851334 45.792915 10.879323 0.10196079
-41.797665 22.52474 -1.934261 0.039215688
-43.87336 32.726273 -1.9111897 0.047058824
-75.924484 51.057976 16.682327 0.16078432
-59.266125 35.780125 -1.6107011 0.16862746
-3.691469 2.50121 -2.0792692 0.062745102
-72.393143 39.339359 -1.4378871 0.24705882
-66.753761 45.230057 -2.346406 0.15294118
-6.0152159 3.6602142 -1.9711144 0.082352944
-7.5690923 5.1285539 -1.8285693 0.054901961
-76.023682 46.259876 0.00029032584 0.23921569
-9.238061 5.6212921 -1.6823601 0.086274512
-11.533444 7.8146634 -1.7732664 0.019607844
-74.729561 40.608997 0.49458453 0.10980392
-14.785699 8.9969921 -1.8642911 0.035294119
-21.641977 16.261206 -2.5268726 0.0078431377
-76.033852 46.26606 2.0713613 0.074509807
-76.341263 57.360786 1.1120037 0.062745102
-31.241453 19.010206 -2.5571544 0.011764706
-26.407068 17.892523 -2.6038837 0.011764706
-75.996132 51.492363 1.6026475 0.10980392
-34.916153 18.973888 -2.546665 0.023529412
-29.517683 22.178801 -2.1500888 0.015686275
-75.96331 46.223129 5.1788492 0.078431375
-36.721367 22.344696 -2.0021882 0.015686275
-34.256294 23.210894 -2.1684558 0.039215688
-75.850418 46.154427 10.902234 0.10196079
-41.525635 22.565563 -1.9253058 0.039215688
-43.589462 32.751961 -1.9037914 0.047058824
-75.977081 51.479427 16.733269 0.16078432
-59.267262 36.063717 -1.6141431 0.16862746
-3.6946917 2.5222566 -2.0860312 0.06666667
-74.73159 40.948643 -1.4871629 0.24705882
-5.9925518 3.6751475 -1.9678794 0.070588239
-7.525228 5.1372523 -1.8222938 0.039215688
-76.039047 46.633709 0.00029156389 0.23921569
-76.370201 57.800724 -1.1147013 0.082352944
-9.2150126 5.6514382 -1.6817451 0.10980392
-11.512651 7.8593502 -1.7742765 0.023529412
-74.738205 40.952263 0.49558532 0.10980392
-21.626368 16.367899 -2.5317054 0.0078431377
-76.028694 46.627357 2.0756428 0.074509807
-76.344688 57.781406 1.1149852 0.062745102
-31.018436 19.023184 -2.5443196 0.011764706
-26.308231 17.959867 -2.6003036 0.011764706
-74.75692 40.962513 2.4811118 0.24705882
-75.981071 51.870075 1.6061392 0.10980392
-34.643169 18.982481 -2.5315714 0.023529412
-29.376406 22.233509 -2.145438 0.015686275
-75.964882 46.588215 5.1900134 0.078431375
-36.653358 22.479008 -2.0027466 0.031372551
-75.847916 46.516468 10.925147 0.10196079
-41.141682 22.543291 -1.9111406 0.039215688
-43.197556 32.694038 -1.8916473 0.047058824
-59.277363 36.353996 -1.6178643 0.16862746
-3.6769052 2.5289736 -2.0809603 0.062745102
-74.784241 41.317524 -1.4910867 0.24705882
-5.9764113 3.6940157 -1.9668021 0.062745102
-7.4329228 5.1123629 -1.8042526 0.035294119
-76.01873 46.987156 0.00027622763 0.23921569
-75.519104 57.572235 -1.1052216 0.082352944
-9.1918697 5.6814895 -1.681132 0.070588239
-11.524381 7.9264684 -1.7803395 0.023529412
-74.762856 41.305706 0.49668661 0.10980392
-76.277824 52.463898 -0.53777307 0.15686275
-19.018858 11.75555 -2.4083312 0.0078431377
-21.581774 16.452934 -2.5331969 0.0078431377
-76.021973 46.989151 2.0799081 0.074509807
-76.365204 58.217258 1.1182288 0.062745102
-30.775352 19.022238 -2.5298171 0.011764706
-26.268377 18.067396 -2.602587 0.011764706
-42.514286 23.488703 1.413712 0.043137256
-75.634811 52.021633 1.6026318 0.10980392
-34.353096 18.979734 -2.5152059 0.023529412
-29.241461 22.292324 -2.1412582 0.015686275
-75.958069 46.94965 5.200695 0.078431375
-36.289185 22.430332 -1.9871204 0.015686275
-33.757732 23.218575 -2.1471109 0.078431375
-75.867462 46.893635 10.951455 0.10196079
-40.705925 22.489605 -1.8945414 0.039215688
-42.822495 32.64587 -1.8802106 0.047058824
-59.265778 36.632156 -1.6210399 0.16862746
-3.6591151 2.535598 -2.0758889 0.050980393
-74.775818 41.654224 -1.4938083 0.24705882
-66.315903 45.953911 -2.3478153 0.15294118
-5.96348 3.714855 -1.9668021 0.05882353
-7.4150314 5.1382775 -1.8042526 0.031372551
-76.057953 47.37912 0.00027752921 0.23921569
-75.660286 58.098587 -1.1102487 0.082352944
-9.3263006 5.8096719 -1.7094171 0.039215688
-11.512948 7.9779477 -1.7828647 0.019607844
-42.225651 23.521994 0.28106904 0.019607844
-69.196587 47.950092 -0.48902586 0.16470589
-21.479986 16.494211 -2.5279922 0.0078431377
-76.017014 47.353611 2.0842826 0.074509807
-76.34552 58.624756 1.1209307 0.062745102
-30.54958 19.030388 -2.5167034 0.011764706
-26.208426 18.161251 -2.6029124 0.011764706
-42.470455 23.658363 1.4149925 0.043137256
-33.865479 23.467234 0.71930861 0.027450981
-34.077393 18.982975 -2.4998565 0.023529412
-29.068453 22.321299 -2.1342819 0.015686275
-75.966583 47.322189 5.2125573 0.078431375
-36.112312 22.495604 -1.9817231 0.015686275
-33.620659 23.29759 -2.1435521 0.11764706
-75.861694 47.256844 10.974369 0.10196079
-40.627174 22.631559 -1.894541 0.039215688
-42.454628 32.600376 -1.8690437 0.047058824
-59.252945 36.910702 -1.6242028 0.16862746
-3.6561875 2.5525057 -2.0792696 0.047058824
-66.069862 46.125614 -2.3447897 0.15294118
-5.9504762 3.7356489 -1.9668021 0.070588239
-7.3745379 5.1484127 -1.7987614 0.035294119
-76.041168 47.737904 0.00027863026 0.23921569
-75.40641 58.323185 -1.1095035 0.082352944
-9.3059654 5.8421917 -1.7094171 0.039215688
-10.782264 7.527462 -1.6737716 0.015686275
-42.345562 23.782852 0.28241843 0.019607844
-69.002556 48.173027 -0.48883954 0.16470589
-21.453785 16.593458 -2.5317097 0.0078431377
-76.027367 47.729233 2.0891225 0.074509807
-76.349236 59.052402 1.1240054 0.062745102
-30.317371 19.032951 -2.5030315 0.011764706
-26.151409 18.257187 -2.6035631 0.011764706
-42.213314 23.708576 1.4091741 0.043137256
-34.045708 23.768456 0.7248947 0.027450981
-33.805576 18.986483 -2.4847629 0.023529412
-28.933506 22.378656 -2.130096 0.015686275
-75.966652 47.691113 5.2239532 0.078431375
-36.006496 22.604527 -1.9802339 0.015686275
-33.496552 23.38508 -2.1408305 0.078431375
-75.881218 47.637463 11.001182 0.10196079
-40.227337 22.593182 -1.8795615 0.039215688
-42.090771 32.555157 -1.8580163 0.047058824
-46.057388 28.914377 -1.2652539 0.035294119
-3.6442893 2.5631683 -2.0775795 0.047058824
-74.730286 42.315178 -1.4987628 0.24705882
-65.888809 46.342175 -2.3440912 0.15294118
-5.9373994 3.7563984 -1.966802 0.05882353
-7.3533111 5.1718683 -1.7979767 0.035294119
-76.039688 48.107861 0.00027979276 0.23921569
-75.237061 58.613106 -1.110015 0.082352944
-9.3088951 5.8894343 -1.7137212 0.023529412
-10.788376 7.5878839 -1.678822 0.015686275
-42.171787 23.879292 0.28181401 0.019607844
-33.852612 23.80986 -0.24041261 0.019607844
-21.389442 16.663353 -2.530966 0.0078431377
-76.05291 48.116215 2.0944278 0.074509807
-76.344551 59.475883 1.1269867 0.062745102
-30.072023 19.025599 -2.4882433 0.011764706
-26.090778 18.350664 -2.6038885 0.011764706
-42.339043 23.973999 1.4161569 0.043137256
-33.798962 23.77212 0.72140378 0.027450981
-33.541096 18.992266 -2.470181 0.023529412
-28.811106 22.445168 -2.1268401 0.015686275
-75.978554 48.069172 5.23628 0.078431375
-35.849705 22.680948 -1.975953 0.015686275
-33.431053 23.513365 -2.1418769 0.078431375
-75.86879 47.99971 11.023606 0.10196079
-40.996811 23.21398 -1.9192885 0.039215688
-41.724583 32.505356 -1.8468492 0.047058824
-3.638278 2.5779688 -2.0792696 0.054901961
-60.518753 34.547573 -1.2161524 0.17647059
-65.824516 46.641216 -2.3475809 0.15294118
-5.9210033 3.7750287 -1.9657236 0.070588239
-7.322412 5.1884327 -1.7948389 0.035294119
-76.056816 48.491245 0.00028102947 0.23921569
-8.4884291 5.411931 -1.5661459 0.031372551
-10.7683 7.6300821 -1.6798321 0.023529412
-41.897121 23.917278 0.28053504 0.019607844
-33.831303 23.971811 -0.24085383 0.019607844
-10.74097 6.8480749 -1.3720896 0.035294119
-21.343685 16.747746 -2.5324528 0.0078431377
-76.053085 48.488865 2.0990815 0.074509807
-76.388222 59.939522 1.1307135 0.062745102
-29.860754 19.038206 -2.4762456 0.027450981
-26.007048 18.427792 -2.6019354 0.011764706
-74.829285 42.71685 2.507865 0.24705882
-76.265129 54.039108 1.6318196 0.10980392
-33.280464 18.9984 -2.4558551 0.070588239
-28.698027 22.518475 -2.1242819 0.015686275
-75.971924 48.437115 5.2474437 0.078431375
-36.016266 22.962749 -1.9895389 0.047058824
-33.342255 23.625292 -2.141458 0.039215688
-75.871513 48.373085 11.048469 0.10196079
-40.568439 23.158794 -1.9030066 0.039215688
-41.324677 32.426228 -1.8341467 0.043137256
-45.709412 29.142769 -1.2612525 0.14117648
-3.6263063 2.5885468 -2.0775795 0.050980393
-60.040752 34.553143 -1.2089629 0.17647059
-65.778465 46.954334 -2.3517692 0.15294118
-5.9077902 3.7956743 -1.9657236 0.074509807
-7.2946792 5.2071242 -1.7924854 0.043137256
-76.048622 48.860226 0.00028217735 0.23921569
-8.5193653 5.4735756 -1.5753691 0.027450981
-10.735141 7.6630125 -1.6788219 0.047058824
-74.751686 43.019203 0.50152749 0.10980392
-102.4859 73.157036 -0.73143214 0.16862746
-21.278847 16.817209 -2.5317094 0.0078431377
-76.061684 48.86861 2.1040146 0.074509807
-76.354256 60.344692 1.1333222 0.062745102
-29.643051 19.045267 -2.46369 0.011764706
-25.929586 18.509195 -2.6006336 0.011764706
-6.1303191 3.5279603 0.20586407 0
-76.339706 54.493214 1.6374758 0.10980392
-33.016739 19.000963 -2.441273 0.023529412
-28.666245 22.655657 -2.1277699 0.015686275
-75.990524 48.822891 5.2604685 0.078431375
-36.204823 23.261116 -2.0044277 0.031372551
-33.301849 23.771702 -2.1441789 0.039215688
-75.8759 48.749229 11.073818 0.10196079
-40.248337 23.16271 -1.8917719 0.039215688
-41.016788 32.416603 -1.8254923 0.043137256
-59.273476 38.082417 -1.6391805 0.054901961
-3.6201921 2.6033058 -2.0792696 0.047058824
-59.667236 34.616013 -1.2038672 0.17647059
-65.769981 47.295708 -2.3573537 0.15294118
-5.894505 3.8162737 -1.9657235 0.078431375
-7.2860122 5.2394257 -1.7948388 0.039215688
-76.062279 49.244957 0.00028341232 0.23921569
-8.5665627 5.5462413 -1.587667 0.019607844
-10.766315 7.7421384 -1.6879131 0.015686275
-74.760216 43.372219 0.50259805 0.10980392
-21.216898 16.888905 -2.5313375 0.0078431377
-75.971199 49.185982 2.1062486 0.074509807
-76.349686 60.775257 1.1363969 0.062745102
-29.41226 19.042362 -2.4500182 0.027450981
-25.868055 18.601923 -2.6009588 0.011764706
-33.632591 24.185453 0.72321987 0.027450981
-32.763756 19.007931 -2.4274585 0.019607844
-28.558868 22.7332 -2.1256769 0.015686275
-75.963776 49.181171 5.2704692 0.078431375
-36.606392 23.700052 -2.0312276 0.031372551
-33.270554 23.925117 -2.1475284 0.039215688
-75.885231 49.130306 11.100143 0.10196079
-40.693829 32.392769 -1.8161398 0.043137256
-59.23753 38.352119 -1.6418784 0.054901961
-3.6022756 2.6095459 -2.0741985 0.047058824
-65.805252 47.670422 -2.364567 0.15294118
-5.8843741 3.8389292 -1.9668019 0.062745102
-7.2581501 5.2579226 -1.7924854 0.043137256
-76.44915 61.29158 -1.1404111 0.082352944
-8.5802536 5.5977049 -1.5938159 0.023529412
-10.684596 7.740097 -1.6793269 0.015686275
-10.885175 7.1014218 -1.3999338 0
-21.148495 16.955383 -2.5302219 0.0078431377
-75.698578 49.3853 2.1034572 0.074509807
-76.399216 61.251537 1.1403099 0.062745102
-25.799738 18.689762 -2.6006331 0.011764706
-76.339607 55.301678 1.645716 0.10980392
-32.514584 19.015369 -2.4139001 0.019607844
-28.410801 22.777792 -2.1205609 0.015686275
-75.577599 49.306374 5.2555857 0.078431375
-36.406319 23.751268 -2.0247133 0.015686275
-33.219189 24.064535 -2.1496212 0.039215688
-75.586914 49.312439 11.081619 0.10196079
-41.413902 24.219919 -1.9544559 0.039215688
-40.415207 32.402084 -1.8087415 0.043137256
-59.562141 38.857998 -1.6546243 0.054901961
-3.5906732 2.6193404 -2.0725079 0.050980393
-65.827682 48.020329 -2.3710821 0.15294118
-5.8651733 3.8541911 -1.9646454 0.05882353
-7.2470117 5.2865858 -1.7940543 0.043137256
-10.620402 7.7474236 -1.6732661 0.015686275
-74.738953 44.042526 0.50445998 0.10980392
-10.632236 6.9867811 -1.3703758 0
-21.120041 17.047937 -2.5335679 0.0078431377
-76.172699 50.055515 2.1212332 0.074509807
-76.401093 61.670368 1.1433845 0.062745102
-28.988514 19.049284 -2.4254646 0.070588239
-25.724735 18.765816 -2.5993314 0.011764706
-76.30442 55.662945 1.6489283 0.10980392
-32.272514 19.017702 -2.4005976 0.019607844
-28.319574 22.859341 -2.1193979 0.015686275
-76.114479 50.017262 5.3044252 0.078431375
-36.180428 23.775318 -2.0165241 0.031372551
-32.742275 23.885006 -2.1238735 0.039215688
-75.539101 49.639137 11.098682 0.10196079
-40.778992 24.030437 -1.928242 0.039215688
-40.142673 32.402851 -1.8013432 0.043137256
-3.5819676 2.6312337 -2.0725076 0.050980393
-65.864647 48.382759 -2.3781788 0.15294118
-5.8523602 3.8736198 -1.9646453 0.054901961
-7.2452464 5.3221998 -1.7979764 0.047058824
-8.5495319 5.6588521 -1.5950456 0.031372551
-10.543487 7.7450161 -1.6651851 0.015686275
-74.81604 44.422874 0.50597233 0.10980392
-11.368454 7.5246696 -1.4684739 0
-21.100481 17.14802 -2.5380287 0.0078431377
-76.143013 50.398335 2.1250496 0.074509807
-76.404129 62.092396 1.1465056 0.062745102
-28.772121 19.043999 -2.4126296 0.06666667
-25.726624 18.898226 -2.6058397 0.011764706
-76.328926 56.069588 1.6534672 0.10980392
-32.041084 19.024757 -2.3880618 0.019607844
-28.212622 22.927938 -2.1170721 0.015686275
-76.141335 50.397224 5.317915 0.078431375
-36.098057 23.892963 -2.0163379 0.031372551
-32.489048 23.865753 -2.1125693 0.039215688
-76.036209 50.327633 11.19618 0.10196079
-41.327969 24.538946 -1.9580373 0.039215688
-39.848862 32.384521 -1.7929679 0.043137256
-42.686642 28.253885 -1.1910057 0.06666667
-3.5669327 2.6394081 -2.0691268 0.047058824
-59.307156 35.494884 -1.2062386 0.50980395
-65.80143 48.690857 -2.3820179 0.15294118
-5.8516212 3.9025733 -1.9689584 0.054901961
-7.2297783 5.349791 -1.798761 0.043137256
-8.5330153 5.6908536 -1.5956604 0.023529412
-10.401559 7.6968021 -1.6470028 0.027450981
-76.170692 45.587582 0.51620734 0.10980392
-11.292488 7.5312076 -1.4620481 0
-21.043577 17.224094 -2.5384004 0.0078431377
-76.179543 50.805813 2.131006 0.074509807
-76.394287 62.528458 1.1496267 0.062745102
-28.562721 19.049112 -2.4006319 0.082352944
-76.12944 45.562893 2.5823479 0.24705882
-76.348145 56.495064 1.6581458 0.10980392
-31.810072 19.03809 -2.3757827 0.019607844
-28.154047 23.043987 -2.1186998 0.015686275
-76.141022 50.780125 5.3302412 0.078431375
-32.896828 24.34255 -2.1445968 0.039215688
-75.992188 50.680851 11.215681 0.10196079
-41.231773 24.676903 -1.9575485 0.039215688
-39.577808 32.394295 -1.785849 0.043137256
-42.644314 28.440435 -1.1925871 0.13725491
-3.5518842 2.6475101 -2.0657456 0.050980393
-59.271931 35.755402 -1.2080528 0.49803922
-65.784943 49.03495 -2.3876023 0.15294118
-5.8347659 3.9208279 -1.9678799 0.047058824
-7.1953354 5.3632751 -1.7948385 0.047058824
-76.471848 63.03899 -1.1534436 0.082352944
-9.0314283 6.0689125 -1.6928142 0.043137256
-11.818995 8.8096704 -1.8763 0.019607844
-76.072746 45.890388 0.51662654 0.10980392
-106.26848 79.21067 -0.76990473 0.16862746
-18.703163 12.568102 -2.4271781 0.0078431377
-20.971033 17.287312 -2.5369132 0.0078431377
-76.180969 51.191875 2.1360321 0.074509807
-76.407036 62.985554 1.1531205 0.062745102
-28.356955 19.055231 -2.3889132 0.06666667
-25.488583 18.998745 -2.5951002 0.011764706
-76.076065 45.892387 2.5859561 0.24705882
-76.349281 56.909424 1.6624752 0.10980392
-31.661386 19.099525 -2.3696427 0.019607844
-27.207602 22.428377 -2.0533552 0.015686275
-76.138977 51.163651 5.3425684 0.078431375
-36.079613 24.244678 -2.0247123 0.078431375
-33.384941 24.884552 -2.1820667 0.039215688
-76.002647 51.072033 11.243468 0.10196079
-39.393547 32.47377 -1.7826382 0.043137256
-42.69746 28.691721 -1.1968668 0.031372551
-3.5397224 2.6577156 -2.0640562 0.070588239
-59.239029 36.018173 -1.2099496 0.47058824
-65.760452 49.374702 -2.3929689 0.15294118
-5.8529396 3.9627657 -1.9786638 0.043137256
-7.1546144 5.3718724 -1.7893487 0.047058824
-101.65512 84.396309 -1.5377455 0.082352944
-8.3654375 5.663866 -1.5716811 0.023529412
-10.204781 7.6620178 -1.624277 0.011764706
-76.079567 46.257458 0.5177505 0.10980392
-18.497814 12.524055 -2.4061916 0.0078431377
-20.941204 17.385847 -2.5406353 0.0078431377
-76.180626 51.578537 2.1410413 0.074509807
-76.395973 63.425602 1.1562704 0.062745102
-28.177923 19.078033 -2.3794329 0.06666667
-25.336031 19.022966 -2.5863185 0.039215688
-76.086235 46.261509 2.591759 0.24705882
-76.364464 57.33646 1.6671364 0.10980392
-31.509258 19.158079 -2.3632536 0.019607844
-28.066223 23.301191 -2.1242869 0.015686275
-76.155014 51.561192 5.3562741 0.078431375
-36.090717 24.435431 -2.030117 0.047058824
-32.131935 24.125511 -2.1056678 0.039215688
-75.853508 51.35704 11.24784 0.10196079
-39.147701 32.501274 -1.7766449 0.043137256
-71.385803 48.332191 -2.0057704 0.10196079
-3.5352724 2.6756628 -2.0674369 0.054901961
-59.27758 36.354092 -1.2135787 0.50588238
-65.541687 49.605118 -2.3919213 0.15294118
-5.8663125 4.004756 -1.9883685 0.047058824
-7.1089144 5.3803673 -1.7830728 0.050980393
-7.9062071 5.3973308 -1.4892848 0.054901961
-10.184777 7.7083292 -1.6257923 0.015686275
-76.071884 46.653797 0.5189141 0.10980392
-76.323082 57.764996 -0.55602312 0.15686275
-11.660322 7.9601545 -1.5207376 0
-20.819313 17.420122 -2.5339437 0.0078431377
-76.180191 52.005947 2.1466258 0.074509807
-76.403412 63.928944 1.1600902 0.062745102
-27.982525 19.102842 -2.3691089 0.027450981
-25.157896 19.040712 -2.5755787 0.027450981
-76.07164 46.653645 2.5973454 0.24705882
-76.382912 57.810276 1.6723738 0.10980392
-31.326569 19.212139 -2.3550673 0.019607844
-27.991858 23.421597 -2.1254494 0.015686275
-76.15435 51.988308 5.3702288 0.078431375
-36.009827 24.582838 -2.0308614 0.015686275
-32.010395 24.227015 -2.1037838 0.039215688
-75.491798 51.535992 11.223465 0.10196079
-37.705242 23.124086 -1.8019028 0.035294119
-38.829464 32.489731 -1.7678508 0.043137256
-71.345016 48.705139 -2.0098636 0.10196079
-3.5263808 2.687371 -2.0674369 0.027450981
-59.279182 36.626133 -1.2160909 0.48627451
-65.678955 50.052414 -2.4029741 0.15294118
-5.8752193 4.039463 -1.9959165 0.05882353
-7.0754366 5.3920236 -1.7791506 0.06666667
-10.146538 7.7324386 -1.6237719 0.023529412
-76.069885 47.000404 0.51996124 0.10980392
-20.764482 17.491629 -2.5343151 0.0078431377
-76.188553 52.382881 2.1517448 0.074509807
-76.47551 64.421593 1.1644224 0.062745102
-27.823677 19.129969 -2.3610175 0.011764706
-24.989981 19.044287 -2.5648386 0.039215688
-76.089989 47.012825 2.603281 0.24705882
-76.349854 58.184444 1.6758653 0.10980392
-31.174395 19.261358 -2.3484156 0.019607844
-27.94153 23.537443 -2.1275423 0.015686275
-76.165817 52.367241 5.3832526 0.078431375
-33.952591 23.343857 -1.9191936 0.043137256
-33.162605 25.272453 -2.1850042 0.039215688
-75.516785 51.920998 11.252715 0.10196079
-40.705399 25.150167 -1.9492522 0.039215688
-38.562534 32.484383 -1.7605921 0.043137256
-69.318047 47.659126 -1.9572022 0.10196079
-3.5088215 2.6924291 -2.0623655 0.043137256
-59.249081 36.87957 -1.2179751 0.50196081
-65.487228 50.250458 -2.4020429 0.15294118
-5.8744593 4.0676951 -2.0002298 0.078431375
-7.0450702 5.4059057 -1.7760128 0.070588239
-76.199425 52.763351 0.00027776347 0.23529412
-76.426178 64.814537 -1.1663078 0.082352944
-8.8515806 6.1291652 -1.6749837 0.11764706
-10.117692 7.7636275 -1.6232668 0.035294119
-76.09359 47.364429 0.52119458 0.10980392
-20.754961 17.601604 -2.5402632 0.0078431377
-76.195244 52.760445 2.1568639 0.074509807
-76.435326 64.822304 1.1670778 0.062745102
-27.710876 19.188055 -2.3568318 0.011764706
-24.834965 19.056665 -2.5554006 0.039215688
-76.106789 47.372643 2.6092167 0.24705882
-76.353203 58.588257 1.6801947 0.10980392
-31.069685 19.339317 -2.3453457 0.019607844
-27.00449 22.901623 -2.0619648 0.015686275
-76.169014 52.742279 5.3958116 0.078431375
-33.760021 23.376705 -1.9126794 0.090196081
-35.395195 27.159868 -2.3380253 0.039215688
-75.553101 52.315781 11.283916 0.10196079
-48.110275 29.946228 -2.3085902 0.070588239
-38.335693 32.511246 -1.7551479 0.043137256
-69.074135 47.829536 -1.9547826 0.10196079
-3.4936652 2.7002268 -2.0589845 0.05882353
-59.248726 37.166927 -1.2206271 0.49803922
-65.406334 50.552105 -2.4055328 0.15294118
-5.8444285 4.077157 -1.9948381 0.094117649
-7.0075359 5.4160733 -1.771306 0.082352944
-69.004135 48.13829 0.00025244409 0.24313726
-8.869031 6.1871624 -1.6823624 0.06666667
-10.08739 7.7964706 -1.6227617 0.035294119
-76.080269 47.725407 0.52224177 0.10980392
-18.725605 13.063254 -2.4593096 0.0078431377
-20.714592 17.692053 -2.5428655 0.0078431377
-34.059811 23.760612 0.96647447 0.015686275
-76.37587 65.23159 1.1696398 0.062745102
-27.689543 19.316629 -2.360738 0.011764706
-24.654736 19.055473 -2.5436845 0.027450981
-76.113701 47.746376 2.6151521 0.24705882
-76.382385 59.035412 1.685362 0.10980392
-31.025661 19.462502 -2.347136 0.019607844
-26.207775 22.383703 -2.0070844 0.015686275
-76.151466 53.124363 5.4076734 0.078431375
