# .PCD v0.7 - Point Cloud Data file format
VERSION 0.7
FIELDS x y z intensity
SIZE 4 4 4 4
TYPE F F F F
COUNT 1 1 1 1
WIDTH 1126
HEIGHT 1
VIEWPOINT 0 0 0 1 0 0 0
POINTS 1126
DATA ascii
6.8297806 9.7213888 -2.3761609 0.0039215689
88.671661 140.31876 -6.7177032e-05 0.24705882
42.33403 54.399986 -0.80251044 0.050980393
8.0255117 12.699996 -2.3372777 0
10.736888 15.282699 -2.3773842 0.0039215689
41.100082 72.673668 0.48521093 0.10980392
22.886053 32.575611 -0.23139752 0.054901961
11.251518 17.805 -2.2687521 0.0078431377
15.003504 19.27977 -2.2804828 0.0078431377
16.415575 25.976877 -2.1487904 0.011764706
15.779232 22.459885 -2.240787 0.0078431377
80.02137 141.49477 4.7307458 0.24705882
22.892151 32.584293 0.69508088 0.035294119
16.229406 28.697027 -2.1129158 0.019607844
23.077427 29.654903 -2.188364 0.015686275
22.892742 32.585136 1.622416 0.023529412
19.752724 31.257761 -1.7224106 0.0078431377
22.517521 32.051044 -2.052839 0.019607844
22.899939 32.595383 3.2519619 0.050980393
22.259798 39.360043 -1.8422687 0.035294119
36.95409 47.486671 -2.1012471 0.078431375
9.6503658 13.736171 3.060745 0.0039215689
2.5006564 3.5331075 -2.0184255 0.047058824
39.32933 68.979591 -1.3860356 0.18431373
22.960243 32.439903 -1.1566532 0.050980393
3.6332831 5.7053041 -1.8934994 0.05882353
6.8636708 9.6974907 -2.3761609 0.0039215689
88.948189 139.67438 -6.6445551e-05 0.24705882
19.374241 24.71776 -0.36563206 0.019607844
8.065546 12.665239 -2.3360479 0
10.790166 15.24513 -2.3773842 0.0039215689
41.42086 72.647919 0.48600158 0.10980392
23.034281 32.544506 -0.23174612 0.054901961
11.315734 17.768972 -2.2691803 0.0078431377
15.070707 19.227285 -2.2804828 0.0078431377
19.366838 24.708317 0.36547455 0.0078431377
16.452564 25.835279 -2.1418145 0.011764706
15.841409 22.381893 -2.2385087 0.0078431377
41.699104 73.135933 2.4500837 0.24705882
23.045025 32.559689 0.69626778 0.035294119
16.230614 28.46682 -2.1001241 0.019607844
23.239914 29.649599 -2.1939452 0.015686275
23.050211 32.567017 1.6255097 0.023529412
19.720055 30.966187 -1.7101262 0.0078431377
22.585409 31.910303 -2.0488615 0.019607844
23.057333 32.577084 3.2581456 0.027450981
19.607809 34.390076 -1.6128399 0.019607844
19.38348 24.729546 -1.0972492 0.015686275
9.6800652 13.676708 3.0550053 0.0039215689
20.930397 32.866779 -0.90671921 0.011764706
2.5087657 3.5184531 -2.0150447 0.054901961
39.416428 68.57489 -1.3806576 0.18431373
37.982811 53.269554 -1.9040546 0.06666667
3.6573386 5.6990705 -1.8956559 0.047058824
6.8974814 9.6734724 -2.3761606 0.0039215689
89.649101 139.69632 -6.1904699e-05 0.24705882
8.1139784 12.643659 -2.3372772 0
10.843318 15.207369 -2.3773837 0.0039215689
33.758759 58.731945 0.39369446 0.05882353
40.506237 56.808571 -0.40553129 0.05882353
11.366953 17.712627 -2.2670376 0.0078431377
15.117992 19.149551 -2.2775078 0.0078431377
16.596527 25.861645 -2.1487894 0.011764706
15.935645 22.349178 -2.2407861 0.0078431377
41.928253 72.944862 2.4485736 0.24705882
40.505398 56.807388 1.2178066 0.070588239
16.399513 28.531116 -2.1090772 0.019607844
23.385338 29.621574 -2.1978977 0.015686275
19.758976 30.789549 -1.7041689 0.0078431377
22.671154 31.795488 -2.0465574 0.019607844
19.640106 34.168957 -1.605674 0.019607844
19.410242 24.586428 -1.0938981 0.015686275
9.6843424 13.581957 3.0413737 0.0039215689
20.928373 32.611778 -0.90169322 0.011764706
2.5174129 3.5033469 -2.0116637 0.047058824
39.474949 68.097809 -1.3739555 0.18431373
38.033134 52.92868 -1.8968399 0.06666667
3.6865697 5.6985636 -1.899969 0.054901961
6.9512 9.6736107 -2.3824363 0.0039215689
90.323441 139.61868 -6.1453356e-05 0.24705882
19.406208 24.396933 -0.36293051 0.078431375
8.1645575 12.620474 -2.3385069 0
10.984654 15.286754 -2.3960714 0.0039215689
42.104145 72.633415 0.48791063 0.10980392
40.506435 56.370636 -0.40346187 0.05882353
11.440434 17.684206 -2.2687514 0.0078431377
15.207909 19.118948 -2.2804821 0.0078431377
19.428617 24.425106 0.36333343 0.06666667
16.66519 25.760441 -2.1454408 0.011764706
16.036062 22.316525 -2.2433896 0.0078431377
42.247456 72.880638 2.4515991 0.24705882
40.519619 56.388988 1.2120128 0.070588239
16.503971 28.470819 -2.1090772 0.019607844
23.550919 29.607544 -2.2032464 0.015686275
45.7024 63.601593 3.1907747 0.13333334
22.8225 31.760849 -2.0496976 0.019607844
45.600288 63.459492 6.3792758 0.078431375
19.671 33.934227 -1.5980208 0.019607844
19.530083 24.552666 -1.0955732 0.015686275
9.6812401 13.472872 3.0248716 0.0039215689
21.264967 32.870617 -0.91099858 0.011764706
2.532362 3.4970331 -2.0133543 0.039215688
39.554703 67.662636 -1.368091 0.18431373
38.182304 52.727406 -1.8946288 0.06666667
3.711638 5.6914673 -1.9021256 0.054901961
6.9659019 9.6194782 -2.375376 0.0039215689
19.422953 24.235138 -0.36157998 0.078431375
8.2193909 12.603708 -2.3409665 0
11.066206 15.281744 -2.4016271 0.0039215689
42.016792 71.874321 0.48384288 0.10980392
40.51569 55.949661 -0.40150872 0.05882353
11.51603 17.658813 -2.2708931 0.0078431377
15.295312 19.084839 -2.2830844 0.0078431377
19.437962 24.253864 0.36184353 0.06666667
16.837957 25.819515 -2.1554859 0.011764706
16.115404 22.254374 -2.2430639 0.0078431377
42.282219 72.328362 2.4382181 0.24705882
40.547737 55.993919 1.2067075 0.070588239
16.537693 28.289528 -2.1001229 0.019607844
19.466333 24.289263 -1.8127829 0.011764706
45.904716 63.391582 3.188658 0.13333334
19.938293 30.573606 -1.70026 0.06666667
22.99732 31.757874 -2.0549312 0.019607844
44.511433 61.467545 6.1953926 0.074509807
19.656055 33.623833 -1.5867856 0.019607844
19.859936 24.780386 -1.1089745 0.015686275
2.5497448 3.4978468 -2.0184255 0.031372551
20.000248 33.967171 -0.68805927 0.027450981
38.317188 52.565159 -1.8931159 0.06666667
3.7295043 5.6797757 -1.9021256 0.047058824
7.0076485 9.61339 -2.3792982 0.0039215689
19.418655 24.074362 -0.36008978 0.078431375
8.2437696 12.55469 -2.3366621 0
11.109497 15.240481 -2.4006169 0.0039215689
42.264767 71.779846 0.48409879 0.10980392
40.528728 55.599045 -0.39990434 0.05882353
11.569281 17.619213 -2.2704644 0.0078431377
15.330203 19.005684 -2.2793665 0.0078431377
19.426189 24.083702 0.36021391 0.06666667
16.919006 25.766476 -2.1554859 0.011764706
16.189955 22.210068 -2.243715 0.0078431377
40.544445 55.620602 1.2014022 0.070588239
16.677141 28.323412 -2.1065185 0.019607844
45.663445 62.64307 3.1582098 0.12941177
20.04085 30.520824 -1.7008184 0.05882353
23.137001 31.740322 -2.0584898 0.019607844
19.639946 33.355259 -1.5770155 0.019607844
20.040607 24.845428 -1.1146981 0.015686275
2.5619366 3.4889271 -2.0184255 0.035294119
19.996193 33.690811 -0.68387043 0.027450981
36.290108 49.421051 -1.7844323 0.062745102
3.7514293 5.6699381 -1.903204 0.039215688
7.052763 9.604681 -2.3832207 0.0039215689
19.43194 23.919521 -0.35878587 0.078431375
8.3115253 12.562103 -2.343426 0
11.143829 15.17603 -2.3965764 0.0039215689
42.525227 71.649109 0.48421532 0.10980392
40.547333 55.218685 -0.3981837 0.05882353
11.637284 17.58868 -2.2717497 0.0078431377
15.396441 18.952066 -2.2793665 0.0078431377
19.447073 23.938147 0.35904995 0.05882353
16.971397 25.6507 -2.1507421 0.011764706
16.272087 22.159855 -2.2443659 0.0078431377
84.660812 142.64172 4.8273325 0.24705882
40.560776 55.236992 1.1961668 0.070588239
16.857382 28.402346 -2.1167517 0.019607844
3.8604133 5.8346615 0.40743643 0
45.564808 62.051647 3.1363912 0.12941177
20.156059 30.464024 -1.7015628 0.039215688
23.247631 31.659382 -2.0584896 0.019607844
19.642 33.094048 -1.5678968 0.019607844
20.094429 24.735001 -1.1128832 0.015686275
2.5710015 3.4732363 -2.0150447 0.043137256
36.4249 49.20742 -1.7817556 0.062745102
3.7838631 5.6715121 -1.9085954 0.035294119
7.0639234 9.5428505 -2.3745916 0.0039215689
19.440027 23.742601 -0.35724908 0.078431375
8.344348 12.507079 -2.3391216 0
11.168972 15.088477 -2.3895054 0.0039215689
43.430843 72.538857 0.49135214 0.10980392
40.580582 54.821449 -0.39643976 0.05882353
11.69591 17.53063 -2.2700362 0.0078431377
15.517038 18.951351 -2.2864301 0.0078431377
19.455231 23.761169 0.35751346 0.06666667
17.078629 25.598618 -2.1518581 0.011764706
16.364178 22.106823 -2.245342 0.0078431377
40.591743 54.836529 1.1908616 0.070588239
16.98683 28.371656 -2.1193099 0.019607844
19.577955 23.911053 -1.7997591 0.011764706
45.705257 61.744518 3.1297154 0.12941177
20.288414 30.409666 -1.7028655 0.019607844
23.323879 31.508881 -2.054512 0.019607844
23.20966 31.354586 3.1845944 0.44705883
19.647806 32.816063 -1.5582896 0.019607844
19.525738 23.847281 -1.076308 0.015686275
21.345797 31.994545 -0.89499271 0.011764706
2.5874443 3.470052 -2.0184255 0.050980393
38.627995 51.804489 -1.8806642 0.06666667
3.8057868 5.6614652 -1.9096736 0.035294119
7.1018815 9.5244198 -2.3761604 0.0039215689
19.451542 23.58819 -0.35594514 0.078431375
8.4011869 12.497556 -2.3428111 0
11.214459 15.03985 -2.38799 0.0039215689
43.716873 72.441605 0.49172434 0.10980392
40.60434 54.454987 -0.39481214 0.05882353
11.76591 17.502897 -2.2717497 0.0078431377
15.580567 18.893993 -2.2860582 0.0078431377
19.459175 23.597446 0.35607007 0.047058824
17.196825 25.581894 -2.1554854 0.011764706
16.512743 22.145441 -2.2551057 0.0078431377
85.898399 142.33904 4.8382716 0.24705882
40.610794 54.463646 1.1858358 0.070588239
17.08577 28.312185 -2.1193099 0.019607844
19.643524 23.820997 -1.7981312 0.011764706
43.555458 64.792862 4.5466766 0.050980393
20.410049 30.36187 -1.7041682 0.0078431377
23.407461 31.392036 -2.0522091 0.019607844
23.3857 31.36286 3.1937072 0.43137255
19.658993 32.576183 -1.5501479 0.019607844
19.451183 23.587753 -1.0676528 0.015686275
21.450663 31.909882 -0.89471346 0.011764706
2.6005089 3.4648066 -2.0201161 0.054901961
38.696945 51.558182 -1.8761259 0.06666667
3.814918 5.6367221 -1.9053603 0.035294119
7.1506038 9.5271606 -2.382436 0.0039215689
19.441252 23.4254 -0.35440841 0.078431375
8.4536991 12.490742 -2.3465004 0
11.254506 14.995028 -2.3864746 0.0039215689
85.173225 140.1403 0.95306581 0.10980392
40.602325 54.096832 -0.39313805 0.054901961
11.834211 17.485611 -2.2743196 0.0078431377
15.647475 18.854153 -2.2871735 0.0078431377
19.456577 23.443867 0.3546733 0.06666667
17.288288 25.544268 -2.1568804 0.011764706
16.53676 22.032879 -2.2489221 0.0078431377
86.035713 141.55942 4.8209343 0.24705882
40.599232 54.092709 1.1805304 0.070588239
17.174625 28.258371 -2.1193097 0.019607844
19.600948 23.617821 -1.7874335 0.011764706
46.089767 61.40807 3.1280875 0.12941177
20.516527 30.314148 -1.7050987 0.019607844
23.462805 31.260847 -2.0484409 0.039215688
19.653292 32.336666 -1.5416807 0.019607844
19.430725 23.412718 -1.0624876 0.015686275
38.627823 57.074451 -1.6036916 0.054901961
2.6147745 3.4585991 -2.0218067 0.050980393
38.770592 51.28244 -1.8710058 0.06666667
3.8410819 5.6329174 -1.9085953 0.035294119
7.1767211 9.492754 -2.3800826 0.0039215689
19.448519 23.268389 -0.35305792 0.078431375
8.4905701 12.451358 -2.3446555 0
11.287637 14.930325 -2.3824339 0.0039215689
86.623032 141.41112 0.9637596 0.10980392
40.617241 53.725033 -0.39146388 0.054901961
11.883977 17.427765 -2.2721779 0.0078431377
15.759172 18.854416 -2.2938654 0.0078431377
19.466475 23.289871 0.35336962 0.078431375
17.435802 25.569475 -2.1641352 0.011764706
16.56789 21.914591 -2.242738 0.0078431377
86.683899 141.5105 4.829545 0.24705882
40.618973 53.727329 1.1756442 0.070588239
17.221037 28.113142 -2.1129138 0.019607844
43.196827 63.347847 4.4652834 0.050980393
47.132984 62.343506 3.1841006 0.13333334
20.658241 30.295162 -1.7080766 0.0078431377
23.603104 31.220175 -2.0511622 0.019607844
19.655409 32.087231 -1.5330507 0.019607844
19.445683 23.264994 -1.0588579 0.015686275
38.678127 56.721199 -1.5975498 0.054901961
2.6252356 3.4461088 -2.0201159 0.050980393
19.977507 32.34631 -0.66362458 0.023529412
38.861362 51.012787 -1.866351 0.06666667
3.8660643 5.6251507 -1.9107519 0.035294119
7.2114635 9.4663868 -2.3800826 0.0039215689
19.461531 23.11129 -0.35175395 0.078431375
8.5361471 12.420156 -2.3446555 0
11.361518 14.914109 -2.3864746 0.0039215689
86.909508 140.71835 0.96120304 0.10980392
42.079147 55.236725 -0.40359956 0.05882353
11.968043 17.413589 -2.2760334 0.0078431377
15.815341 18.781301 -2.2920065 0.0078431377
43.848396 63.799744 1.8013784 0.047058824
19.471836 23.123529 0.3519263 0.047058824
17.515837 25.48567 -2.1624608 0.011764706
16.696413 21.91715 -2.2492473 0.0078431377
87.517097 141.70213 4.8470001 0.24705882
40.973141 53.784889 1.1801819 0.070588239
17.376396 28.13475 -2.1193097 0.019607844
19.50452 23.16234 -1.7634799 0.011764706
43.299786 63.001522 4.4520278 0.050980393
46.46019 60.987667 3.123529 0.12941177
20.827978 30.304861 -1.7129158 0.0078431377
23.773039 31.206543 -2.0559771 0.019607844
19.661566 31.834757 -1.5244204 0.019607844
19.469019 23.120182 -1.0555074 0.015686275
2.6388564 3.4402602 -2.0218065 0.050980393
38.894058 50.705963 -1.8598344 0.06666667
3.8934679 5.6249676 -1.9150652 0.039215688
7.2308822 9.426857 -2.3761601 0.0078431377
19.460478 22.955093 -0.35035691 0.078431375
8.5772915 12.391779 -2.3446555 0
11.415748 14.882645 -2.3874846 0.0039215689
87.238365 140.20859 0.95969248 0.10980392
12.007621 17.347643 -2.2726061 0.0078431377
15.89557 18.750013 -2.2946088 0.0078431377
44.799419 64.722603 1.8316201 0.050980393
19.478584 22.97645 0.35066915 0.06666667
17.600264 25.427441 -2.1624608 0.011764706
16.812685 21.918598 -2.2551055 0.0078431377
41.17807 53.68362 1.18095 0.070588239
17.469608 28.076967 -2.1193094 0.019607844
43.4244 62.736088 4.4434237 0.050980393
47.545189 61.984398 3.1826358 0.13333334
21.028429 30.38018 -1.7211053 0.0078431377
24.318874 31.704374 -2.0940776 0.039215688
46.956127 61.21645 6.2982392 0.074509807
19.716364 31.687933 -1.5205123 0.019607844
19.460283 22.954863 -1.0509005 0.015686275
6.1863127 8.0650654 1.8532369 0
36.3102 52.458057 -1.4845818 0.050980393
2.646414 3.4252915 -2.0184252 0.035294119
20.186583 32.192642 -0.66327524 0.023529412
38.936337 50.395893 -1.8534342 0.06666667
3.9152777 5.6145043 -1.9161434 0.043137256
7.2709322 9.4108753 -2.3785136 0.0039215689
22.838928 32.751007 -1.2924081e-05 0.027450981
19.47035 22.804903 -0.34909955 0.047058824
8.6363106 12.384462 -2.3489599 0
11.457914 14.830152 -2.385464 0.0039215689
87.886528 140.15744 0.96143651 0.10980392
12.081739 17.325205 -2.2751763 0.0078431377
15.94798 18.679279 -2.2927499 0.0078431377
19.488529 22.826197 0.34941202 0.06666667
17.700308 25.382227 -2.1638556 0.011764706
16.967077 21.960741 -2.2655201 0.0078431377
47.695759 61.733349 1.3616842 0.074509807
17.620504 28.10037 -2.125705 0.019607844
19.428366 22.755724 -1.7425495 0.0078431377
47.577961 61.580883 3.170424 0.12941177
21.276028 30.509806 -1.7326449 0.0078431377
19.710054 31.432695 -1.5115564 0.019607844
19.452023 22.783436 -1.046154 0.0078431377
2.658355 3.416033 -2.0184252 0.035294119
20.35866 32.21664 -0.6652289 0.023529412
38.984333 50.095581 -1.8473818 0.062745102
3.937068 5.6039548 -1.9172215 0.035294119
7.2868786 9.3637695 -2.3730221 0.0039215689
19.474218 22.648848 -0.34774864 0.047058824
8.6772184 12.351006 -2.3483446 0
11.507177 14.786931 -2.3849585 0.0039215689
88.27697 139.69424 0.96037197 0.10980392
12.139859 17.279669 -2.2747476 0.0078431377
16.02088 18.632551 -2.2938647 0.0078431377
22.889437 32.580444 0.92651248 0.05882353
19.48204 22.657944 0.34787598 0.035294119
17.804863 25.34314 -2.1658082 0.011764706
17.026495 21.879354 -2.2632413 0.0078431377
19.384462 24.909389 0.55092961 0.011764706
17.782467 28.139929 -2.1333792 0.019607844
22.884449 32.573345 2.3183398 0.035294119
47.039093 60.446095 3.1204376 0.12941177
22.671 32.26952 -1.8370606 0.0078431377
48.361702 62.145683 6.4284239 0.078431375
19.633913 31.069761 -1.4973891 0.019607844
19.461069 22.633554 -1.0423843 0.0078431377
2.6730936 3.4091203 -2.0201159 0.050980393
20.52387 32.216019 -0.66676462 0.023529412
3.9598055 5.5926313 -1.9182997 0.035294119
7.2921052 9.299962 -2.3636084 0.0078431377
23.005671 32.492073 -1.1776096e-05 0.027450981
19.486387 22.495697 -0.34649128 0.047058824
8.7224264 12.319121 -2.3483446 0
11.578432 14.766518 -2.388494 0.0039215689
88.779747 139.35626 0.96027946 0.10980392
19.382006 24.718784 -0.18257163 0.0078431377
12.214597 17.251287 -2.2768893 0.0078431377
16.073414 18.555651 -2.2916341 0.0078431377
23.045662 32.548553 0.9280014 0.047058824
19.494244 22.504766 0.34661886 0.054901961
17.902237 25.284229 -2.1663661 0.011764706
23.888678 30.466351 -3.1605315 0.015686275
17.859737 28.034164 -2.1303089 0.019607844
23.038288 32.538143 2.3218284 0.035294119
19.420523 24.767908 1.2822717 0.019607844
22.791422 32.189476 -1.8372464 0.0078431377
19.479008 24.842495 -1.6544522 0.015686275
22.985605 32.463737 4.8840241 0.078431375
47.543659 60.634674 6.2901053 0.074509807
19.706846 30.933546 -1.4942952 0.019607844
19.475838 22.483517 -1.0387546 0.0078431377
22.900082 32.342945 -0.92216265 0.039215688
2.6939654 3.4111476 -2.0268776 0.050980393
3.9815414 5.5819097 -1.919378 0.035294119
7.3464046 9.3021517 -2.3706684 0.0039215689
40.609741 56.932716 -2.0970145e-05 0.12156863
19.48329 22.334097 -0.34504765 0.047058824
8.7676725 12.291814 -2.3489594 0
11.595481 14.682411 -2.381423 0.0039215689
90.529831 141.0146 0.97387898 0.10980392
12.274745 17.208542 -2.2768891 0.0078431377
16.190453 18.559448 -2.2990694 0.0078431377
40.543018 56.839176 1.624584 0.047058824
19.509583 22.364237 0.34550145 0.043137256
18.050638 25.30604 -2.1736205 0.011764706
19.425884 24.597416 0.54709035 0.086274512
17.87986 27.850718 -2.121099 0.019607844
19.648531 22.523514 -1.7406883 0.0078431377
46.166656 64.723228 4.6299348 0.050980393
22.940779 32.161762 -1.8402244 0.0078431377
19.577991 24.790014 -1.6554987 0.015686275
19.752098 30.767031 -1.4895731 0.019607844
19.480625 22.331043 -1.0348457 0.0078431377
23.050001 32.314888 -0.9236514 0.011764706
2.7075198 3.4050324 -2.0285683 0.047058824
4.0090208 5.5811882 -1.9236913 0.035294119
7.3943014 9.2992268 -2.3761597 0.0039215689
40.620975 56.550819 -2.0672765e-05 0.12156863
19.491266 22.194225 -0.34388342 0.047058824
8.8222246 12.28193 -2.3526487 0
11.678684 14.687357 -2.388494 0.0039215689
19.43033 24.435995 -0.18145551 0.078431375
12.327108 17.16128 -2.2760324 0.0078431377
16.317616 18.580463 -2.3083637 0.0078431377
40.556328 56.460815 1.6176051 0.047058824
19.509743 22.215263 0.34419775 0.031372551
18.21594 25.359465 -2.1833863 0.011764706
19.425211 24.429556 0.54478675 0.082352944
18.065334 27.935404 -2.1320996 0.019607844
19.61772 22.338211 -1.7313859 0.0078431377
45.437542 63.256248 4.5357509 0.050980393
19.449377 24.459949 1.2731535 0.082352944
23.098598 32.156898 -1.8443191 0.0078431377
19.70982 24.787483 -1.6596856 0.015686275
44.929752 62.549328 9.4560642 0.05882353
19.496542 22.200232 -1.0317744 0.0078431377
38.976906 54.262012 -1.554649 0.054901961
2.7177141 3.3922572 -2.0268776 0.050980393
21.037025 32.270706 -0.67241907 0.027450981
19.471827 24.304792 -0.90635216 0.81176472
4.0384831 5.578939 -1.9280045 0.035294119
7.4504046 9.2996149 -2.38322 0.0039215689
40.642662 56.145592 -2.035197e-05 0.11764706
19.503571 22.044758 -0.34267262 0.047058824
8.8694954 12.252716 -2.3532636 0
11.72251 14.632071 -2.3864737 0.0039215689
92.224197 141.47151 0.98145831 0.10980392
19.437225 24.261604 -0.1806882 0.078431375
12.410908 17.144979 -2.2798877 0.0078431377
16.31963 18.445967 -2.2990692 0.0078431377
40.591801 56.075329 1.6108127 0.047058824
19.522123 22.065727 0.34298718 0.035294119
18.250263 25.211727 -2.1764107 0.011764706
24.333542 30.373196 -3.1771293 0.015686275
19.432093 24.255198 0.54248321 0.098039217
18.145796 27.835567 -2.1295412 0.019607844
45.753361 63.205746 4.5441227 0.050980393
19.458925 24.288691 1.267943 0.10196079
23.326412 32.224148 -1.8530668 0.0078431377
19.855478 24.783665 -1.664291 0.015686275
45.307686 62.590073 9.4872627 0.05882353
19.503607 22.0448 -1.0278656 0.0078431377
39.053577 53.950356 -1.5498098 0.050980393
2.724987 3.3771067 -2.0234969 0.050980393
21.259342 32.364204 -0.6759094 0.027450981
19.453613 24.109091 -0.90158111 0.81176472
4.0624728 5.571032 -1.930161 0.039215688
7.4803615 9.2704973 -2.3824356 0.0039215689
40.652229 55.748047 -2.0043546e-05 0.11764706
19.508568 21.895908 -0.34141529 0.047058824
8.9052286 12.212098 -2.3514187 0
11.758568 14.572531 -2.3834431 0.0039215689
19.446451 24.100214 -0.17999065 0.078431375
12.468341 17.098337 -2.2794595 0.0078431377
16.317688 18.314543 -2.2897749 0.0078431377
40.603535 55.681267 1.603555 0.047058824
19.513889 21.90188 0.34149724 0.031372551
18.338165 25.147865 -2.1764104 0.011764706
17.459595 21.637878 -2.2697499 0.0078431377
19.446329 24.100063 0.54052866 0.070588239
18.286694 27.838781 -2.1346579 0.019607844
19.524706 21.914019 -1.7092929 0.0078431377
44.625576 61.196861 4.4108691 0.050980393
19.465797 24.124193 1.2628956 0.082352944
23.542349 32.284573 -1.8612562 0.011764706
19.686018 24.397114 -1.6429378 0.015686275
20.051273 30.525093 -1.4879445 0.3137255
19.500666 21.887037 -1.0236775 0.0078431377
36.110352 49.519588 -1.4261413 0.050980393
2.7470088 3.3826001 -2.031949 0.047058824
21.349871 32.280582 -0.67556024 0.027450981
19.456156 23.957851 -0.89820647 0.81176472
4.0776744 5.5551367 -1.9290826 0.035294119
7.5193372 9.2591314 -2.3855734 0.0039215689
40.66621 55.400795 -1.9771122e-05 0.11764706
19.502493 21.751131 -0.34011137 0.047058824
8.9529028 12.196807 -2.3538785 0
11.8243 14.560162 -2.3874838 0.0039215689
19.451458 23.952065 -0.17933959 0.078431375
12.505521 17.036642 -2.2764604 0.0078431377
16.348553 18.233538 -2.286057 0.0078431377
40.605511 55.318104 1.5967624 0.047058824
19.526524 21.777933 0.34051949 0.031372551
18.417076 25.090132 -2.1764104 0.011764706
17.540047 21.598396 -2.2713773 0.0078431377
19.443781 23.942612 0.53836471 0.082352944
45.538296 62.038193 4.4817986 0.050980393
19.45582 23.957438 1.2573595 0.10196079
23.662569 32.236225 -1.8627452 0.011764706
19.445272 23.944448 -1.6165603 0.015686275
20.153675 30.471954 -1.4884329 0.15686275
19.491934 21.739355 -1.0196291 0.0078431377
2.7588005 3.3729901 -2.031949 0.039215688
19.463732 23.796938 -0.89471549 0.82352942
4.1084924 5.5563545 -1.9344741 0.031372551
7.5441642 9.2237177 -2.38322 0.0039215689
40.688129 55.026928 -1.9474128e-05 0.11764706
19.508612 21.605734 -0.3389006 0.047058824
9.0071754 12.18137 -2.3569531 0
11.872543 14.515724 -2.3869786 0.0039215689
19.448853 23.778746 -0.17854905 0.078431375
12.581468 17.015268 -2.2794592 0.0078431377
16.465487 18.235477 -2.2934923 0.0078431377
40.612923 54.925217 1.5895045 0.047058824
19.522015 21.620577 0.33912268 0.035294119
18.521154 25.048145 -2.1783636 0.011764706
17.615339 21.537035 -2.2713771 0.0078431377
19.443687 23.772432 0.53606111 0.098039217
18.537333 27.81654 -2.1423326 0.019607844
19.824831 21.955944 -1.7227809 0.0078431377
46.915539 63.448936 4.5955186 0.050980393
19.471014 23.805845 1.2529632 0.10196079
23.846224 32.249809 -1.8683287 0.011764706
19.508511 23.851685 -1.6148854 0.015686275
23.0639 31.191797 4.7631311 0.627451
20.275442 30.424694 -1.4895725 0.078431375
36.380924 49.201836 -1.4239076 0.050980393
2.7619224 3.351666 -2.0251873 0.043137256
36.615406 54.509956 -1.1462255 0.17254902
19.517763 23.685333 -0.89320272 0.43137255
4.1242261 5.5350819 -1.9323175 0.039215688
7.5878959 9.2081146 -2.3863575 0.0039215689
19.525763 21.466038 -0.3378295 0.047058824
9.0635681 12.164124 -2.3600278 0
11.933233 14.4813 -2.3884935 0.0039215689
19.457014 23.611612 -0.17782824 0.078431375
12.65325 16.9818 -2.2811728 0.0078431377
16.572407 18.219202 -2.2990689 0.0078431377
40.637146 54.538715 1.582619 0.047058824
19.547295 21.48971 0.33819154 0.031372551
18.641443 25.018496 -2.1817117 0.011764706
17.709364 21.490791 -2.2733297 0.0078431377
19.464554 23.620762 0.53424615 0.082352944
18.645834 27.758356 -2.1431 0.019607844
19.97234 21.956989 -1.7285949 0.0078431377
47.302845 63.484695 4.6106348 0.050980393
19.47934 23.638708 1.2479156 0.10196079
23.995298 32.203854 -1.8707483 0.011764706
19.651682 23.847847 -1.619491 0.015686275
23.270578 31.23122 4.7821426 0.45490196
20.400185 30.370087 -1.4905493 0.019607844
19.509811 21.448502 -1.0125093 0.0078431377
39.268078 52.701302 -1.5293373 0.050980393
2.7753358 3.3452795 -2.0268774 0.035294119
40.159782 59.360329 -1.2510115 0.17647059
19.463444 23.460472 -0.88715178 0.33333334
4.1471806 5.5275383 -1.9344741 0.035294119
7.6158834 9.1798849 -2.3855731 0.0039215689
40.708786 54.258411 -1.8876737e-05 0.11764706
19.515804 21.312677 -0.33643246 0.047058824
9.0967369 12.124518 -2.3581827 0
11.973586 14.432491 -2.3869784 0.0039215689
19.456032 23.451538 -0.17710745 0.078431375
12.688009 16.911119 -2.2773173 0.0078431377
16.63273 18.164148 -2.2990689 0.0078431377
40.642574 54.170158 1.5758264 0.047058824
19.532011 21.330378 0.33670157 0.050980393
18.738668 24.975695 -2.1833858 0.011764706
17.793257 21.447294 -2.2749569 0.0078431377
19.453396 23.44836 0.53180295 0.070588239
18.753433 27.719519 -2.1448905 0.019607844
20.134033 21.987827 -1.7362691 0.0078431377
45.706135 60.919098 4.4352884 0.050980393
19.481062 23.481709 1.2430308 0.10196079
27.893135 37.177158 -2.1650128 0.015686275
19.725552 23.776405 -1.6190721 0.015686275
20.543329 30.365171 -1.4936432 0.019607844
19.518736 21.315882 -1.0092986 0.0078431377
39.363419 52.465244 -1.5262662 0.050980393
2.7899039 3.3378651 -2.028568 0.035294119
40.156284 58.888908 -1.2441698 0.17647059
19.515968 23.349087 -0.88563895 0.45882353
4.1767054 5.52459 -1.9387873 0.031372551
7.6519957 9.1549168 -2.3863575 0.0039215689
40.719238 53.859951 -1.856714e-05 0.11764706
19.534128 21.176323 -0.33540791 0.047058824
9.1435003 12.094246 -2.3587976 0
12.00605 14.364149 -2.3829379 0.0039215689
19.470032 23.294128 -0.17645638 0.078431375
12.716331 16.820082 -2.2713196 0.0078431377
16.699198 18.103062 -2.2990687 0.0078431377
40.667221 53.791149 1.5691268 0.043137256
19.558537 21.202782 0.33581698 0.039215688
18.837309 24.916391 -2.1842229 0.011764706
17.897318 21.412516 -2.2782114 0.0078431377
43.652664 64.016327 2.2549572 0.11764706
19.47509 23.30018 0.53005785 0.082352944
20.730507 30.401138 -2.358254 0.019607844
20.168463 21.863983 -1.7323155 0.0078431377
45.791855 60.569592 4.4220333 0.050980393
19.490107 23.318146 1.2381463 0.10196079
28.209942 37.313717 -2.1789722 0.015686275
19.425745 23.24114 -1.5874609 0.011764706
20.679258 30.325987 -1.495434 0.039215688
19.539816 21.182487 -1.0063668 0.0078431377
39.471054 52.208961 -1.5230092 0.050980393
2.8079591 3.3369172 -2.0336394 0.035294119
40.12719 58.42905 -1.2372583 0.17647059
19.495461 23.167994 -0.88121706 0.43529412
4.2020016 5.519906 -1.9420222 0.031372551
7.7075644 9.1595039 -2.3942022 0.0039215689
40.732857 53.508209 -1.8291483e-05 0.11764706
19.5362 21.03816 -0.33424371 0.054901961
9.188343 12.070152 -2.3600276 0
12.086826 14.363728 -2.389504 0.0039215689
19.477631 23.146805 -0.17582856 0.078431375
12.834669 16.860102 -2.2824576 0.0078431377
16.894638 18.19351 -2.3176575 0.0078431377
40.799339 53.595547 1.5673591 0.043137256
19.544363 21.046951 0.33437356 0.047058824
18.956079 24.901415 -2.1884081 0.011764706
18.024693 21.420162 -2.2853715 0.0078431377
19.477568 23.14673 0.52803344 0.070588239
18.903557 27.525396 -2.1400299 0.019607844
20.284327 21.843803 -1.7360363 0.0078431377
46.442337 61.008408 4.4652886 0.050980393
19.487549 23.15859 1.2330986 0.10196079
28.415802 37.328064 -2.1853001 0.015686275
19.567001 23.25301 -1.5926945 0.011764706
20.836269 30.339615 -1.4995048 0.019607844
39.571293 51.982334 -1.5202173 0.050980393
2.8242781 3.3326261 -2.0370204 0.031372551
19.511593 23.023539 -0.8783074 0.27843139
4.2212453 5.5052028 -1.9420222 0.043137256
7.7065258 9.0936422 -2.3840039 0.0039215689
42.034142 54.819496 -1.726425e-05 0.11764706
19.535763 20.890957 -0.332986 0.047058824
9.2352333 12.044273 -2.3612566 0
12.131764 14.315391 -2.3884931 0.0039215689
100.03868 144.5818 1.0217987 0.10980392
19.48332 22.990175 -0.17515381 0.078431375
12.874087 16.789946 -2.2790301 0.0078431377
16.958048 18.134422 -2.317657 0.0078431377
48.081638 62.706436 1.8386986 0.050980393
19.560349 20.917248 0.3333962 0.027450981
19.040466 24.831923 -2.1881285 0.011764706
17.988529 21.226326 -2.2713761 0.0078431377
22.700041 32.807438 1.1610501 0.023529412
19.480682 22.987064 0.52593976 0.098039217
18.992716 27.44939 -2.1392612 0.019607844
20.955046 22.408693 -1.7867335 0.011764706
46.290554 60.370575 4.430407 0.050980393
19.501091 23.011145 1.2288655 0.10196079
28.463276 37.120831 -2.1789711 0.015686275
19.583492 23.108377 -1.5874603 0.011764706
21.048937 30.421165 -1.507157 0.019607844
19.519724 20.873806 -0.99799049 0.019607844
39.662487 51.726463 -1.5167731 0.050980393
2.8311863 3.3172331 -2.0336394 0.031372551
22.797724 32.704067 -0.69587356 0.027450981
4.23808 5.4873862 -1.9409438 0.035294119
7.7509513 9.081605 -2.3879263 0.0039215689
19.540007 20.749846 -0.33182177 0.054901961
9.2747993 12.008838 -2.360642 0
12.189385 14.282015 -2.3900084 0.0039215689
19.485546 22.830757 -0.17445625 0.078431375
12.966645 16.788971 -2.2850275 0.0078431377
16.991205 18.043226 -2.3135676 0.0078431377
19.553719 20.764406 0.33204597 0.039215688
19.175804 24.828472 -2.1937089 0.011764706
18.163443 21.281673 -2.2840688 0.0078431377
19.4881 22.83375 0.52398521 0.082352944
19.108953 27.412405 -2.1415634 0.019607844
21.085144 22.390648 -1.7911518 0.011764706
46.867115 60.68269 4.4652905 0.050980393
19.503452 22.851738 1.2239808 0.10196079
28.675705 37.128773 -2.1852989 0.015686275
19.728859 23.115841 -1.5926939 0.011764706
21.287552 30.537674 -1.516601 0.019607844
39.701019 51.404148 -1.5113757 0.050980393
2.8338706 3.2958391 -2.0268774 0.035294119
22.873747 32.558117 -0.69454706 0.027450981
19.529858 22.713562 -0.87179095 0.039215688
4.2652602 5.4809375 -1.9441788 0.039215688
7.7918544 9.0620584 -2.3902798 0.0039215689
42.137894 54.147984 -1.6736847e-05 0.11764706
19.55261 20.611349 -0.3307507 0.047058824
9.3284578 11.987242 -2.3631015 0
12.233886 14.228217 -2.3884931 0.0039215689
22.872246 32.555981 0.2312334 0.05882353
19.488249 22.665169 -0.17373547 0.050980393
13.030532 16.744474 -2.2854559 0.0078431377
16.980471 17.899929 -2.3031578 0.0078431377
19.577385 20.637466 0.33116132 0.027450981
19.237263 24.720238 -2.1903605 0.011764706
18.230921 21.202871 -2.2827671 0.0078431377
22.890535 32.582012 1.1588395 0.047058824
19.488216 22.665133 0.5217514 0.043137256
19.211586 27.345455 -2.1418195 0.019607844
21.180805 22.327705 -1.7923145 0.011764706
48.040749 61.733273 4.5555224 0.050980393
19.51672 22.698282 1.2195845 0.050980393
28.789503 36.995049 -2.1836238 0.015686275
19.487909 22.664774 -1.5665257 0.0078431377
19.55028 20.608891 -0.99198753 0.027450981
39.739334 51.065792 -1.5056994 0.050980393
2.8471563 3.2891655 -2.028568 0.035294119
22.981581 32.48209 -0.69454694 0.054901961
19.508244 22.536827 -0.8674854 0.047058824
4.2786598 5.4607 -1.9420222 0.039215688
7.8090253 9.0213451 -2.3863571 0.0039215689
19.56008 20.482765 -0.32972619 0.047058824
9.3779068 11.968688 -2.365561 0
12.291386 14.199574 -2.3905132 0.0039215689
23.02397 32.542004 0.23167518 0.035294119
19.495232 22.521793 -0.17313091 0.050980393
13.039381 16.641697 -2.2773163 0.0078431377
17.058987 17.863686 -2.3057599 0.0078431377
19.385725 24.741312 0.73138589 0.0078431377
19.565603 20.488548 0.32981104 0.039215688
19.365889 24.715992 -2.195662 0.011764706
18.374186 21.226704 -2.2918799 0.0078431377
22.973047 32.470028 1.1575596 0.098039217
19.500443 22.527815 0.52007604 0.054901961
19.355185 27.35655 -2.1477034 0.019607844
21.323675 22.32955 -1.7981284 0.011764706
47.905308 61.139858 4.5234294 0.050980393
19.510788 22.539766 1.214537 0.050980393
23.970951 30.593275 -1.8104421 0.0078431377
19.528969 22.560768 -1.5638041 0.0078431377
22.986805 32.489475 -1.6214635 0.019607844
19.577097 20.500586 -0.98989356 0.0078431377
2.8657677 3.2874041 -2.0336394 0.031372551
40.240124 56.456215 -1.2101692 0.17647059
19.528997 22.402281 -0.86492532 0.039215688
4.3024693 5.4517775 -1.9441787 0.035294119
7.8585124 9.0147257 -2.3918483 0.0039215689
19.442554 24.636206 -7.1458439e-06 0.06666667
19.562155 20.342281 -0.32856196 0.054901961
9.419632 11.935878 -2.365561 0
12.314805 14.126669 -2.3854623 0.0039215689
40.496311 56.815643 0.40548944 0.05882353
19.500137 22.369175 -0.17247987 0.050980393
23.965082 30.366821 -4.1669412 0.019607844
17.157133 17.841345 -2.3105929 0.0078431377
19.581562 20.362461 0.32887986 0.027450981
24.049942 30.474352 -2.7146516 0.011764706
18.448174 21.162432 -2.2918797 0.0078431377
23.083937 32.386375 1.1574433 0.023529412
19.500126 22.369162 0.51798189 0.062745102
19.483002 27.33432 -2.1512847 0.019607844
21.182831 22.027588 -1.7797563 0.011764706
48.118454 60.972248 4.5234299 0.050980393
19.526323 22.399214 1.2106292 0.062745102
24.033049 30.452948 -1.8070917 0.0078431377
19.599733 22.483423 -1.5631762 0.0078431377
19.551563 20.331266 -0.98500746 0.0078431377
2.8844018 3.2855527 -2.0387108 0.027450981
40.315666 56.146465 -1.2065388 0.17647059
19.527948 22.243828 -0.86143434 0.039215688
4.3190775 5.4337091 -1.9431003 0.035294119
7.8925228 8.9901848 -2.3926327 0.0039215689
19.55792 20.196291 -0.32730463 0.054901961
9.4563227 11.896735 -2.3643312 0
12.38499 14.107448 -2.3895032 0.0039215689
40.503094 56.407497 0.40358341 0.05882353
19.514776 22.228823 -0.17192183 0.050980393
24.085793 30.301657 -4.1695118 0.019607844
17.271954 17.835703 -2.3176568 0.0078431377
19.4286 24.442579 0.72654742 0.082352944
19.571833 20.210657 0.32752961 0.050980393
24.188457 30.430817 -2.7182791 0.011764706
18.540352 21.118874 -2.2941577 0.0078431377
40.484306 56.381332 2.0200276 0.10196079
19.506855 22.219801 0.51609713 0.035294119
19.578306 27.26614 -2.1512847 0.019607844
21.204039 21.896135 -1.775105 0.011764706
48.308647 60.775772 4.521337 0.050980393
19.533207 22.249819 1.2062328 0.050980393
24.139212 30.368864 -1.8070917 0.0078431377
19.651751 22.384846 -1.5610825 0.0078431377
19.411182 24.420666 -0.72591013 0.082352944
2.8976822 3.2786851 -2.0404012 0.031372551
40.365726 55.824486 -1.2024896 0.17647059
19.538061 22.10704 -0.85864151 0.039215688
4.344295 5.4283781 -1.9463352 0.039215688
7.9145007 8.955143 -2.3902795 0.0039215689
19.462349 24.319027 -6.9112943e-06 0.090196081
19.566158 20.071173 -0.3263267 0.047058824
9.4981947 11.868395 -2.3649459 0
12.431705 14.066297 -2.3895032 0.0039215689
40.509472 56.023281 0.40179363 0.05882353
19.508919 22.074066 -0.1712243 0.050980393
24.228397 30.274401 -4.1767941 0.019607844
17.283747 17.729843 -2.3113368 0.0078431377
19.437092 24.287468 0.72384894 0.090196081
19.582911 20.088358 0.32659841 0.035294119
19.69668 24.61183 -2.2043116 0.011764706
18.602365 21.048309 -2.2931814 0.0078431377
40.495358 56.003765 2.0113008 0.10196079
19.508924 22.074074 0.51421237 0.043137256
19.624182 27.139603 -2.1464241 0.019607844
21.312775 21.862865 -1.7781283 0.011764706
48.702065 60.855297 4.5392447 0.050980393
19.53278 22.101065 1.2016736 0.050980393
19.41131 24.255249 -1.447125 0.0078431377
19.503674 22.068129 -1.5434974 0.0078431377
19.407108 24.250002 -0.72274613 0.094117649
2.9091072 3.2685525 -2.0404012 0.031372551
40.390759 55.450512 -1.197463 0.17647059
19.538008 21.952106 -0.85526693 0.027450981
4.3680472 5.4191818 -1.9484918 0.047058824
7.9326673 8.912818 -2.3863571 0.0039215689
19.469286 24.154415 -6.7912301e-06 0.090196081
19.580048 19.945681 -0.32539535 0.054901961
9.5519581 11.85056 -2.3680205 0
12.493911 14.037644 -2.3920283 0.0039215689
40.528118 55.639088 0.40005034 0.05882353
19.516697 21.928162 -0.17061974 0.050980393
13.342466 16.553223 -2.2901678 0.0078431377
17.323195 17.646677 -2.308362 0.0078431377
19.436411 24.11363 0.7206853 0.082352944
19.588453 19.954241 0.32552752 0.050980393
19.782454 24.54294 -2.2043116 0.011764706
18.688963 20.99815 -2.2948084 0.0078431377
40.521065 55.629406 2.002923 0.10196079
19.522032 21.934156 0.51253712 0.074509807
19.880947 27.293585 -2.1640763 0.019607844
19.535393 21.949167 1.1971146 0.050980393
19.540974 24.243353 -1.450475 0.0078431377
19.540737 21.955172 -1.5403572 0.0078431377
32.821609 45.0592 -2.2711556 0.06666667
19.418844 24.091835 -0.72004753 0.094117649
2.9205 3.2583771 -2.0404012 0.039215688
19.545137 21.806355 -0.8522414 0.031372551
4.3917947 5.4098811 -1.9506485 0.047058824
7.9768229 8.8996754 -2.3902795 0.0039215689
19.475334 23.990028 -6.6717653e-06 0.11372549
19.57645 19.803249 -0.32418454 0.047058824
9.5932703 11.817142 -2.3680205 0
12.529599 13.979171 -2.389503 0.0039215689
40.549355 55.261845 0.39835358 0.05882353
19.518377 21.776497 -0.16996869 0.047058824
13.375106 16.475666 -2.2858839 0.0078431377
17.496691 17.69939 -2.3232331 0.0078431377
19.44738 23.955595 0.71798694 0.070588239
19.598944 19.826004 0.32454976 0.027450981
19.840347 24.439651 -2.201242 0.011764706
18.762154 20.932779 -2.2948084 0.0078431377
40.537609 55.245838 1.9941959 0.10196079
19.523741 21.782482 0.51058245 0.050980393
19.93832 27.172522 -2.1599829 0.019607844
21.706308 21.957779 -1.7981279 0.011764706
19.545208 21.806433 1.1930439 0.050980393
19.479422 23.995064 -1.4396796 0.0078431377
4.3977909 5.9934392 -0.30286363 0
19.57147 19.798212 -0.97216409 0.45490196
19.424696 23.927652 -0.71716279 0.082352944
2.9324236 3.2476501 -2.0404012 0.039215688
36.347183 49.156204 -1.067126 0.16862746
19.54991 21.651474 -0.84898317 0.031372551
4.4091563 5.3907652 -1.9495702 0.039215688
8.0041323 8.8645544 -2.3887105 0.0039215689
19.489698 23.82869 -6.5503177e-06 0.06666667
19.589638 19.671843 -0.3232066 0.054901961
9.6440287 11.791077 -2.3698652 0
12.586073 13.93904 -2.3905129 0.0039215689
40.573284 54.871624 0.39661023 0.05882353
19.53373 21.633554 -0.16941065 0.047058824
13.415265 16.401901 -2.2824566 0.0078431377
17.519297 17.592806 -2.3176565 0.0078431377
19.459106 23.791286 0.71519542 0.090196081
19.598104 19.680344 0.32333919 0.050980393
19.454855 23.786085 -2.1487849 0.011764706
18.873487 20.902332 -2.2990394 0.0078431377
40.554424 54.846115 1.9851202 0.10196079
19.528404 21.627657 0.50862795 0.050980393
20.108988 27.195545 -2.1676579 0.019607844
21.927534 22.019545 -1.8097557 0.011764706
19.552689 21.654552 1.1886476 0.050980393
19.450878 23.781227 -1.4311178 0.0078431377
19.76428 21.888887 -1.5455906 0.0078431377
32.948387 44.55965 -2.2578032 0.06666667
19.612881 19.695183 -0.97062844 0.39215687
19.431255 23.757236 -0.71418494 0.094117649
2.9480536 3.2432742 -2.0437822 0.039215688
36.569695 49.115612 -1.0688711 0.16862746
19.551674 21.509604 -0.84595764 0.035294119
4.4441471 5.3969302 -1.9571182 0.039215688
8.0387592 8.8437691 -2.3902793 0.0039215689
19.484694 23.662037 -6.4347601e-06 0.13333334
19.5868 19.538982 -0.32208896 0.054901961
9.6730223 11.74683 -2.3674057 0
12.64557 13.911911 -2.3930385 0.0039215689
40.580635 54.502583 0.39491343 0.05882353
19.530025 21.485788 -0.16875961 0.047058824
13.474634 16.363472 -2.2833133 0.0078431377
17.648027 17.604939 -2.3269508 0.0078431377
19.461626 23.634024 0.71240395 0.070588239
19.612284 19.564405 0.32250112 0.039215688
19.533619 23.721447 -2.1487849 0.011764706
18.937332 20.833736 -2.2983882 0.0078431377
40.559364 54.474018 1.9765095 0.10196079
19.535452 21.491758 0.50695264 0.035294119
20.225277 27.163935 -2.1704714 0.019607844
28.355734 28.286503 -2.3325429 0.027450981
19.551804 21.509747 1.1842514 0.050980393
19.516928 23.701181 -1.4301871 0.0078431377
20.038265 22.044922 -1.5612913 0.0078431377
32.995712 44.31551 -2.2509642 0.06666667
19.443832 23.612415 -0.71176547 0.094117649
2.9544621 3.2276146 -2.040401 0.047058824
40.505966 54.007679 -1.1784041 0.17254902
19.56455 21.373384 -0.84328115 0.031372551
4.4703369 5.3902774 -1.960353 0.039215688
8.0801773 8.8272257 -2.3934171 0.0039215689
19.498234 23.51074 -6.3208349e-06 0.10980392
19.592377 19.40856 -0.32106447 0.054901961
9.7215405 11.722117 -2.3692503 0
12.651189 13.820849 -2.3849571 0.0039215689
40.590649 54.120586 0.39317015 0.05882353
19.540094 21.346668 -0.16820157 0.050980393
13.546908 16.334698 -2.2858837 0.0078431377
17.748987 17.582462 -2.3321555 0.0078431377
19.472534 23.479753 0.70979863 0.090196081
19.615108 19.43108 0.32143024 0.039215688
19.425268 23.422754 -2.1278577 0.011764706
19.020714 20.779263 -2.2996902 0.0078431377
40.569359 54.092205 1.9677826 0.098039217
19.532047 21.337877 0.50492823 0.070588239
20.37986 27.173002 -2.1768675 0.019607844
28.596153 28.327858 -2.3441706 0.027450981
19.564707 21.373556 1.1805065 0.05882353
19.540882 23.562162 -1.4259061 0.0078431377
20.182529 22.048496 -1.566525 0.0078431377
32.987144 43.982635 -2.2398918 0.06666667
19.439348 23.439737 -0.70860159 0.094117649
2.9607954 3.2119517 -2.0370204 0.047058824
40.561634 53.690453 -1.1745628 0.17254902
19.563152 21.222651 -0.84002262 0.035294119
4.474308 5.3569036 -1.9538831 0.035294119
8.1082792 8.7960854 -2.3926325 0.0039215689
19.503252 23.350441 -5.7278794e-06 0.090196081
19.594419 19.275541 -0.31999311 0.054901961
9.7547951 11.679012 -2.3674054 0
12.753141 13.83496 -2.3950584 0.0039215689
40.605705 53.748787 0.39149791 0.05882353
19.538572 21.195986 -0.16755016 0.047058824
13.616586 16.302578 -2.2880254 0.0078431377
17.841482 17.551128 -2.3362451 0.0078431377
19.474903 23.3165 0.7069146 0.090196081
19.622934 19.303591 0.32045272 0.039215688
19.442955 23.278246 -2.1208816 0.011764706
19.128252 20.750854 -2.303921 0.0078431377
40.586796 53.723755 1.9595225 0.098039217
19.54677 21.204878 0.50339288 0.050980393
20.474581 27.101702 -2.176867 0.019607844
28.552519 28.087854 -2.3325424 0.027450981
19.563339 21.222853 1.1759477 0.05882353
19.453951 23.291414 -1.4136213 0.0078431377
20.216043 21.930925 -1.563175 0.0078431377
22.714836 27.195541 4.350729 0.011764706
40.315506 43.73539 4.8558226 0.047058824
33.012772 43.698212 -2.2312605 0.06666667
19.446705 23.282738 -0.70590246 0.094117649
2.9719901 3.201596 -2.0370204 0.039215688
40.605923 53.360744 -1.1704438 0.17254902
19.566395 21.078037 -0.83699709 0.031372551
4.4929814 5.3412514 -1.9538831 0.039215688
8.1522789 8.7820988 -2.3965549 0.0039215689
19.502253 23.184259 -5.6196677e-06 0.090196081
19.604368 19.151121 -0.31906176 0.054901961
9.8133163 11.66606 -2.3717096 0
12.787862 13.775813 -2.3925328 0.0039215689
41.587589 54.650764 0.39912298 0.05882353
19.547136 21.057291 -0.16699213 0.050980393
13.650374 16.227552 -2.2841699 0.0078431377
17.760197 17.349585 -2.317656 0.0078431377
19.468658 23.144323 0.70375085 0.070588239
19.615814 19.162302 0.31924215 0.050980393
19.200575 20.68395 -2.303921 0.0078431377
46.899891 61.631729 2.2539163 0.11764706
19.544489 21.05444 0.50143832 0.05882353
20.600491 27.071356 -2.1801925 0.019607844
19.803907 19.346046 -1.6123145 0.0078431377
19.569332 21.081202 1.1718771 0.050980393
19.447691 23.119396 -1.407293 0.0078431377
20.251715 21.816303 -1.5600346 0.0078431377
22.694628 26.979357 4.3287926 0.011764706
40.391991 43.512566 4.8467097 0.047058824
33.032005 43.407768 -2.2223048 0.06666667
19.582317 19.12958 -0.95597005 0.83529413
19.455788 23.129023 -0.70329696 0.094117649
2.9856207 3.1938529 -2.0387108 0.043137256
40.689716 53.0854 -1.1675116 0.17254902
19.574306 20.939526 -0.83420432 0.031372551
4.521554 5.3372946 -1.9581964 0.047058824
8.1775208 8.7478647 -2.3949859 0.0039215689
19.50289 23.021442 -5.5129049e-06 0.10980392
19.607924 19.021318 -0.31803727 0.054901961
9.843751 11.619678 -2.3692501 0
12.857538 13.754291 -2.3965738 0.0039215689
41.731831 54.444984 0.39868149 0.05882353
19.554949 20.918818 -0.16643409 0.047058824
13.717206 16.191954 -2.2858834 0.0078431377
17.963568 17.426153 -2.3362448 0.0078431377
19.489859 23.00606 0.7016108 0.090196081
19.625149 19.038027 0.31831095 0.062745102
19.733946 23.29418 -2.1348329 0.011764706
19.297144 20.643028 -2.3068497 0.0078431377
47.17551 61.547016 2.2568254 0.11764706
19.557762 20.921827 0.49990261 0.035294119
20.687557 26.989792 -2.1794248 0.019607844
19.851238 19.257351 -1.6106864 0.0078431377
19.57728 20.942705 1.1679693 0.05882353
19.657394 23.203823 -1.416599 0.0078431377
20.423203 21.847626 -1.5673617 0.0078431377
22.727053 26.827288 4.3170929 0.011764706
40.82946 43.677139 4.8808832 0.047058824
33.044708 43.111423 -2.2130232 0.06666667
19.580091 18.994318 -0.95261955 0.84705883
19.461424 22.972496 -0.7005983 0.094117649
2.9992371 3.1860507 -2.0404012 0.043137256
40.796577 52.841732 -1.1652775 0.17254902
19.578772 20.798286 -0.83129519 0.031372551
4.5376582 5.3185472 -1.957118 0.043137256
8.2106981 8.7221203 -2.3957705 0.0039215689
19.510445 22.868017 -5.4090988e-06 0.10980392
19.616598 18.897255 -0.31710589 0.054901961
9.8970814 11.60028 -2.3723247 0
19.58532 20.805237 -3.6370339 0.0039215689
19.564796 20.78344 -0.16589929 0.050980393
13.786553 16.159096 -2.2880254 0.0078431377
18.024292 17.363337 -2.3362448 0.0078431377
19.486996 22.840534 0.69863319 0.090196081
19.62812 18.908356 0.31728661 0.027450981
19.377291 20.584249 -2.3078263 0.0078431377
47.038231 60.926228 2.2400699 0.11764706
19.551182 20.768976 0.49787825 0.070588239
20.845076 26.999563 -2.1860764 0.019607844
19.794682 19.068808 -1.6006864 0.0078431377
19.584522 20.804394 1.1640614 0.05882353
19.738277 23.135059 -1.416599 0.0078431377
20.726601 22.017609 -1.5847372 0.011764706
33.072884 42.837627 -2.2048817 0.06666667
19.600218 18.881477 -0.95038587 0.85882354
19.471424 22.822283 -0.69808573 0.094117649
3.0028591 3.1676683 -2.0353301 0.039215688
40.848221 52.528503 -1.1615075 0.17254902
19.585239 20.660168 -0.82850236 0.031372551
4.5687485 5.3172817 -1.9625095 0.039215688
8.2303028 8.6820173 -2.3926325 0.0039215689
19.519772 22.717854 -5.3066105e-06 0.050980393
19.621752 18.770597 -0.31612796 0.054901961
9.9375172 11.565659 -2.3723247 0
19.600502 20.676262 -3.6264277 0.0039215689
41.757359 53.697605 0.39533433 0.05882353
19.560179 20.633732 -0.16524826 0.050980393
13.863614 16.135 -2.2914524 0.0078431377
17.940901 17.162657 -2.3176558 0.0078431377
19.498854 22.693506 0.69621396 0.031372551
19.630423 18.778893 0.31626227 0.062745102
19.498398 20.568556 -2.3136842 0.0078431377
48.109692 61.866344 2.2807965 0.12156863
19.565784 20.639645 0.49641234 0.050980393
20.912251 26.891968 -2.1832621 0.019607844
19.814959 18.955423 -1.5969653 0.0078431377
19.585539 20.660482 1.1598279 0.05882353
19.428322 22.61142 -1.3886801 0.0039215689
20.885782 22.032087 -1.5910174 0.011764706
33.043125 42.491596 -2.1929951 0.062745102
19.462368 22.651043 -0.69492185 0.050980393
3.0189035 3.1624122 -2.0387108 0.035294119
19.383709 24.747618 -0.54871041 0.019607844
19.593731 20.525162 -0.82582593 0.031372551
4.5898013 5.3042159 -1.9635878 0.039215688
8.2795143 8.6730976 -2.398124 0.0039215689
19.517811 22.555815 -5.2015512e-06 0.062745102
19.620451 18.638634 -0.31505689 0.054901961
9.9726534 11.524924 -2.3710945 0
13.00635 13.624632 -2.3975835 0.0039215689
19.391266 24.757267 0.18276638 0.0078431377
19.574078 20.504572 -0.16475998 0.050980393
13.89903 16.062454 -2.2880251 0.0078431377
18.145071 17.23708 -2.3362446 0.0078431377
19.499445 22.534592 0.69342244 0.043137256
19.640751 18.657917 0.31537765 0.074509807
19.44677 22.473713 -2.0781901 0.0039215689
19.589342 20.520559 -2.3159623 0.0078431377
19.571428 20.501797 0.49473697 0.070588239
21.052753 26.878519 -2.188123 0.019607844
19.854944 18.861391 -1.5948724 0.0078431377
19.594059 20.525505 1.1560831 0.05882353
19.507128 22.54347 -1.38868 0.0039215689
21.467312 22.487804 -1.6293273 0.015686275
33.075405 42.228119 -2.1853418 0.062745102
19.478512 22.510401 -0.69268852 0.050980393
3.0274127 3.1492405 -2.0370204 0.035294119
19.59045 20.378811 -0.82268405 0.031372551
4.6082902 5.2881613 -1.9635878 0.031372551
8.2879953 8.62152 -2.3918481 0.0039215689
19.530733 22.412151 -5.1016586e-06 0.062745102
19.638847 18.526115 -0.31431177 0.054901961
10.023211 11.50196 -2.3735542 0
13.037334 13.561981 -2.3945529 0.0039215689
19.576239 20.364027 -0.16417868 0.047058824
13.960244 16.019835 -2.288882 0.0078431377
18.132706 17.105309 -2.3269503 0.0078431377
19.507057 22.384983 0.69091016 0.047058824
19.647573 18.534348 0.31444645 0.05882353
19.496269 22.372597 -2.0751209 0.0039215689
19.66086 20.452049 -2.3159623 0.0078431377
19.390413 24.578939 0.91110891 0.11764706
19.573587 20.361269 0.49299183 0.035294119
24.125698 30.581297 -2.4963992 0.023529412
21.163893 19.96475 -1.6944065 0.0078431377
19.59358 20.382067 1.1518496 0.05882353
