# .PCD v0.7 - Point Cloud Data file format
VERSION 0.7
FIELDS x y z intensity
SIZE 4 4 4 4
TYPE F F F F
COUNT 1 1 1 1
WIDTH 1087
HEIGHT 1
VIEWPOINT 0 0 0 1 0 0 0
POINTS 1087
DATA ascii
-0.28661925 -4.9110889 -2.2939861 0.0039215689
1.9237014 -48.746643 -0.85169399 0.054901961
-1.3690616 -23.458151 -0.68394154 0.043137256
-0.058786292 -6.2359853 -1.7457877 0
-0.3647289 -6.2494025 -1.2520316 0
3.7871995 -95.967705 0.55788821 0.10980392
-4.5488334 -77.942078 -0.45405 0.070588239
-0.1591752 -16.885578 -1.8189909 0.015686275
-0.70245898 -6.5297856 -0.61308002 0.26666668
-6.9224048 -64.348366 0.75321668 0.039215688
-0.20318748 -21.554419 -1.5073686 0.050980393
-1.2185293 -20.87891 -1.7074242 0.043137256
1.3089147 -33.168152 0.96593338 0.019607844
-4.2690721 -73.148399 1.2787205 0.070588239
0.87030447 -22.053566 -1.4145536 0.047058824
-2.3623784 -21.959885 -1.2863474 0.078431375
-0.24923407 -26.438049 1.5396664 0.019607844
-3.2313714 -55.367809 2.259383 0.054901961
-0.21288057 -22.582521 -1.0520499 0.043137256
-1.3037614 -22.339291 -1.1728214 0.054901961
0.92006379 -23.31451 -0.95066917 0.047058824
-2.4667051 -22.929659 -0.80542409 0.054901961
-0.21559946 -22.868282 6.1277246 0.0039215689
-0.23254342 -24.668242 -0.57412261 0.023529412
-0.30592453 -4.9171886 -2.2973669 0.0039215689
1.6878262 -47.386742 -0.82781529 0.050980393
-1.4591242 -23.452721 -0.68394184 0.039215688
-0.082423732 -6.212605 -1.7393179 0
-0.38945282 -6.2597003 -1.2543851 0
-0.52983838 -39.936504 -0.00013465591 0.027450981
-7.8681588 -70.59005 -0.82715511 0.050980393
-0.085049465 -6.4103265 -0.99740201 0
-0.40064085 -6.4395041 -0.82126808 0.023529412
-7.4480848 -119.71453 -0.69755977 0.05882353
-0.22443204 -16.916656 -1.8224183 0.0078431377
-0.72840863 -6.5349565 -0.61382371 0.17254902
-0.53001648 -39.949692 0.92955345 0.023529412
-7.1512671 -64.158325 0.75130737 0.039215688
-0.28610778 -21.565449 -1.5082059 0.050980393
-1.2989371 -20.878056 -1.7077498 0.043137256
2.778259 -78.001526 2.2712522 0.11764706
-4.2789674 -68.77655 1.2025733 0.070588239
0.7846238 -22.02882 -1.4127629 0.047058824
-2.4480078 -21.962559 -1.2870454 0.070588239
-0.52550703 -39.609417 2.306823 0.023529412
-3.4007616 -54.660912 2.2310526 0.054901961
-0.29964262 -22.585533 -1.0522363 0.05882353
-1.3900244 -22.342093 -1.1732403 0.047058824
-1.6999943 -27.324121 2.2348239 0.0039215689
0.8286863 -23.265947 -0.94855249 0.039215688
-2.5556161 -22.927965 -0.80570364 0.054901961
-0.32641214 -24.603189 -0.57263392 0.019607844
-0.32284984 -4.9124732 -2.2956762 0.0039215689
1.4843898 -46.209137 -0.80714828 0.050980393
-1.5415083 -23.455463 -0.68417484 0.039215688
-0.1039165 -6.2007251 -1.736083 0
-0.41001567 -6.2387333 -1.2504628 0
-7.5853782 -65.960793 -0.77321666 0.047058824
-0.42441839 -6.4578633 -0.82379359 0.050980393
2.0601888 -64.133842 0.37273052 0.054901961
-3.5821321 -54.505512 -0.31766534 0.082352944
-0.28255022 -16.8601 -1.8164209 0.0078431377
-0.75167143 -6.5363302 -0.61419553 0.18431373
-7.7745605 -67.605835 0.79199052 0.043137256
-0.36125278 -21.556339 -1.5076481 0.050980393
-1.3694574 -20.837591 -1.7048209 0.043137256
1.7615219 -54.83651 1.5965437 0.05882353
0.70643938 -21.991528 -1.4102048 0.047058824
-2.525116 -21.957848 -1.2872783 0.062745102
-0.66417348 -39.631298 2.308218 0.011764706
-2.7258379 -41.47607 1.6932753 0.043137256
-0.37841523 -22.580355 -1.0520505 0.06666667
-1.4677458 -22.333118 -1.1730312 0.047058824
-0.55078 -32.864578 4.0357146 0.011764706
-1.7979814 -27.3578 2.2380781 0.027450981
0.74605322 -23.224756 -0.94676155 0.054901961
-2.635181 -22.914934 -0.80556428 0.054901961
-0.43994445 -26.250221 7.0346146 0.011764706
-0.41001657 -24.465956 -0.56946993 0.019607844
-0.33828086 -4.9114347 -2.2956765 0.0039215689
1.3251979 -45.729847 -0.79870021 0.050980393
-1.614637 -23.442528 -0.68394232 0.039215688
-0.12354894 -6.2080708 -1.7382398 0
-0.43096024 -6.2569795 -1.2543852 0
3.6266885 -125.14937 0.72726315 0.10980392
-2.4755721 -35.942257 -0.20951949 0.011764706
-0.33480299 -16.823343 -1.8125656 0.0039215689
-0.77266914 -6.5378919 -0.6145674 0.06666667
-0.52347964 -26.30369 0.61210483 0.027450981
-0.42897066 -21.555099 -1.5076483 0.074509807
-1.4351861 -20.837164 -1.7051466 0.050980393
1.5937605 -54.997643 1.6010807 0.05882353
-3.7558634 -54.530506 0.95389211 0.086274512
0.63677102 -21.973688 -1.4089259 0.054901961
-2.5954905 -21.961702 -1.2879761 0.062745102
-0.44911146 -22.56707 -1.0514921 0.062745102
-1.5384475 -22.33637 -1.1734502 0.054901961
-1.8984365 -27.562815 2.2553263 0.0039215689
0.67204666 -23.191031 -0.94529623 0.039215688
-2.709501 -22.926388 -0.80626249 0.06666667
-0.50049698 -25.14777 6.7395644 0.0039215689
-0.48440826 -24.340607 -0.56658512 0.023529412
-0.35549289 -4.8993149 -2.2906051 0.0039215689
1.0399892 -41.088589 -0.71756661 0.047058824
-1.6988115 -23.412525 -0.68324435 0.043137256
-0.14648345 -6.2152777 -1.7403965 0.0039215689
-0.45303887 -6.2436213 -1.2520319 0
-8.0138493 -65.740883 -0.77126175 0.24705882
4.7142525 -186.25322 1.0822355 0.10980392
-0.39655545 -16.825979 -1.8129941 0.0078431377
-0.7951808 -6.5231562 -0.61345214 0.043137256
-0.50778359 -21.545403 -1.5070904 0.074509807
-1.5124143 -20.843693 -1.7061232 0.043137256
0.74327677 -29.366179 0.85481858 0.0078431377
-2.606941 -35.928082 0.62864697 0.031372551
0.55612761 -21.97188 -1.4086703 0.054901961
-2.6774168 -21.963936 -1.2886741 0.062745102
-0.53106827 -22.533316 -1.0500034 0.06666667
-1.6200151 -22.326595 -1.173241 0.047058824
-0.56296116 -23.885963 2.9335594 0.0039215689
-2.0236826 -27.889683 2.2826631 0.0039215689
0.58582872 -23.145391 -0.94334245 0.047058824
-2.7949641 -22.928211 -0.80668163 0.054901961
-0.5995841 -25.439325 6.818244 0.0039215689
-0.5711686 -24.234724 -0.56416571 0.023529412
-0.373142 -4.9052739 -2.2939863 0.0039215689
0.8827768 -40.460217 -0.7065351 0.047058824
-1.7832533 -23.442331 -0.68429196 0.039215688
-0.16786472 -6.2031765 -1.7371615 0.0039215689
-0.47363979 -6.2263579 -1.2488941 0
-0.70776659 -26.154442 -8.8095949e-05 0.074509807
-8.2412815 -65.696632 -0.77107614 0.098039217
2.6123996 -119.73351 0.69566131 0.10980392
-0.45463952 -16.80064 -1.8104239 0.015686275
-0.81893677 -6.5282435 -0.61419576 0.023529412
-0.70790166 -26.159357 0.6088478 0.05882353
-0.58298588 -21.543499 -1.5070907 0.070588239
-1.5827421 -20.806486 -1.7035197 0.043137256
0.64259952 -29.452539 0.8572616 0.0078431377
-2.7293003 -35.878883 0.62794864 0.094117649
0.47899482 -21.953735 -1.4073913 0.047058824
-2.7520785 -21.938606 -1.287744 0.062745102
-0.7060346 -26.090246 1.5198988 0.06666667
-4.079812 -53.632454 2.1911604 0.054901961
-0.60971874 -22.531322 -1.0500036 0.062745102
-1.6982408 -22.324791 -1.1734508 0.047058824
-2.1884551 -28.768929 2.3552368 0.0039215689
0.50451177 -23.123322 -0.94236565 0.054901961
-2.8749793 -22.918316 -0.80668187 0.054901961
-0.72077888 -26.634386 7.1391749 0.0039215689
-1.8324 -24.088186 4.4044967 0.011764706
-0.65326977 -24.14064 -0.56202543 0.031372551
-0.38997543 -4.9003277 -2.2922957 0.0078431377
0.72614372 -39.623322 -0.69187278 0.027450981
-1.8660266 -23.447924 -0.68464142 0.039215688
-0.18975297 -6.2102532 -1.7393183 0.0039215689
-0.49661639 -6.2403069 -1.252032 0
-0.79991728 -26.179798 -8.8508597e-05 0.054901961
-8.4700537 -65.663506 -0.77103031 0.047058824
1.2274808 -66.979637 0.38913071 0.05882353
-7.9240594 -99.571533 -0.5809055 0.070588239
-0.51316303 -16.794975 -1.8099958 0.015686275
-0.84223002 -6.5292954 -0.61456764 0.015686275
-0.79982507 -26.176712 0.60931271 0.05882353
-0.65830827 -21.545321 -1.5073701 0.062745102
-1.6553636 -20.800835 -1.7035199 0.043137256
1.2301999 -67.128326 1.9537315 0.098039217
0.40206325 -21.939308 -1.4063683 0.047058824
-2.8322208 -21.956587 -1.2893723 0.070588239
-0.79771596 -26.107582 1.5210612 0.031372551
-4.2074003 -52.868881 2.1605508 0.054901961
-0.68836737 -22.529057 -1.050004 0.070588239
-1.7764785 -22.322706 -1.1736604 0.047058824
-0.72667134 -23.782244 2.9213724 0.015686275
-2.278115 -28.625994 2.3441713 0.0039215689
0.42298436 -23.080986 -0.94057477 0.054901961
-2.9575217 -22.927963 -0.80738026 0.054901961
-1.9142902 -24.054184 4.3994741 0.0039215689
-0.73631459 -24.098242 -0.56109506 0.035294119
-0.40738061 -4.9025493 -2.2939875 0.0039215689
0.58110487 -39.173733 -0.68399292 0.027450981
-1.9485379 -23.449234 -0.68488115 0.039215688
-0.21156368 -6.2134037 -1.7403979 0.0039215689
-0.51645046 -6.2150826 -1.2473265 0
-0.89171898 -26.188841 -9.5836331e-05 0.074509807
-8.1158962 -61.232319 -0.71934754 0.047058824
0.99369615 -66.987511 0.38913608 0.05882353
-0.57179338 -16.793079 -1.8100002 0.015686275
-0.8650201 -6.5263166 -0.61456931 0.015686275
-0.8927049 -26.217726 0.61032885 0.078431375
-0.7332505 -21.534914 -1.5068177 0.070588239
-1.7289629 -20.806847 -1.7045026 0.043137256
0.87218571 -58.796661 1.7111288 0.062745102
-5.2831736 -63.579182 1.1133513 0.06666667
0.32528985 -21.928604 -1.4056063 0.047058824
-2.9099069 -21.954485 -1.2898445 0.070588239
-0.89035279 -26.14854 1.5236119 0.062745102
-2.9310582 -35.273087 1.4418771 0.023529412
-0.76715159 -22.530512 -1.0501962 0.074509807
-1.8547304 -22.320349 -1.1738764 0.047058824
-0.82536864 -24.23984 2.977911 0.031372551
-3.0495543 -36.699039 3.0061114 0.015686275
0.34192815 -23.05035 -0.93927765 0.054901961
-3.0396497 -22.933346 -0.80794603 0.047058824
-0.90580386 -26.601681 7.1319203 0.043137256
-2.3902824 -28.765059 5.2625709 0.0039215689
-0.81867194 -24.04357 -0.55989182 0.023529412
-0.42480358 -4.9047089 -2.2956777 0.0078431377
0.43497294 -38.347702 -0.66953987 0.023529412
-2.0327919 -23.470175 -0.68569613 0.039215688
-0.23353961 -6.2203255 -1.7425545 0.0039215689
-0.53814143 -6.2132421 -1.2473266 0
-0.9864288 -26.273508 -9.6532553e-05 0.062745102
-8.2540693 -60.648769 -0.71282697 0.047058824
-0.24126917 -6.4261265 -1.0004784 0
1.108885 -97.760071 0.5678671 0.10980392
-7.9411721 -91.687218 -0.5352484 0.16078432
-0.62951177 -16.767136 -1.8074299 0.015686275
-0.88779521 -6.5232573 -0.61456943 0.0078431377
-0.80856454 -21.536211 -1.5070971 0.062745102
-1.8012357 -20.796711 -1.7041773 0.043137256
0.66776335 -58.871307 1.7132221 0.062745102
-5.499547 -63.496601 1.1122339 0.06666667
0.24856362 -21.913639 -1.4045831 0.047058824
-2.9875996 -21.952106 -1.2903099 0.070588239
-0.98866171 -26.332823 1.5345409 0.039215688
-0.84534121 -22.515718 -1.049638 0.06666667
-1.9329743 -22.317719 -1.174086 0.054901961
-0.94780862 -25.244528 3.1017263 0.015686275
-2.4693186 -28.510096 2.3360262 0.0039215689
0.26124075 -23.031422 -0.93846387 0.054901961
-3.122916 -22.946362 -0.80878401 0.047058824
-0.90124214 -24.004602 -0.55905455 0.031372551
-0.44094607 -4.8923645 -2.2906063 0
0.29928476 -38.117027 -0.66549057 0.023529412
-2.1136324 -23.450993 -0.68534732 0.039215688
-0.25446236 -6.2002296 -1.7371631 0.011764706
-0.55982733 -6.2113256 -1.2473266 0
0.76626682 -97.591362 0.5668667 0.10980392
-8.2575951 -91.619102 -0.53501695 0.16078432
-0.69113731 -16.840336 -1.8155699 0.0039215689
-0.91496807 -6.5516744 -0.61754382 0
-2.5005386 -60.92823 1.4187279 0.043137256
-0.88357472 -21.529272 -1.5068183 0.047058824
-1.8759691 -20.814121 -1.7061304 0.043137256
-5.7355275 -63.636349 1.1150248 0.06666667
0.17197193 -21.902399 -1.403816 0.047058824
-3.0658689 -21.953405 -1.2910078 0.078431375
-1.0933508 -26.640421 1.5526788 0.031372551
-4.8415551 -53.717545 2.1971657 0.054901961
-0.92360634 -22.504646 -1.0492661 0.05882353
-2.0101521 -22.302879 -1.1736676 0.054901961
-0.96706069 -23.563089 2.8955293 0.0039215689
-3.1865158 -35.354633 2.8977382 0.015686275
0.18055865 -22.996225 -0.93699855 0.047058824
-3.2024455 -22.931362 -0.80864471 0.054901961
-0.93781036 -22.850065 6.1277161 0.0039215689
-2.5447674 -28.234249 5.1685829 0.0039215689
-0.98453999 -23.989323 -0.55877566 0.031372551
-0.45851645 -4.9053135 -2.2973685 0.0039215689
0.16880412 -37.21796 -0.64978069 0.023529412
-2.1913853 -23.443851 -0.68534762 0.027450981
-0.27553329 -6.210896 -1.7403982 0.0078431377
-0.58005619 -6.2055297 -1.2465423 0
-3.3310251 -75.086166 -0.00028635049 0.12941177
-0.28693169 -6.4677696 -1.0072428 0
0.33613235 -74.110001 0.43046471 0.062745102
-8.5632229 -91.61113 -0.53513443 0.16078432
-0.75543684 -17.028658 -1.8361334 0.0039215689
-0.93499678 -6.5367765 -0.61642855 0
-3.3329666 -75.129784 1.7496601 0.047058824
-0.95372379 -21.498318 -1.5048654 0.05882353
-1.9427528 -20.78397 -1.7041777 0.043137256
0.1790881 -39.486897 1.1490518 0.070588239
-5.8623958 -62.717041 1.0992507 0.06666667
0.099305622 -21.894863 -1.4033045 0.054901961
-3.1369541 -21.931261 -1.2903104 0.070588239
-3.6385565 -38.925911 1.5926406 0.023529412
-0.99716491 -22.477509 -1.0481495 0.070588239
-2.0837264 -22.292114 -1.1734586 0.054901961
-3.5775619 -38.273315 3.1379137 0.015686275
0.10412008 -22.95673 -0.93537045 0.054901961
-3.2835634 -22.956232 -0.80990148 0.082352944
-1.0548456 -23.777067 6.377214 0.0039215689
-1.0607169 -23.910021 -0.55700767 0.031372551
-0.47544047 -4.8927751 -2.2922971 0.0078431377
0.030741358 -35.32262 -0.6166845 0.023529412
-2.2761366 -23.423719 -0.68499875 0.031372551
-0.29811078 -6.2059965 -1.7393198 0.011764706
-0.60355544 -6.2111697 -1.2481114 0
-3.6060169 -75.069466 -0.0002874021 0.12941177
-0.38080123 -7.9273963 -1.2347653 0
-0.84851956 -8.7320967 -1.1167474 0
0.064456791 -74.058739 0.4301616 0.062745102
-8.1437883 -83.807854 -0.48972446 0.16470589
-0.95432192 -6.5017815 -0.61345428 0
-2.9513481 -61.440525 1.4311001 0.043137256
-1.0321302 -21.486708 -1.5043076 0.05882353
-2.0193031 -20.780678 -1.7045037 0.035294119
0.07038492 -80.877754 2.3534794 0.24705882
-6.0910664 -62.683178 1.0990405 0.06666667
0.019059388 -21.899073 -1.4035606 0.062745102
-3.2196345 -21.935417 -1.2912409 0.070588239
-1.2862035 -26.775728 1.5610496 0.035294119
-5.2346168 -53.869396 2.2048163 0.054901961
-1.0793511 -22.469711 -1.0479637 0.070588239
-2.1650307 -22.280348 -1.1732494 0.054901961
-1.1010567 -22.921265 2.8175347 0.015686275
-2.8745437 -29.581823 2.4261725 0.0039215689
0.019947059 -22.920988 -0.93390512 0.054901961
-3.3676798 -22.944042 -0.80990177 0.074509807
-1.1466179 -23.870024 -0.5561704 0.035294119
-0.49287984 -4.8946929 -2.2939878 0.0039215689
-0.09318731 -35.562473 -0.6208744 0.023529412
-2.3574867 -23.411654 -0.68488264 0.027450981
-0.31997025 -6.208765 -1.7403983 0.0078431377
-0.62562585 -6.2129278 -1.248896 0
-7.6062784 -50.591957 -0.59581757 0.035294119
-0.40908107 -7.9378605 -1.2366101 0
-8.9552612 -88.932755 -0.5198524 0.16078432
-0.97819591 -6.5062871 -0.61419791 0
-1.108359 -21.506884 -1.5059822 0.050980393
-0.78009796 -7.7469344 -0.63564652 0.011764706
-0.25489858 -97.274506 2.8306184 0.24705882
-6.3322749 -62.884373 1.1029481 0.06666667
-0.057351872 -21.887032 -1.4027934 0.054901961
-3.2973719 -21.931944 -1.2917064 0.070588239
-1.356848 -26.328411 1.5352371 0.0039215689
-5.4154177 -53.779213 2.2018852 0.054901961
-1.1579844 -22.469797 -1.0481502 0.070588239
-2.2439919 -22.284578 -1.1738778 0.05882353
-1.2674937 -24.594444 3.0237308 0.0039215689
-0.060010392 -22.900936 -0.93309128 0.062745102
-3.4507215 -22.951914 -0.81060016 0.054901961
-1.3832524 -26.840343 7.2012806 0.031372551
-1.228081 -23.829933 -0.55533314 0.035294119
-0.50883472 -4.8821259 -2.2889161 0.0039215689
-0.21531585 -35.233986 -0.61514932 0.023529412
-2.4396067 -23.407261 -0.68499935 0.031372551
-0.3414287 -6.203764 -1.73932 0.011764706
-4.3049712 -78.221649 -0.00030187677 0.13333334
-7.7098122 -50.090717 -0.59022838 0.035294119
-0.35273215 -6.4090967 -0.9986341 0
-8.7543774 -83.995613 -0.49116898 0.16470589
-1.0027182 -6.5146418 -0.61531341 0
-3.3835006 -61.478317 1.432494 0.043137256
-1.1829851 -21.494917 -1.5054244 0.050980393
-0.49582836 -81.136154 2.3610396 0.24705882
-6.5546408 -62.889736 1.1034358 0.06666667
-0.13370082 -21.878716 -1.4022821 0.054901961
-3.3769441 -21.940035 -1.2928697 0.070588239
-3.7050052 -67.319923 3.926218 0.047058824
-5.603519 -53.763962 2.2020473 0.054901961
-1.235751 -22.45365 -1.0475922 0.06666667
-2.3221779 -22.280582 -1.1740874 0.054901961
-0.13980067 -22.876608 -0.93211454 0.078431375
-3.5338564 -22.959484 -0.81129849 0.047058824
-1.2391294 -22.514542 6.0417881 0.0039215689
-2.5760787 -24.716484 4.5307603 0.0039215689
-1.3094953 -23.793554 -0.55458891 0.035294119
-0.52455705 -4.8841071 -2.2906067 0.0039215689
-0.313907 -33.925392 -0.59231716 0.023529412
-2.5109968 -23.379604 -0.68441772 0.039215688
-0.36091691 -6.202661 -1.73932 0.011764706
-0.66849262 -6.2242417 -1.2520341 0
-4.5379138 -77.988113 -0.0003019571 0.13333334
-7.8590684 -50.014877 -0.58962345 0.035294119
-0.38181946 -6.5618429 -1.0226163 0
-0.59506947 -64.31218 0.37356359 0.054901961
-7.6142077 -70.895096 -0.4147009 0.062745102
-1.0207069 -6.4957218 -0.61382627 0
-3.5789487 -61.507309 1.4334236 0.043137256
-1.2502763 -21.48711 -1.5051455 0.050980393
-0.82805383 -7.7098794 -0.63304293 0.082352944
-7.2792048 -67.775871 1.1895599 0.070588239
-0.20213957 -21.846254 -1.4002355 0.054901961
-3.4508138 -21.960876 -1.2947304 0.070588239
-2.3405209 -40.223721 2.3463376 0.019607844
-5.7753859 -53.773911 2.2031865 0.054901961
-1.3060539 -22.445667 -1.0474062 0.070588239
-2.3934433 -22.285091 -1.1747158 0.054901961
-1.3556267 -23.297367 2.8653052 0.011764706
-3.2968814 -30.696789 2.5202239 0.011764706
-0.21170685 -22.880054 -0.93227768 0.062745102
-3.609072 -22.968016 -0.81199688 0.047058824
-2.6541362 -24.712181 4.5314775 0.0039215689
-1.3842393 -23.789326 -0.55458915 0.043137256
-0.54445583 -4.9001665 -2.2990592 0.0039215689
-0.43545467 -33.708069 -0.58854717 0.023529412
-2.5944602 -23.350376 -0.68383616 0.043137256
-0.38388562 -6.2051411 -1.7403985 0.011764706
-0.69000101 -6.2100554 -1.2496806 0
-4.8301387 -78.07476 -0.00030346026 0.13333334
-8.0455008 -50.005486 -0.58985698 0.035294119
-7.8505821 -70.656021 -0.41346887 0.062745102
-1.036283 -6.4408202 -0.60899311 0
-3.8095396 -61.577599 1.4353765 0.043137256
-1.3285272 -21.474417 -1.5045879 0.047058824
-0.85938728 -7.73453 -0.63532138 0.13725491
-0.51436317 -39.815842 1.1587059 0.074509807
-7.4233294 -66.810654 1.1730878 0.070588239
-0.28225815 -21.84936 -1.4004918 0.054901961
-3.5306447 -21.944138 -1.2944981 0.070588239
-5.964488 -53.680885 2.2002552 0.054901961
-1.3892971 -22.456682 -1.048151 0.05882353
-2.4755452 -22.280142 -1.1749256 0.054901961
-1.4395336 -23.268467 2.86238 0.011764706
-0.29545942 -22.871128 -0.9319523 0.062745102
-3.695132 -22.966473 -0.81241596 0.054901961
-1.4374409 -23.23443 6.2374516 0.011764706
-3.5694849 -32.125484 5.8932147 0.011764706
-1.470926 -23.77611 -0.55440342 0.043137256
-0.56073213 -4.8910332 -2.2956781 0.0039215689
-0.55128247 -33.594372 -0.5865925 0.023529412
-2.6768668 -23.349121 -0.68406922 0.039215688
-0.40504161 -6.1960759 -1.738242 0.019607844
-3.5694585 -54.603474 -0.00021164777 0.05882353
-8.2265024 -50.01656 -0.59032339 0.035294119
-0.52544779 -8.0379543 -1.2532135 0
-0.71996176 -6.2798777 -0.80460274 0
-0.65459526 -39.889977 0.23172665 0.05882353
-8.0926247 -70.588448 -0.41323709 0.062745102
-1.0652239 -6.4764628 -0.61271107 0
-3.5692804 -54.60067 1.2730266 0.031372551
-1.4027011 -21.457703 -1.503751 0.047058824
-0.88592768 -7.7275219 -0.634996 0.06666667
-0.6536113 -39.829796 1.1591706 0.074509807
-7.6601505 -66.816116 1.1736453 0.070588239
-0.35872453 -21.860214 -1.4012597 0.054901961
-3.6091702 -21.943501 -1.2951961 0.070588239
-1.4674197 -22.447706 -1.0479652 0.06666667
-2.5537608 -22.275333 -1.1751351 0.054901961
-1.5166066 -23.199913 2.8545806 0.011764706
-2.7658522 -24.125217 1.9822682 0.0039215689
-0.37483701 -22.841986 -0.93081266 0.062745102
-3.7778764 -22.969213 -0.81297469 0.054901961
-1.4837573 -22.697214 6.0945854 0.0039215689
-2.6812022 -23.386776 4.2918453 0.0039215689
-1.5539147 -23.77083 -0.55440372 0.043137256
-0.57652307 -4.8855472 -2.293988 0.0039215689
-2.7552154 -23.348057 -0.68430221 0.039215688
-0.42532167 -6.190856 -1.7371637 0.015686275
-8.3949623 -50.004791 -0.59051025 0.035294119
-0.54586834 -7.9454761 -1.2390703 0
-8.3679047 -70.910797 -0.41528526 0.062745102
-0.44813177 -6.5228176 -0.70429164 0
-1.0853753 -6.4650393 -0.6119675 0
-1.4741213 -21.456915 -1.5040303 0.050980393
-0.91108024 -7.7205825 -0.63467056 0.078431375
-7.8441772 -66.472603 1.1680611 0.070588239
-0.43073925 -21.834959 -1.3997247 0.047058824
-3.6805935 -21.923538 -1.2947311 0.070588239
-2.4985828 -36.368534 2.1228647 0.035294119
-6.3161616 -53.523933 2.1955321 0.054901961
-1.5423968 -22.450693 -1.0483378 0.070588239
-2.6280804 -22.27071 -1.1753447 0.05882353
-1.8577557 -27.040739 3.3279052 0.015686275
-4.1007857 -34.750507 2.8564036 0.015686275
-0.45050082 -22.83662 -0.93065017 0.062745102
-3.8593171 -22.9881 -0.81409192 0.054901961
-1.5627213 -22.746138 6.1090794 0.0039215689
-3.3545723 -28.42691 5.218802 0.0039215689
-1.633005 -23.769539 -0.55449706 0.043137256
-0.59530228 -4.8905983 -2.297369 0.0039215689
-0.60967427 -26.060911 -0.45511335 0.06666667
-2.8412583 -23.34177 -0.68441892 0.039215688
-0.4480103 -6.1892552 -1.7371638 0.015686275
-0.75309885 -6.1869144 -1.2465429 0
-2.5961783 -35.86618 -0.0001384873 0.074509807
-8.5802193 -49.985504 -0.59065062 0.035294119
-0.4628453 -6.3941617 -0.99740469 0
-0.8050192 -6.6134439 -0.84804064 0
-0.61219162 -26.168413 0.15203802 0.10588235
-0.47203696 -6.5211306 -0.7042917 0
-1.1077169 -6.4531665 -0.611224 0
-2.6018302 -35.944221 0.83845085 0.054901961
-1.5521817 -21.443407 -1.5034726 0.062745102
-0.93937242 -7.7171907 -0.63467067 0.094117649
-0.61194527 -26.157782 0.76137924 0.086274512
-0.51039511 -21.817268 -1.3987018 0.062745102
-3.764303 -21.929575 -1.2958943 0.062745102
-2.6315801 -36.355141 2.1226315 0.011764706
-4.3289809 -35.563801 1.4594561 0.023529412
-1.6243869 -22.440899 -1.048152 0.11372549
-2.7106571 -22.268856 -1.1757637 0.06666667
-2.0333874 -28.091021 3.4580572 0.019607844
-0.53382748 -22.818834 -0.92999917 0.062745102
-3.9449022 -22.981674 -0.81437135 0.074509807
-1.6349245 -22.586107 6.067668 0.015686275
-1.7189623 -23.747437 -0.55412513 0.035294119
-0.61016911 -4.8778057 -2.2922988 0.0039215689
-0.69610584 -26.05875 -0.45512053 0.05882353
-2.9211409 -23.352058 -0.68500841 0.039215688
-0.468826 -6.191577 -1.7382436 0.015686275
-0.77507508 -6.1960597 -1.248898 0
-2.7139113 -35.841415 -0.00014937193 0.074509807
-8.7473364 -49.964657 -0.59076178 0.035294119
-0.60162812 -7.9454131 -1.2396872 0
-0.8382774 -6.7012963 -0.85965943 0
-0.69844604 -26.146252 0.15191469 0.094117649
-8.2054453 -65.595688 -0.38450637 0.054901961
-0.491561 -6.4917703 -0.70129442 0
-1.129114 -6.4494581 -0.61122584 0
-2.7162001 -35.871593 0.83695132 0.043137256
-1.6238954 -21.446102 -1.5040369 0.074509807
-0.96496278 -7.7140341 -0.63467282 0.054901961
-0.69805813 -26.131634 0.76067394 0.10196079
-8.3095827 -66.428116 1.1682472 0.070588239
-0.5825389 -21.807478 -1.3981959 0.054901961
-3.8397696 -21.932705 -1.2968321 0.070588239
-2.3945596 -31.623766 1.8468294 0.0078431377
-7.9730783 -63.738003 2.6167059 0.10980392
-1.698203 -22.427427 -1.0477864 0.074509807
-2.7840047 -22.255783 -1.1755615 0.06666667
-2.6586299 -35.111088 4.3232913 0.011764706
-3.1319189 -25.036964 2.0597148 0.031372551
-0.60929298 -22.808949 -0.92967969 0.062745102
-4.0224814 -22.976347 -0.81465864 0.06666667
-1.7465868 -23.066004 6.1981049 0.023529412
-3.5304992 -28.223185 5.1857901 0.0039215689
-1.7989224 -23.757559 -0.55450451 0.043137256
-0.62757927 -4.8719406 -2.2906082 0.0039215689
-0.79294419 -26.099997 -0.45588905 0.06666667
-3.0067081 -23.341194 -0.6850087 0.039215688
-0.49090558 -6.1821375 -1.736087 0.015686275
-7.6713295 -42.892445 -0.5074718 0.019607844
-0.63011879 -7.9352751 -1.2384576 0
-0.86080468 -6.6824374 -0.85763913 0
-0.79524076 -26.175499 0.1521001 0.090196081
-8.4882183 -65.89444 -0.3864384 0.054901961
-0.51598001 -6.4978542 -0.70215136 0
-1.1562499 -6.4648786 -0.61308491 0
-2.843539 -35.809578 0.83574134 0.078431375
-1.7024859 -21.440008 -1.5040373 0.05882353
-0.98813534 -7.6709046 -0.63141823 0.13725491
-0.79479897 -26.160872 0.76160431 0.078431375
-8.5524807 -66.393257 1.1681764 0.070588239
-0.66270339 -21.813177 -1.3987081 0.062745102
-3.9229407 -21.93421 -1.2977628 0.062745102
-3.161289 -39.811043 2.3256264 0.019607844
-4.608829 -35.778477 1.469538 0.023529412
-1.7813387 -22.433001 -1.0483451 0.074509807
-2.8660655 -22.249392 -1.1757712 0.06666667
-0.6923998 -22.790585 -0.92902869 0.062745102
-4.1108866 -22.985058 -0.81549662 0.047058824
-1.8170447 -22.882278 6.1504822 0.023529412
-4.0215387 -31.219177 5.7389493 0.011764706
-1.8862998 -23.754791 -0.55459791 0.035294119
-0.64505821 -4.8733149 -2.2922988 0.0078431377
-0.85899997 -25.357607 -0.44297162 0.043137256
-3.0897436 -23.342449 -0.68535823 0.039215688
-0.51280153 -6.1842251 -1.7371653 0.019607844
-0.5274955 -6.361393 -0.99310189 0
-0.88256437 -6.6675906 -0.85612398 0
-0.8882345 -26.220535 0.15237847 0.098039217
-8.7187166 -65.86837 -0.3864626 0.054901961
-1.1809551 -6.4725575 -0.61420041 0
-1.7786374 -21.449839 -1.5051537 0.062745102
-1.0206615 -7.7108836 -0.63499856 0.06666667
-0.88801169 -26.213881 0.76323277 0.074509807
-10.63518 -80.346878 1.4143301 0.10980392
-0.73884481 -21.81073 -1.3987085 0.062745102
-4.0016351 -21.932167 -1.2984607 0.062745102
-2.6188126 -31.581942 1.8454332 0.0078431377
-8.5674276 -64.725311 2.6596861 0.10980392
-1.8579859 -22.406734 -1.0474147 0.06666667
-2.9447644 -22.247169 -1.1761901 0.05882353
-2.0685966 -24.946428 3.073442 0.031372551
-3.1870136 -24.077225 1.9825848 0.0039215689
-0.77141172 -22.772049 -0.92837769 0.062745102
-4.1939683 -22.9863 -0.81605542 0.047058824
-1.8895673 -22.787233 6.1266708 0.0039215689
-1.9718555 -23.779947 -0.55534285 0.047058824
-0.66023946 -4.8639646 -2.288918 0.0039215689
-0.94204134 -25.326645 -0.44248322 0.027450981
-3.1698198 -23.351883 -0.68594038 0.039215688
-0.53297472 -6.1786532 -1.7360872 0.015686275
-0.36440131 -4.2243299 -1.3323116e-05 0
-0.55266327 -6.4068632 -1.000481 0
-0.90146726 -6.6410365 -0.85309356 0
-8.9322491 -65.803436 -0.3862541 0.054901961
-0.55780518 -6.4664564 -0.69915271 0.0078431377
-1.2038673 -6.4764376 -0.6149441 0
-5.7053204 -66.140457 1.5444826 0.043137256
-1.8494132 -21.439848 -1.5048749 0.070588239
-1.0446167 -7.6956053 -0.63402224 0.023529412
-0.81086916 -21.800182 -1.3981969 0.054901961
-4.0750704 -21.922701 -1.2986937 0.062745102
-2.7660799 -32.066414 1.8742676 0.0078431377
-4.7651706 -35.104698 1.4431616 0.023529412
-1.9336506 -22.416374 -1.0481595 0.070588239
-3.0222816 -22.264994 -1.1776561 0.05882353
-2.0984213 -24.32633 2.997885 0.011764706
-3.2813156 -24.173189 1.9913714 0.0039215689
-0.84662342 -22.761383 -0.92805231 0.062745102
-4.2767434 -23.007639 -0.81731224 0.054901961
-2.1314805 -24.709398 6.6453352 0.0039215689
-3.2118537 -23.661396 4.353538 0.0039215689
-2.0496686 -23.761324 -0.55506396 0.047058824
-0.67721397 -4.86163 -2.288918 0.0078431377
-1.0306056 -25.327194 -0.44255343 0.0078431377
-3.2524178 -23.348595 -0.6861735 0.039215688
-0.5548836 -6.1805911 -1.7371656 0.019607844
-0.85934532 -6.1690941 -1.2457603 0.019607844
-8.2569199 -91.970116 -0.00039715151 0.23529412
-8.0143042 -42.292446 -0.50132447 0.4509804
-0.71391821 -7.9519849 -1.2421474 0
-0.92792803 -6.6614289 -0.85612416 0
-0.5807296 -6.46843 -0.69958127 0.015686275
-1.2168276 -6.4213257 -0.61011082 0
-5.5810852 -62.165104 1.4520977 0.043137256
-1.9238847 -21.429287 -1.5045962 0.062745102
-1.0725733 -7.6998091 -0.63467324 0.0078431377
-2.4353602 -59.849136 1.742978 0.062745102
-11.148724 -80.034958 1.4101405 0.10980392
-0.88679951 -21.793232 -1.3979415 0.062745102
-4.1560316 -21.931883 -1.3000894 0.062745102
-4.9345503 -35.424316 1.4570001 0.023529412
-2.0104582 -22.393568 -1.0474154 0.074509807
-3.0999832 -22.254305 -1.1776564 0.05882353
-2.174804 -24.223953 2.9861858 0.0039215689
-3.3546758 -24.082613 1.9848622 0.0039215689
-0.92574602 -22.750299 -0.92772698 0.062745102
-4.3592629 -23.004353 -0.81773138 0.054901961
-2.0235538 -22.539101 6.0635195 0.0039215689
-3.3052871 -23.727989 4.3678865 0.0039215689
-2.132957 -23.758005 -0.55515736 0.05882353
-0.69366693 -4.855648 -2.2872276 0.0039215689
-1.1168866 -25.275497 -0.4417159 0.015686275
-3.332201 -23.325228 -0.68582463 0.039215688
-0.57609606 -6.1747818 -1.7360873 0.023529412
-8.5700932 -91.857109 -0.00039813173 0.23529412
-8.1633968 -42.272072 -0.50141823 0.43529412
-0.59517437 -6.3792362 -0.99679172 0
-0.94163483 -6.5913725 -0.8475377 0
-3.3168454 -75.061501 0.43637639 0.062745102
-1.2414997 -6.4287705 -0.61122632 0
-5.8311038 -62.499615 1.4603769 0.043137256
-1.9994144 -21.430387 -1.5051546 0.050980393
-1.0988796 -7.6920719 -0.63434798 0.019607844
-2.6772587 -60.587227 1.7647337 0.086274512
-1.1159449 -7.8115082 0.1377034 0
-0.96251214 -21.782026 -1.3974301 0.062745102
-4.2348328 -21.929008 -1.3007874 0.062745102
-5.1237359 -35.865837 1.4758857 0.023529412
-2.0904682 -22.406309 -1.0483464 0.06666667
-3.1770792 -22.239395 -1.1774473 0.05882353
-2.8461239 -30.505472 3.7617342 0.0078431377
-1.0053281 -22.750923 -0.92789018 0.062745102
-4.44484 -23.016472 -0.81870908 0.054901961
-2.1542592 -23.089718 6.2136316 0.0039215689
-4.1961541 -29.372692 5.4096346 0.011764706
-2.2136438 -23.726526 -0.55459929 0.043137256
-0.71028972 -4.8569078 -2.288918 0.0039215689
-1.1944343 -25.139822 -0.439412 0.0078431377
-3.4135826 -23.341742 -0.68663967 0.031372551
-0.59582829 -6.1651688 -1.7339308 0.019607844
-8.8758135 -91.840126 -0.00039945857 0.23529412
-8.3058462 -42.256538 -0.50155854 0.32941177
-0.76688761 -7.9351397 -1.2403029 0
-0.95717156 -6.5450239 -0.84198183 0
-3.5670712 -75.078064 0.43653792 0.062745102
-0.62359691 -6.4524517 -0.69829619 0.027450981
-1.2666521 -6.4441576 -0.61308533 0
-6.0390992 -62.487888 1.460562 0.043137256
-2.0697024 -21.415695 -1.5045968 0.05882353
-1.1209201 -7.6647158 -0.63239521 0.039215688
-2.8933408 -60.897522 1.7740405 0.086274512
-1.034171 -21.76675 -1.3966627 0.062745102
-4.3098397 -21.926598 -1.3014854 0.062745102
-3.3147006 -34.297844 2.0065806 0.0078431377
-5.2617297 -35.979149 1.481258 0.023529412
-2.1628375 -22.379366 -1.047416 0.06666667
-3.251967 -22.236641 -1.1778663 0.05882353
-3.4423695 -23.538511 1.9419036 0.0039215689
-1.080199 -22.735485 -0.92740196 0.070588239
-4.5273099 -23.032984 -0.81982625 0.054901961
-2.2923124 -23.719055 -0.55459964 0.043137256
-0.72862417 -4.8578568 -2.2906086 0.0078431377
-1.2830935 -25.067377 -0.43822536 0.015686275
-3.5020773 -23.348845 -0.68722188 0.031372551
-0.61880541 -6.1667762 -1.7350093 0.019607844
-0.92506284 -6.1675153 -1.2473295 0.0078431377
-9.2319345 -92.001999 -0.0004017243 0.23529412
-8.4661703 -42.253262 -0.50188518 0.12156863
-0.79754472 -7.9480062 -1.2427628 0
-0.99410242 -6.6278024 -0.85309392 0
-9.0818005 -60.549686 -0.35612825 0.047058824
-0.64843339 -6.4619942 -0.6995815 0.015686275
-1.2894804 -6.4355669 -0.61271369 0
-6.8094935 -67.860771 1.5867165 0.047058824
-2.1493766 -21.419878 -1.5054344 0.050980393
-1.1513706 -7.6763272 -0.63369721 0.015686275
-1.1145558 -21.774775 -1.3974308 0.062745102
-4.39959 -21.957638 -1.3042766 0.070588239
-2.9675291 -29.573153 1.7307894 0.0039215689
-5.4178715 -36.121677 1.4879328 0.023529412
-2.2468424 -22.391169 -1.0483471 0.062745102
-3.338187 -22.256176 -1.1795416 0.054901961
-2.295954 -22.880436 2.8233731 0.0039215689
-3.5303936 -23.537563 1.9428794 0.0039215689
-1.1633177 -22.727381 -0.92723948 0.070588239
-4.6179824 -23.04759 -0.82094347 0.054901961
-3.6037769 -24.026754 4.4295869 0.015686275
-2.3780344 -23.698559 -0.55432081 0.035294119
-0.74557698 -4.8552842 -2.2906086 0.0039215689
-1.3640361 -24.942942 -0.43613091 0.015686275
-3.5865941 -23.356239 -0.6878041 0.039215688
-0.64032787 -6.1645784 -1.7350093 0.023529412
-0.94658601 -6.1642485 -1.2473296 0.0078431377
-9.5530281 -91.969208 -0.00040305863 0.23529412
-0.65745223 -6.3294096 -0.99002784 0
-1.0003686 -6.5144758 -0.83895147 0
-4.2684731 -78.05407 0.45400518 0.062745102
-0.67098612 -6.4596915 -0.69958162 0.0039215689
-1.3143252 -6.4427333 -0.61382914 0
-6.4724636 -62.311817 1.45749 0.043137256
-2.2261944 -21.432087 -1.5068297 0.050980393
-1.176949 -7.6643806 -0.63304633 0.0039215689
-3.3925719 -62.037029 1.8078949 0.090196081
-1.1907756 -21.774738 -1.397687 0.054901961
-4.4794035 -21.957796 -1.3052073 0.070588239
-3.7102189 -35.718998 2.0912235 0.0078431377
-5.2424359 -34.139198 1.4070152 0.019607844
-2.3270531 -22.403059 -1.049278 0.062745102
-3.4188874 -22.26413 -1.1805887 0.054901961
-3.7946732 -24.711203 2.0408366 0.0039215689
-1.2426443 -22.723183 -0.92723978 0.070588239
-4.7024021 -23.050917 -0.82164192 0.054901961
-2.7184763 -26.171061 7.0501199 0.011764706
-3.7903571 -24.683029 4.5529895 0.015686275
-2.4590909 -23.6742 -0.55394888 0.043137256
-0.76167375 -4.8527846 -2.2906086 0.0039215689
-1.4416476 -24.850443 -0.43459511 0.015686275
-3.665267 -23.352116 -0.68803722 0.039215688
-0.96641415 -6.1572008 -1.2465453 0.011764706
-9.8605185 -91.960884 -0.0004044279 0.23529412
-0.68391591 -6.378283 -0.99802196 0
-1.0256577 -6.5346422 -0.84198207 0
-4.5228882 -77.963608 0.45356265 0.062745102
-9.4999418 -60.525982 -0.35636249 0.047058824
-1.3389192 -6.4539385 -0.61531645 0
-7.1548595 -66.727364 1.5613161 0.043137256
-2.2976797 -21.428555 -1.507109 0.05882353
-1.2048314 -7.6761894 -0.63434839 0
-3.5998991 -62.053375 1.8087085 0.090196081
-1.2615907 -21.746759 -1.3961521 0.062745102
-4.555439 -21.958462 -1.3061377 0.062745102
-3.3850319 -31.569267 1.8489181 0.0078431377
-5.3729711 -34.232182 1.4115735 0.019607844
-2.4013324 -22.395218 -1.0492784 0.06666667
-3.4933193 -22.256617 -1.1807984 0.05882353
-2.6069865 -24.31303 3.0022702 0.011764706
-3.8722713 -24.670914 2.038558 0.0039215689
-1.3182228 -22.722929 -0.92740297 0.062745102
-4.7788167 -23.035198 -0.82164222 0.047058824
-2.5576789 -23.853046 6.4279289 0.011764706
-3.862426 -24.608124 4.5415096 0.015686275
-2.5384376 -23.673868 -0.55413532 0.043137256
-0.77745932 -4.8429375 -2.2872279 0.0039215689
-1.5222447 -24.745462 -0.43284979 0.027450981
-3.7480266 -23.347076 -0.68827033 0.039215688
-8.9206457 -42.257771 -0.50300479 0.019607844
-0.70313054 -6.3483577 -0.99371755 0
-1.0239328 -6.3782268 -0.82228357 0
-5.0192347 -81.592392 0.47477111 0.10980392
-9.3656244 -58.340046 -0.34368324 0.043137256
-0.71318913 -6.4391627 -0.69786817 0
-1.3581489 -6.4336376 -0.61382931 0
-5.9447069 -53.673199 1.2563471 0.031372551
-2.3720267 -21.416437 -1.5068303 0.082352944
-1.1981275 -7.4633112 -0.61709821 0
-3.8110845 -61.952633 1.8061481 0.090196081
-1.3370036 -21.734253 -1.3956409 0.047058824
-4.6345348 -21.954147 -1.3068358 0.070588239
-4.4763803 -40.415989 2.367943 0.019607844
-5.4797611 -34.134293 1.4083169 0.019607844
-2.4781725 -22.374783 -1.0487204 0.054901961
-3.5728877 -22.256117 -1.1814268 0.047058824
-2.8443725 -25.680956 3.1723933 0.0039215689
-3.9602616 -24.669054 2.0395339 0.0039215689
-1.3972877 -22.714197 -0.92724049 0.062745102
-4.8608465 -23.026196 -0.82192171 0.047058824
-3.1479285 -28.421522 7.6619577 0.011764706
-4.6107159 -28.720766 5.3034487 0.0039215689
-2.6197393 -23.652939 -0.55385649 0.047058824
-0.79612041 -4.8509264 -2.2922995 0.0039215689
-1.6057562 -24.696098 -0.43208209 0.027450981
-3.8346784 -23.365414 -0.68920159 0.039215688
-0.70420939 -6.1614852 -1.7360879 0.047058824
-1.0131865 -6.1735272 -1.2512523 0.0078431377
-9.0748129 -42.25766 -0.50337809 0.019607844
-0.72393912 -6.3340845 -0.99187285 0
-1.0461901 -6.3746142 -0.82228363 0
-9.5471811 -58.172798 -0.34289303 0.043137256
-0.75191849 -6.5788808 -0.71329081 0
-1.3847787 -6.448328 -0.61568838 0
-9.2377367 -43.016319 0.51200008 0.011764706
-2.449486 -21.431812 -1.5085049 0.094117649
-1.1525036 -7.0223975 -0.58097041 0
-1.4128599 -21.729454 -1.3956412 0.054901961
-4.7153306 -21.957359 -1.3079989 0.070588239
-3.9499581 -34.560093 2.0256462 0.0078431377
-5.5891662 -34.055798 1.4058743 0.019607844
-2.558073 -22.381878 -1.0494652 0.06666667
-3.6531401 -22.259279 -1.1822644 0.054901961
-4.0618415 -24.749498 2.0473442 0.0039215689
-1.4770828 -22.717159 -0.92756647 0.070588239
-4.9470663 -23.036449 -0.82289934 0.047058824
-2.6249843 -22.96706 6.1939597 0.0039215689
-2.7018313 -23.639679 -0.55376375 0.043137256
-0.81365073 -4.8516936 -2.2939911 0.0039215689
-1.6867727 -24.614532 -0.43076268 0.027450981
-3.9188755 -23.367655 -0.68967521 0.039215688
-0.72481483 -6.1513391 -1.7339329 0.031372551
-1.0321391 -6.1544805 -1.2481163 0.0078431377
-9.2231426 -42.229633 -0.50344068 0.019607844
-0.74928659 -6.3589969 -0.99617898 0
-1.065158 -6.351357 -0.81975996 0
-2.4614513 -35.919178 0.20909323 0.054901961
-9.7475739 -58.123337 -0.34282091 0.043137256
-0.7702291 -6.5367203 -0.70900846 0
-1.4064338 -6.4395642 -0.61531854 0
-6.3295941 -53.717766 1.258375 0.031372551
-2.5252297 -21.431059 -1.50907 0.070588239
-1.1954769 -7.1284237 -0.5900858 0
-2.467289 -36.004307 1.0501252 0.019607844
-1.488169 -21.716425 -1.3951359 0.047058824
-4.7962217 -21.96027 -1.30917 0.062745102
-4.0640526 -34.490574 2.0223794 0.0078431377
-5.7007613 -33.992729 1.4040712 0.019607844
-2.6347961 -22.360907 -1.048914 0.070588239
-3.7321525 -22.254263 -1.1826909 0.054901961
-3.0254626 -25.676245 3.1743345 0.0039215689
-1.5561128 -22.707878 -0.92741036 0.070588239
-5.0368462 -23.061998 -0.82444364 0.054901961
-2.6911402 -22.838808 6.1618595 0.0039215689
-2.7862198 -23.645988 -0.55414355 0.043137256
-0.82996929 -4.8452511 -2.2923007 0.0039215689
-1.7721088 -24.600515 -0.43062347 0.027450981
-4.0091958 -23.405066 -0.69118851 0.031372551
-0.74674678 -6.152596 -1.7350113 0.023529412
-1.0516291 -6.1392422 -1.2457628 0.011764706
-5.6325345 -25.364389 -0.30261225 0.0039215689
-0.79957581 -6.5878386 -1.03246 0
-1.0906717 -6.367156 -0.82228547 0
-2.5804954 -35.822594 0.20858157 0.019607844
-9.9422998 -58.041653 -0.34254256 0.043137256
-1.4263135 -6.4229517 -0.61420321 0
-2.5980995 -21.406269 -1.5079541 0.070588239
-1.1941013 -6.9709573 -0.57739228 0
-2.5926659 -35.991489 1.0500083 0.019607844
-1.5659723 -21.738968 -1.3969271 0.062745102
-4.8745799 -21.951189 -1.3096354 0.070588239
-3.6917427 -30.416897 1.784261 0.0078431377
-6.112916 -35.686226 1.4748925 0.023529412
-2.7147601 -22.367441 -1.0496589 0.06666667
-3.8125095 -22.256853 -1.1835288 0.054901961
-6.5587626 -54.038689 6.6835461 0.035294119
-4.1699243 -24.343307 2.0160933 0.015686275
-1.6362303 -22.714266 -0.9278993 0.070588239
-5.1207843 -23.059887 -0.82500249 0.047058824
-2.7741046 -22.856123 6.169106 0.0039215689
-4.6866727 -27.359932 5.0609379 0.0039215689
-2.8687429 -23.63612 -0.55414391 0.043137256
-0.84375423 -4.8244691 -2.2838483 0.0078431377
-1.8567626 -24.578226 -0.43034455 0.027450981
-4.0956898 -23.418497 -0.69200349 0.039215688
-0.67272943 -5.385509 -1.5193474 0.035294119
-1.0750793 -6.1471243 -1.2481164 0.011764706
-5.7016606 -25.258739 -0.30158773 0.0039215689
-0.83922303 -6.7183537 -1.0533675 0
-1.1122065 -6.3594012 -0.8217805 0
-2.7076297 -35.841282 0.20874357 0.090196081
-0.81091481 -6.4917202 -0.70472455 0
-1.4478475 -6.4140491 -0.61383152 0
-8.2697802 -66.203453 1.5521722 0.043137256
-2.676266 -21.424784 -1.5099078 0.050980393
-1.2170529 -6.9588914 -0.5767414 0
-4.0914211 -54.158707 1.5804188 0.05882353
-1.6415433 -21.729387 -1.3966717 0.054901961
-4.9538102 -21.945726 -1.3103335 0.062745102
-6.2291818 -35.617424 1.4729385 0.023529412
-2.7923234 -22.353861 -1.0494732 0.06666667
-3.8901751 -22.243408 -1.1835291 0.054901961
-6.5455823 -52.400234 6.4836879 0.031372551
-4.3084426 -24.634916 2.0414772 0.027450981
-1.7149038 -22.700443 -0.92757392 0.070588239
-5.2056465 -23.061369 -0.82570094 0.054901961
-2.9527156 -23.637863 -0.55442357 0.047058824
-0.8631382 -4.8357692 -2.2906101 0.0078431377
-1.9434947 -24.583557 -0.43055445 0.027450981
-4.1753068 -23.39225 -0.69165474 0.043137256
-0.78919095 -6.1434112 -1.7339332 0.039215688
-1.0979096 -6.1510568 -1.2496854 0.0078431377
-5.8228889 -25.382925 -0.30331174 0.0039215689
-1.1392795 -6.3828239 -0.82531625 0
-0.8335712 -6.4888501 -0.70472467 0
-1.4729004 -6.4206018 -0.61494696 0
-8.5033817 -66.194016 1.5526364 0.043137256
-2.753073 -21.431143 -1.5110244 0.062745102
-1.237835 -6.9349771 -0.57511413 0
-1.7164427 -21.711588 -1.3959045 0.054901961
-5.0375314 -21.959438 -1.3121943 0.054901961
-6.347156 -35.560047 1.4714725 0.023529412
-2.8698301 -22.340015 -1.0492873 0.06666667
-3.9692025 -22.237556 -1.1839482 0.054901961
-3.4287333 -26.690617 3.3039973 0.0039215689
-4.3930111 -24.611879 2.0408258 0.027450981
-1.7947661 -22.70229 -0.92790008 0.070588239
-5.2959495 -23.085917 -0.82723707 0.054901961
-2.8262825 -22.000774 5.943419 0.0078431377
-3.037251 -23.64328 -0.55479622 0.043137256
-0.88131154 -4.8398609 -2.2939916 0.0039215689
-2.0296221 -24.580606 -0.43062469 0.035294119
-4.2605152 -23.397202 -0.69223702 0.031372551
-0.81063002 -6.1406193 -1.7339333 0.047058824
-1.1179681 -6.1394696 -1.2481166 0.0078431377
-5.9214406 -25.405294 -0.30382457 0.0039215689
-1.1565763 -6.3514824 -0.82178074 0
-6.7476554 -81.720535 0.47620237 0.10980392
-1.4934946 -6.4076633 -0.61420345 0
-8.7479906 -66.267014 1.5550542 0.043137256
-2.827863 -21.421404 -1.5110247 0.070588239
-1.2698908 -6.9737592 -0.57869452 0
-1.7935315 -21.721376 -1.3969282 0.054901961
-5.1214023 -21.972832 -1.3140553 0.062745102
-4.4412179 -33.642651 1.9761024 0.0078431377
-6.4490461 -35.415787 1.4664249 0.023529412
-2.9509292 -22.35363 -1.0504045 0.06666667
-4.0503778 -22.243216 -1.1849953 0.054901961
-6.235878 -34.24511 2.8414021 0.015686275
-1.8743275 -22.699871 -0.92806321 0.070588239
-5.3828511 -23.094542 -0.8282147 0.054901961
-3.8314693 -29.023527 7.8441515 0.011764706
-4.4448938 -24.409624 4.5235624 0.0039215689
-3.1192374 -23.628571 -0.55470353 0.043137256
-0.89886183 -4.8403192 -2.2956817 0.0039215689
-2.1112938 -24.525558 -0.42978713 0.027450981
-4.3465385 -23.405773 -0.69293571 0.031372551
-0.83309418 -6.1453867 -1.7360901 0.050980393
-1.1393914 -6.1355295 -1.2481166 0.011764706
-0.48952881 -3.6109891 -1.2125774e-05 0
-6.0027113 -25.353334 -0.30345222 0.0039215689
-0.8824513 -6.50945 -1.0220065 0
-1.176566 -6.3357024 -0.82026553 0
-7.8844943 -42.457409 -0.25119582 0.023529412
-1.5149343 -6.3985362 -0.61383176 0
-10.6741 -78.738304 1.8485725 0.050980393
-2.9042263 -21.423264 -1.5118622 0.086274512
-1.2891299 -6.9418454 -0.57641625 0
-5.3695641 -62.374832 1.8217126 0.090196081
-1.8686557 -21.707031 -1.3964169 0.054901961
-5.2081885 -21.997566 -1.316614 0.070588239
-4.9770408 -36.71344 2.1574805 0.011764706
-3.0300114 -22.351112 -1.0507772 0.06666667
-4.1316414 -22.248581 -1.1860424 0.054901961
-3.6373789 -26.831266 3.3244696 0.0039215689
-1.9538943 -22.697172 -0.92822647 0.070588239
-5.4634314 -23.075613 -0.828215 0.054901961
-3.4142363 -25.18512 6.8099289 0.0039215689
-3.2033067 -23.629423 -0.55498308 0.043137256
-0.91305554 -4.8229041 -2.2889199 0.0078431377
-2.1951098 -24.498121 -0.42943838 0.035294119
-4.4267292 -23.382601 -0.69270325 0.031372551
-0.85454136 -6.1424408 -1.7360902 0.050980393
-1.1600727 -6.1276612 -1.2473322 0.011764706
-0.93370062 -6.7113819 -2.7507427e-05 0
-6.1052041 -25.390558 -0.30415139 0.0039215689
-0.91497219 -6.5767951 -1.0330755 0
-1.2060564 -6.3705435 -0.82531655 0
-8.0281925 -42.406048 -0.25105685 0.023529412
-1.537261 -6.393209 -0.61383188 0
-7.2190013 -51.890099 1.2188309 0.031372551
-2.9795425 -21.416946 -1.5121416 0.094117649
-1.2948152 -6.839375 -0.56827939 0
-1.9451315 -21.708328 -1.3969289 0.054901961
-5.2858796 -21.983135 -1.316847 0.070588239
-3.6695843 -26.376869 1.5507919 0.0039215689
-3.1091173 -22.348314 -1.0511498 0.06666667
-4.2144823 -22.261496 -1.1875083 0.054901961
-4.6749721 -24.693796 2.0515642 0.0039215689
-2.0327568 -22.686232 -0.92806399 0.070588239
-5.5495577 -23.07972 -0.82905304 0.047058824
-3.1108181 -22.360312 6.0490141 0.0039215689
-5.0251102 -26.543209 4.9253368 0.0039215689
-3.2879767 -23.633942 -0.55535579 0.043137256
-0.92888826 -4.8235712 -2.2906103 0.0039215689
-2.2679992 -24.4473 -0.42867067 0.027450981
-4.504703 -23.392134 -0.69340181 0.039215688
-0.87329179 -6.1359129 -1.7350119 0.082352944
-1.1822846 -6.1393929 -1.2504703 0.0078431377
-6.1868367 -25.379023 -0.30424485 0.0039215689
-0.932845 -6.5543232 -1.0300008 0.0078431377
-1.2230628 -6.3511376 -0.82329631 0
-1.5620549 -6.4076943 -0.61569095 0
-11.170733 -78.487617 1.8443837 0.050980393
-3.0479372 -21.415384 -1.5127 0.062745102
-1.3374041 -6.9448876 -0.57739288 0
-5.0743756 -54.697899 1.5984476 0.05882353
-2.0144277 -21.714033 -1.3976969 0.054901961
-5.3577542 -21.978058 -1.3175451 0.062745102
-3.1810014 -22.350302 -1.0517086 0.06666667
-4.2874198 -22.263832 -1.188346 0.054901961
-4.6967397 -24.38929 2.0274816 0.0039215689
-2.1040184 -22.679733 -0.92806429 0.070588239
-5.635293 -23.116543 -0.83100802 0.054901961
-5.1047535 -26.507973 4.9217491 0.0039215689
-3.3672812 -23.659128 -0.55619371 0.043137256
-0.94502169 -4.8167424 -2.2889202 0.0039215689
-2.3491037 -24.395443 -0.42790294 0.035294119
-4.5924859 -23.407658 -0.69433326 0.039215688
-0.89470422 -6.1328273 -1.7350121 0.078431375
-1.2037075 -6.1352286 -1.2504704 0.0039215689
-6.2849946 -25.396099 -0.30471107 0.0039215689
-0.9562881 -6.5549378 -1.0306159 0.0078431377
-1.2398769 -6.3195734 -0.81976068 0
-6.5245414 -67.757454 0.39531428 0.05882353
-1.5824982 -6.3944712 -0.61494744 0
-11.575097 -79.342438 1.8654078 0.074509807
-3.1226699 -21.404612 -1.5127003 0.05882353
-1.3562648 -6.9127922 -0.57511467 0
-5.202805 -54.031128 1.5794827 0.05882353
-2.0898273 -21.702894 -1.3974414 0.054901961
-5.4421115 -21.990232 -1.3194059 0.062745102
-4.8964834 -33.563271 1.9751701 0.0078431377
-3.2613044 -22.354879 -1.0524535 0.05882353
-4.3720293 -22.284014 -1.1902307 0.047058824
-4.3220325 -29.625591 3.6759255 0.0078431377
-5.1471968 -26.234934 2.1823895 0.0039215689
-2.1831708 -22.672251 -0.92806464 0.070588239
-5.7255526 -23.135542 -0.83240455 0.054901961
-5.4586277 -27.822214 5.169271 0.0039215689
-3.4498444 -23.64723 -0.55619413 0.047058824
-0.96551353 -4.8274655 -2.295682 0.0039215689
-2.4357166 -24.358812 -0.42741457 0.035294119
-4.6837378 -23.418112 -0.69514829 0.039215688
-0.91660595 -6.1256967 -1.7339338 0.043137256
-1.2246476 -6.1230831 -1.2489016 0.0039215689
-6.3692589 -25.337984 -0.30429217 0.0039215689
-0.97621244 -6.5240264 -1.0263114 0.0039215689
-1.2762605 -6.3811326 -0.82834744 0
-6.7712502 -67.717171 0.39522019 0.05882353
-1.6078664 -6.3963532 -0.61569113 0
-3.2016914 -21.396971 -1.5129796 0.062745102
-1.3761193 -6.8804092 -0.5728364 0
-6.7171888 -67.176437 1.9644617 0.098039217
-2.1701531 -21.703033 -1.3979534 0.054901961
-5.5275407 -21.989502 -1.320569 0.062745102
-5.0395584 -33.679379 1.983076 0.0078431377
-3.344991 -22.35463 -1.0530123 0.05882353
-4.4552417 -22.275671 -1.1906497 0.047058824
-4.2643151 -28.498362 3.5379746 0.0039215689
-5.2378454 -26.188526 2.1801107 0.0039215689
-2.2658567 -22.660118 -0.92790228 0.062745102
-5.8151827 -23.133783 -0.833103 0.054901961
-4.2122898 -28.150555 7.6267452 0.0039215689
-3.5388596 -23.650246 -0.55656677 0.043137256
-0.98079401 -4.8206849 -2.2939918 0.0078431377
-2.5164807 -24.350601 -0.42741492 0.035294119
-4.7669506 -23.42988 -0.69596332 0.039215688
-0.93691468 -6.1226234 -1.7339338 0.043137256
-1.2449459 -6.118988 -1.2489016 0.0039215689
-10.843837 -70.863136 -0.00034942708 0.12156863
-6.4779468 -25.413614 -0.30545717 0.0039215689
-0.96137214 -6.2824278 -0.98880076 0.0039215689
-6.9423213 -67.177109 0.39219943 0.05882353
-1.1887224 -7.7681303 -0.84652841 0
-1.6261176 -6.3794079 -0.61457586 0
-3.2750435 -21.402012 -1.5140961 0.05882353
-1.3981333 -6.871901 -0.57251096 0
-6.9510164 -67.261177 1.967602 0.098039217
-2.2408805 -21.683807 -1.3971863 0.054901961
-5.6073356 -21.998137 -1.3221974 0.062745102
-5.1802101 -33.851948 1.9942371 0.0078431377
-3.4184997 -22.339466 -1.0528265 0.062745102
-4.533865 -22.28426 -1.1919062 0.047058824
-2.3405781 -22.648506 -0.92773974 0.070588239
-5.8958158 -23.129866 -0.83366179 0.054901961
-5.535831 -27.208862 5.0623689 0.0039215689
-3.6221073 -23.670006 -0.55731171 0.047058824
-0.9968797 -4.8136821 -2.2923014 0.0039215689
-2.5997627 -24.32576 -0.427136 0.035294119
-4.8592453 -23.463993 -0.69747663 0.039215688
-0.96006829 -6.1307325 -1.7371689 0.054901961
-1.2686831 -6.1261282 -1.2512552 0.0039215689
-6.5596042 -25.363743 -0.30513141 0.0039215689
