# .PCD v0.7 - Point Cloud Data file format
VERSION 0.7
FIELDS x y z intensity
SIZE 4 4 4 4
TYPE F F F F
COUNT 1 1 1 1
WIDTH 1122
HEIGHT 1
VIEWPOINT 0 0 0 1 0 0 0
POINTS 1122
DATA ascii
-8.7835808 156.51569 3.6220391 0.074509807
2.1633646 53.558186 0.61757088 0.023529412
-1.9590788 33.420376 -2.3448365 0.054901961
-0.30891395 31.13316 -2.5452003 0.054901961
-14.809484 140.51968 4.0876398 0.24705882
-0.42056683 48.189587 0.83501995 0.031372551
-3.743803 34.763969 -2.2449808 0.043137256
1.3528491 34.424187 -2.0102963 0.031372551
-0.43014002 49.623928 2.0154269 0.043137256
-2.1125472 36.186684 -1.6929078 0.05882353
-0.33717659 35.456093 -1.8624324 0.050980393
-0.42366847 48.567856 3.9588056 0.031372551
-3.9983339 37.195511 -1.5288814 0.05882353
1.4568802 36.881977 -1.2931376 0.054901961
-0.12238235 5.0074716 -2.3352981 0
-0.22788818 38.013344 -1.1108537 0.023529412
-0.55095476 8.529397 -2.3914013 0
-0.14559259 12.293824 -2.4595714 0.0039215689
-8.2284498 155.86636 -0.025400562 0.24705882
-0.93808138 15.95947 -2.4877183 0.0039215689
-0.17083895 20.218134 -2.5754128 0.023529412
-1.2236868 21.440136 -2.3148463 0.039215688
0.96712619 23.482718 -2.1964557 0.027450981
2.3261855 53.226715 0.61388695 0.023529412
-1.8455265 33.374542 -2.3411784 0.039215688
-0.2054898 31.081833 -2.5409398 0.054901961
-14.242661 139.57317 4.0588212 0.24705882
-0.26049984 48.114372 0.83373886 0.031372551
-3.6232557 34.724213 -2.2416236 0.019607844
1.4664664 34.407185 -2.0095723 0.047058824
-0.63021433 10.039246 0.58558434 0
-0.26474145 49.368935 2.0050817 0.043137256
-1.9902316 36.149242 -1.6908292 0.047058824
-0.21955508 35.448673 -1.8619879 0.050980393
-0.26131317 48.169964 3.9263582 0.031372551
-3.8705194 37.164467 -1.5270588 0.05882353
1.5791947 36.876587 -1.2931114 0.035294119
-0.10401648 5.0147471 -2.3386767 0.0039215689
-14.788556 150.47575 -2.6649549 0.24705882
-0.088578574 37.977551 -1.1097718 0.023529412
-0.51912409 8.5194292 -2.3881581 0
-0.10052439 12.297807 -2.4603472 0.0039215689
-7.6389546 155.51955 -0.0252223 0.24705882
-0.87957549 15.962411 -2.4877069 0.0039215689
-0.096724279 20.230139 -2.5769148 0.015686275
-13.549057 137.7654 0.7809701 0.10980392
-0.082127362 51.876884 -0.30824113 0.039215688
-1.1454773 21.452032 -2.3156886 0.047058824
1.0539778 23.494537 -2.1979268 0.035294119
-7.7846951 158.51367 3.6671422 0.074509807
-1.7204874 33.32489 -2.3372381 0.039215688
-0.091589451 31.034147 -2.537003 0.054901961
-14.089814 143.30104 4.1657619 0.24705882
-0.083942287 48.562546 0.84152073 0.031372551
-3.4932473 34.709057 -2.2398038 0.043137256
1.5935513 34.421131 -2.010711 0.047058824
-0.084906735 46.99913 1.9089484 0.043137256
-1.8552122 36.104023 -1.6883743 0.054901961
-0.089650467 35.400917 -1.8594415 0.050980393
-0.084681213 48.353596 3.9413357 0.031372551
-3.7288458 37.122322 -1.5247431 0.05882353
1.7153299 36.890121 -1.2937835 0.039215688
-0.086516164 5.0110826 -2.3369818 0.0039215689
0.043799616 37.925278 -1.1082232 0.023529412
-0.48885387 8.5092726 -2.3849154 0
-0.05766334 12.278102 -2.4564126 0.0039215689
-7.0780396 155.14526 -0.025045441 0.24705882
-0.82366097 15.961065 -2.4870801 0.0039215689
-0.026156828 20.214113 -2.5748773 0.019607844
-1.0705746 21.455528 -2.3156738 0.047058824
1.1366285 23.502277 -2.1990263 0.027450981
2.717159 53.399662 0.61617434 0.023529412
-1.6019856 33.28249 -2.3338585 0.054901961
0.016677834 31.013975 -2.5353501 0.054901961
0.086733945 48.850128 0.84653515 0.031372551
-3.3683138 34.680927 -2.237215 0.019607844
1.7135003 34.410999 -2.0104523 0.047058824
0.09071935 49.916348 2.0273731 0.043137256
-1.7284393 36.093937 -1.6876019 0.054901961
0.033892192 35.388664 -1.858786 0.050980393
0.082516216 47.946575 3.9082398 0.031372551
-3.5954823 37.094955 -1.523083 0.05882353
1.844952 36.899506 -1.2943168 0.039215688
-0.069046207 5.0073576 -2.3352871 0.0039215689
0.17610502 37.916523 -1.1079618 0.023529412
-0.45994172 8.5297966 -2.3903041 0
-0.014745668 12.2857 -2.457974 0.0039215689
-0.76663595 15.93188 -2.4821444 0.0039215689
0.043507479 20.094675 -2.559691 0.015686275
-0.99469358 21.434921 -2.3130846 0.047058824
1.2175304 23.477913 -2.1971467 0.027450981
-6.4752741 153.67288 3.5543072 0.074509807
-1.484987 33.26757 -2.3324366 0.054901961
0.12459601 30.969503 -2.5317407 0.054901961
0.28947791 53.176388 0.92140371 0.043137256
-3.2396932 34.608616 -2.2318041 0.039215688
1.8356146 34.440319 -2.0125246 0.047058824
0.25653577 48.7883 1.9816737 0.043137256
-1.601462 36.075424 -1.686456 0.054901961
0.15710679 35.348011 -1.8566605 0.035294119
0.25023773 47.99744 3.9124975 0.031372551
-3.4638307 37.083019 -1.5220768 0.039215688
1.9741765 36.900452 -1.2945694 0.039215688
-0.052352671 5.0144563 -2.338666 0.0039215689
0.30172843 37.903389 -1.1075848 0.023529412
-0.43135014 8.5232267 -2.3881407 0
0.025964312 12.281407 -2.4571805 0.0039215689
2.8240385 49.078957 -0.57807767 0.023529412
-0.71423852 15.945828 -2.4839804 0.0039215689
0.10930023 20.014717 -2.5495629 0.0078431377
-0.92344213 21.433775 -2.3126409 0.047058824
1.2949187 23.465441 -2.1963854 0.027450981
-2.0453694 50.851307 1.1772307 0.027450981
2.8319085 49.214897 0.56831563 0.015686275
-1.3735791 33.244045 -2.3304567 0.039215688
0.22705251 30.944649 -2.5297627 0.054901961
-12.47455 141.8441 4.1197882 0.24705882
-3.1228123 34.594959 -2.230243 0.039215688
1.9500684 34.437675 -2.0127332 0.047058824
0.39855075 46.948452 1.9071025 0.043137256
-1.480436 36.04425 -1.6847509 0.054901961
0.27468637 35.378902 -1.8583161 0.050980393
0.41409379 48.430523 3.9479349 0.031372551
-3.335269 37.030247 -1.5194364 0.05882353
2.0977411 36.913303 -1.295244 0.039215688
-0.034891024 5.010612 -2.336971 0.0039215689
0.43388063 37.889736 -1.1072062 0.023529412
-0.40118611 8.5127592 -2.3848977 0
0.06884592 12.280871 -2.4571717 0.0039215689
-1.8027443 48.984467 -0.0066009657 0.043137256
-0.65815032 15.936007 -2.4821227 0.0039215689
0.17741993 19.890848 -2.5338714 0.0078431377
-13.508911 160.17557 0.90701312 0.10980392
-0.84750462 21.404701 -2.3091936 0.039215688
1.3763322 23.452457 -2.1956229 0.027450981
-1.8690783 50.89373 1.1780975 0.027450981
-1.2557163 33.19643 -2.3267975 0.039215688
0.33451536 30.903431 -2.526479 0.039215688
-12.753772 151.14221 4.3885198 0.24705882
0.60601437 49.985256 0.86635244 0.039215688
-3.0010176 34.593342 -2.22945 0.039215688
2.0705357 34.434277 -2.0129406 0.047058824
0.56409961 47.062286 1.9118401 0.043137256
-1.3521039 35.976944 -1.6813631 0.054901961
0.39768428 35.341404 -1.8564004 0.035294119
0.62508065 51.370365 4.1876855 0.047058824
-3.2029719 37.005447 -1.5179396 0.05882353
2.227354 36.917351 -1.2956369 0.039215688
-0.017390855 5.0103316 -2.3369675 0.0039215689
0.56594235 37.875622 -1.1068275 0.023529412
-0.37181678 8.5252867 -2.3881285 0
0.11144621 12.264497 -2.4540224 0.0039215689
-1.6320989 49.002083 -0.0065686572 0.043137256
3.1634464 49.009407 -0.57743752 0.094117649
-0.60213816 15.925982 -2.4802647 0.0039215689
0.2466529 19.877829 -2.5323398 0.0078431377
-12.765898 157.92876 0.89416623 0.10980392
-0.77190369 21.379333 -2.3061752 0.039215688
1.4563458 23.419319 -2.1929984 0.027450981
-1.6662617 50.092178 1.1594738 0.027450981
3.1749265 49.185192 0.5682981 0.031372551
-1.1388216 33.168331 -2.3245366 0.054901961
0.44119865 30.833942 -2.5209129 0.054901961
-2.8760829 34.551506 -2.2260916 0.039215688
2.1912696 34.434437 -2.0133808 0.047058824
0.77442271 49.653114 2.0171361 0.043137256
-1.2251283 35.937141 -1.6792831 0.054901961
0.52092189 35.331436 -1.8559546 0.035294119
0.77944869 49.960369 4.073061 0.047058824
-3.070569 36.976192 -1.5162792 0.039215688
2.3591511 36.95285 -1.297151 0.039215688
0.00098065287 5.0099716 -2.3369634 0.0039215689
0.70441669 37.856915 -1.1063305 0.023529412
-0.3401387 8.5108013 -2.3838067 0
0.15581396 12.236167 -2.4485171 0.0039215689
-1.4519409 48.987347 -0.0065290974 0.043137256
3.3503544 49.100822 -0.57862461 0.023529412
-0.54354036 15.91979 -2.4790218 0.0039215689
0.32070288 19.931942 -2.5394044 0.0039215689
-12.16413 157.67497 0.89258832 0.10980392
1.0343375 53.264637 -0.31637448 0.039215688
-0.69331717 21.373678 -2.3053012 0.047058824
1.5404972 23.389597 -2.1907458 0.027450981
-1.4746445 49.805744 1.1527673 0.019607844
3.6501169 53.36219 0.6166057 0.023529412
-1.0170257 33.163914 -2.3239524 0.039215688
0.55369705 30.807812 -2.5189328 0.082352944
-2.7466862 34.5256 -2.2237582 0.039215688
2.318867 34.445694 -2.014519 0.047058824
0.90009564 47.020317 1.9104508 0.043137256
-1.092636 35.91304 -1.677949 0.054901961
0.65058637 35.336887 -1.8563474 0.035294119
-1.4596153 49.22245 6.0396132 0.019607844
0.90555555 47.29422 3.8561175 0.031372551
-2.9313672 36.93898 -1.5142905 0.039215688
2.4971015 36.979454 -1.2983832 0.039215688
-1.2130008 40.291565 -0.94302803 0.015686275
0.021378905 5.0132599 -2.3386064 0.0039215689
-8.4184856 113.72855 -2.0058718 0.24705882
0.83476019 37.877998 -1.1060578 0.035294119
-0.30835116 8.5192842 -2.3858125 0
0.20058356 12.250964 -2.4514053 0.0039215689
-1.2995543 49.59137 -0.0052989149 0.043137256
-0.48612237 15.889604 -2.4737337 0.0039215689
0.39111388 19.946333 -2.5409579 0.0039215689
-11.635105 157.71423 0.89711028 0.10980392
1.2216628 53.512455 -0.31646374 0.039215688
-0.61791301 21.351709 -2.3022068 0.047058824
1.6223243 23.387999 -2.1905644 0.027450981
-1.3075573 49.913921 1.1565102 0.019607844
3.8368216 53.421143 0.61881727 0.023529412
-0.90176088 33.11895 -2.3197379 0.054901961
0.6572817 30.697893 -2.5093563 0.039215688
-11.572234 156.84512 4.5550165 0.24705882
1.112376 49.107391 0.85270792 0.031372551
-2.6248269 34.490463 -2.2200201 0.039215688
2.4387021 34.457375 -2.0148253 0.031372551
1.1938982 52.410542 2.1307967 0.050980393
-0.96829933 35.872231 -1.6749567 0.054901961
0.77173471 35.326221 -1.8550247 0.050980393
-1.2846262 48.92485 6.0039291 0.019607844
1.0561503 46.860023 3.8222647 0.031372551
-2.8026199 36.920315 -1.5121582 0.05882353
2.6256804 36.994522 -1.2982947 0.019607844
-1.0750309 40.291042 -0.94186974 0.015686275
0.038990542 5.0164199 -2.3402939 0.0039215689
-0.80139774 10.027968 -0.17533356 0
0.96642697 37.854507 -1.1054471 0.023529412
-0.27868021 8.5238008 -2.3868856 0
0.24280305 12.230227 -2.4474719 0.0039215689
-1.1005973 48.343513 -0.0050908197 0.043137256
-0.42990929 15.855281 -2.468184 0.0039215689
0.46153587 19.972254 -2.5444834 0.0039215689
-11.036129 157.05922 0.89327061 0.10980392
1.406437 53.435535 -0.31599891 0.039215688
-0.54328203 21.349401 -2.3017635 0.047058824
1.7012063 23.346098 -2.1871974 0.027450981
-1.1219954 49.370087 1.1438719 0.019607844
-0.78530926 33.081642 -2.3169198 0.039215688
0.76591414 30.746859 -2.5135727 0.054901961
-0.64997256 7.8514886 0.2296098 0
1.2857254 49.170803 0.8539198 0.031372551
-2.5016279 34.459232 -2.2174337 0.039215688
2.5565217 34.416447 -2.0129364 0.031372551
1.4197336 53.923836 2.1925104 0.054901961
-0.8423996 35.843071 -1.6734391 0.054901961
0.89483321 35.314964 -1.8545805 0.035294119
-1.1184125 49.150951 6.031229 0.019607844
1.3054724 49.892403 4.069901 0.047058824
-2.671212 36.893631 -1.5106635 0.039215688
2.7603607 37.056515 -1.3007895 0.039215688
-0.93238515 40.198235 -0.93959612 0.015686275
0.056277305 5.0086474 -2.3369083 0
-7.5963287 113.36083 -1.998262 0.24705882
1.0986845 37.854542 -1.1055377 0.023529412
-0.24885269 8.5205116 -2.3858011 0
0.28549874 12.228946 -2.4474633 0.0039215689
-0.92992425 48.234718 -0.0050428314 0.043137256
-0.37496215 15.880036 -2.4718659 0.0039215689
0.5277254 19.859116 -2.530313 0.0039215689
1.5940913 53.465923 -0.31617573 0.039215688
-0.46847951 21.334902 -2.3000331 0.047058824
1.7814093 23.323782 -2.1856918 0.027450981
-0.66928029 33.051907 -2.3146613 0.039215688
0.8719722 30.703791 -2.5102916 0.054901961
1.4602702 49.257599 0.85554773 0.031372551
-2.3786941 34.42757 -2.2148468 0.019607844
2.6792157 34.438793 -2.014776 0.031372551
1.348188 45.733055 1.859971 0.043137256
-0.7165941 35.805481 -1.6715482 0.043137256
1.0177201 35.299286 -1.8539263 0.050980393
-0.94766045 49.201832 6.0371056 0.019607844
1.3773364 46.663498 3.8070574 0.031372551
-2.5413585 36.886421 -1.5099858 0.039215688
2.8929143 37.08614 -1.3021637 0.039215688
-0.78774667 39.948994 -0.93367183 0.011764706
0.07402353 5.0153079 -2.340287 0.0039215689
-9.9663811 157.57295 -2.7775166 0.24705882
1.2308146 37.850117 -1.1055113 0.035294119
-0.21920735 8.5286732 -2.3879533 0
0.32722163 12.200077 -2.4419601 0.0039215689
-0.77192146 48.997238 -0.0051155696 0.043137256
-0.3192004 15.857178 -2.4681625 0.0039215689
0.59620851 19.833002 -2.5272658 0.0039215689
-0.39405447 21.340023 -2.3004479 0.047058824
1.8638204 23.328966 -2.1867914 0.027450981
-0.77119827 48.928154 1.1335782 0.019607844
4.3348918 52.651577 0.61054397 0.023529412
-0.55319512 33.001808 -2.3110042 0.050980393
0.97717857 30.644424 -2.5057065 0.054901961
-9.9416552 157.15617 4.56111 0.24705882
1.7126127 51.534081 0.89514911 0.039215688
-2.2562599 34.399448 -2.2125168 0.019607844
2.8020968 34.460705 -2.0166152 0.031372551
-0.82075262 52.532299 3.0541358 0.035294119
1.5106292 45.807594 1.8632492 0.043137256
-0.59127808 35.783432 -1.6704043 0.043137256
1.1409317 35.295166 -1.8539017 0.035294119
-0.77059609 48.815426 5.9894195 0.019607844
1.5271584 46.287506 3.77687 0.031372551
-2.4105883 36.862797 -1.5086546 0.039215688
2.2389355 27.782137 -0.97534609 0.015686275
-0.64693099 39.851173 -0.93130475 0.011764706
0.091679901 5.0182815 -2.341974 0.0039215689
1.3635654 37.861214 -1.1059525 0.035294119
-0.18930818 8.5174723 -2.384711 0
0.37027323 12.21026 -2.4443064 0.0039215689
-0.26367408 15.842029 -2.4656901 0.0039215689
0.66345072 19.778896 -2.5206795 0.0039215689
-9.4052353 157.40865 0.89495873 0.10980392
-0.31938648 21.325008 -2.2987177 0.047058824
1.9466506 23.33783 -2.1882639 0.027450981
-0.59209538 48.114445 1.1147408 0.019607844
-0.43753195 32.95929 -2.3079069 0.050980393
1.0830773 30.612579 -2.5034034 0.054901961
-9.3375387 156.25159 4.5340052 0.24705882
1.9479223 52.958141 0.91999352 0.043137256
-2.1345048 34.37886 -2.2106996 0.039215688
2.3250153 27.648151 -1.6181126 0.0078431377
-0.61778945 50.609833 2.9423442 0.035294119
1.6683712 45.745766 1.8610086 0.043137256
-0.46614689 35.764942 -1.6694467 0.043137256
1.2639909 35.286617 -1.8536675 0.050980393
-0.59920681 48.722176 5.977766 0.019607844
1.7419538 47.655933 3.889009 0.031372551
-2.2797594 36.834721 -1.5071599 0.039215688
-0.50646293 39.720867 -0.92818904 0.011764706
0.10935684 5.021194 -2.3436618 0.0039215689
1.4968979 37.883823 -1.1067441 0.023529412
-0.15964548 8.5292778 -2.3879416 0
0.41289836 12.208533 -2.4442978 0.0039215689
-0.42310703 47.992733 -0.0049113338 0.043137256
-0.20826367 15.826684 -2.4632175 0.0039215689
0.73198938 19.764206 -2.5191486 0.0039215689
-8.8843861 157.95537 0.89798492 0.10980392
-0.24488983 21.317678 -2.2978454 0.047058824
2.0346274 23.401924 -2.1949475 0.027450981
-0.4247846 48.211826 1.1169934 0.019607844
-0.32226628 32.928341 -2.3056479 0.050980393
1.1890889 30.588337 -2.5017521 0.06666667
2.1312456 52.914692 0.91940677 0.043137256
-2.010942 34.32198 -2.2065747 0.019607844
-0.43801045 50.144115 2.9152334 0.035294119
1.8425393 46.08271 1.8750001 0.043137256
-0.34114122 35.74202 -1.6683024 0.043137256
1.3878312 35.297592 -1.8544822 0.035294119
-0.42826068 48.592587 5.96173 0.019607844
2.0244782 50.401611 4.1135826 0.047058824
-2.1476192 36.778244 -1.5045211 0.05882353
2.4095805 27.510326 -0.96634167 0.035294119
-0.36724979 39.638058 -0.92619658 0.011764706
0.12606329 5.0023165 -2.3352034 0.0039215689
1.6302419 37.901974 -1.1074189 0.023529412
-0.12980121 8.5101662 -2.3825417 0
0.45588171 12.214495 -2.4458594 0.0039215689
-0.25496209 47.805561 -0.0048531992 0.043137256
-0.15302934 15.834861 -2.4644377 0.0039215689
0.79899365 19.717573 -2.5135736 0.0039215689
-8.1987066 155.40858 0.88346928 0.10980392
-0.17056219 21.349859 -2.3012626 0.047058824
2.1159413 23.390354 -2.1945581 0.027450981
-0.25559503 47.936737 1.1106431 0.019607844
-0.20723039 32.904968 -2.3039484 0.039215688
1.2956893 30.57966 -2.5014048 0.06666667
2.3386121 53.401978 0.92803741 0.043137256
-1.8884076 34.276608 -2.2032187 0.019607844
2.5036635 27.479465 -1.6092178 0.043137256
-0.26917177 52.097679 3.0287211 0.035294119
2.0043185 46.095604 1.875844 0.043137256
-0.21621975 35.698681 -1.666225 0.054901961
1.5114168 35.300152 -1.8548771 0.035294119
-0.25779605 48.335358 5.9301119 0.019607844
2.0562348 47.239635 3.8562555 0.031372551
-2.018585 36.77319 -1.5040069 0.039215688
-0.22872739 39.594753 -0.9251402 0.011764706
0.14389053 5.0087285 -2.3385818 0.0039215689
1.7635354 37.915665 -1.1079766 0.023529412
-0.10008824 8.4986525 -2.3792994 0
0.49717599 12.185049 -2.440356 0.0039215689
-0.087939933 48.209797 -0.0048755538 0.043137256
-0.097746089 15.823084 -2.4625807 0.0039215689
0.86685348 19.694489 -2.5110319 0.0039215689
-7.6473956 155.2561 0.88255107 0.10980392
-0.096022397 21.349966 -2.3012481 0.047058824
2.1972005 23.378504 -2.194169 0.027450981
-0.088475347 47.197174 1.0935612 0.019607844
-0.092374898 32.837296 -2.2991734 0.039215688
1.3987153 30.498938 -2.4951901 0.054901961
2.5330884 53.556911 0.93091643 0.043137256
-1.7666008 34.23877 -2.2003758 0.019607844
2.6034946 27.509939 -1.611528 0.015686275
-0.08873523 47.397858 2.7556758 0.019607844
2.2461751 47.732613 1.9427544 0.043137256
-0.091593362 35.686871 -1.6656406 0.043137256
1.6344492 35.290321 -1.8546426 0.035294119
-0.089204758 47.827408 5.8678169 0.019607844
2.3255799 49.354198 4.02949 0.031372551
-1.8876716 36.727753 -1.5018585 0.039215688
-0.090536423 39.470982 -0.92221183 0.011764706
0.16176052 5.0150766 -2.34196 0
-0.53361684 9.5426178 -0.16648935 0
1.8985933 37.960823 -1.1094691 0.023529412
-0.070330173 8.5217009 -2.3857665 0
0.53929329 12.175048 -2.4387774 0.0039215689
0.094284251 51.877422 -0.0053378786 0.054901961
-0.042575933 15.807158 -2.460108 0.0039215689
0.93475342 19.675133 -2.5089958 0.0039215689
-0.021670513 21.306067 -2.2965152 0.047058824
2.2771699 23.354486 -2.1926632 0.035294119
0.073845327 46.565002 1.0789763 0.015686275
0.022173837 32.821098 -2.2980328 0.039215688
1.5007458 30.409904 -2.4883237 0.06666667
2.7143056 53.439537 0.92908275 0.043137256
-1.6451125 34.200504 -2.1975329 0.019607844
3.4112139 34.484215 -2.0211513 0.015686275
0.074156344 46.730652 2.7169609 0.019607844
2.3210168 45.983978 1.8720129 0.043137256
0.032869503 35.66264 -1.6644964 0.043137256
1.758661 35.303986 -1.855667 0.050980393
0.086699054 50.201252 6.15904 0.031372551
2.4959266 49.309582 4.0265999 0.031372551
-1.7585735 36.713795 -1.5010172 0.039215688
0.047132552 39.446712 -0.92162353 0.011764706
0.17988645 5.024981 -2.3470294 0.0039215689
2.0344748 38.013485 -1.1111952 0.023529412
-0.040601343 8.5176849 -2.3846822 0
0.58202058 12.176649 -2.4395537 0.0039215689
0.28330183 52.960384 -0.0054480722 0.054901961
0.012527101 15.794997 -2.458251 0
1.0021031 19.647625 -2.5059483 0.0039215689
0.052598983 21.289747 -2.294785 0.039215688
2.3561866 23.322269 -2.1904128 0.027450981
0.23687254 46.628082 1.0804883 0.015686275
7.9924889 76.791115 0.8917892 0.043137256
0.1364657 32.78056 -2.2952147 0.039215688
1.6098135 30.45587 -2.4925394 0.06666667
-6.6812801 158.1227 4.5847692 0.24705882
2.8846843 53.14188 0.92413002 0.043137256
-1.5235474 34.153831 -2.1941769 0.019607844
3.5366073 34.51939 -2.0239222 0.015686275
0.23642136 46.609947 2.7100322 0.019607844
2.6464214 48.90818 1.9913588 0.043137256
0.15713875 35.629982 -1.6629788 0.043137256
1.8827986 35.313221 -1.8564814 0.050980393
2.519933 46.665123 3.8115108 0.031372551
-1.6283976 36.671436 -1.4990321 0.039215688
0.18393953 39.321983 -0.91869533 0.011764706
0.19524802 5.0168309 -2.3436444 0.0039215689
2.1567314 38.054478 -1.1125734 0.023529412
-0.013876654 8.5135965 -2.3835981 0
0.61957896 12.16269 -2.4371912 0.0039215689
0.45151401 53.134903 -0.0054390156 0.054901961
0.06194602 15.774795 -2.455164 0
1.0619442 19.612366 -2.5018914 0.0039215689
-6.1023583 156.02399 0.88681608 0.10980392
2.8149498 49.142365 -0.29056925 0.023529412
0.11927775 21.269268 -2.2926276 0.031372551
2.4324577 23.342146 -2.1930029 0.035294119
0.38281232 46.574802 1.0793144 0.015686275
8.2513914 76.928329 0.89373004 0.043137256
0.239199 32.755699 -2.2935169 0.039215688
-6.2267647 159.24129 4.6167059 0.24705882
-1.4148614 34.122223 -2.1918492 0.019607844
3.6484852 34.539543 -2.0257635 0.031372551
0.38455331 46.772362 2.7195737 0.019607844
0.26890618 35.613007 -1.6622102 0.054901961
1.9930187 35.294846 -1.8558294 0.035294119
0.40249121 48.551315 5.9570227 0.019607844
2.6320271 46.075603 3.7640958 0.031372551
-1.5125685 36.660069 -1.4983568 0.039215688
4.0028815 37.804138 -1.3306627 0.019607844
0.30722088 39.29689 -0.91810954 0.011764706
0.21429084 5.0120316 -2.3419495 0
2.3071408 38.11335 -1.1145301 0.023529412
0.018769018 8.5093412 -2.3825126 0
0.66653526 12.163742 -2.4379668 0.0039215689
0.66200835 53.584335 -0.0054590423 0.054901961
0.1227553 15.789854 -2.4576139 0
1.136755 19.599831 -2.500865 0.0039215689
-1.8218889 49.663269 0.28341854 0.019607844
0.20112945 21.28019 -2.2938983 0.039215688
2.5234175 23.344112 -2.1941009 0.035294119
0.56611443 46.884476 1.0865661 0.015686275
8.5453987 76.883759 0.89365375 0.043137256
0.36470145 32.7342 -2.2920945 0.039215688
1.8176302 30.367575 -2.4863033 0.054901961
-0.40570027 8.7368965 0.25490412 0
3.0118308 49.264004 0.85724497 0.062745102
-1.2828486 34.099083 -2.1900296 0.019607844
3.7828836 34.54076 -2.0266678 0.031372551
0.56535709 46.853996 2.7244816 0.019607844
3.0195868 49.390377 2.0118823 0.090196081
0.40543681 35.595337 -1.6614368 0.054901961
2.1308124 35.322414 -1.8576903 0.050980393
0.58722997 48.429924 5.942451 0.019607844
-1.3701178 36.617283 -1.4963694 0.039215688
4.1645613 37.935074 -1.3358141 0.019607844
0.45749682 39.251045 -0.91705054 0.011764706
0.23460692 5.0109973 -2.3419034 0.0039215689
2.4422703 38.172947 -1.1155529 0.023529412
0.05094301 8.5204926 -2.3856013 0
0.71015626 12.153337 -2.4361532 0.0039215689
0.8375715 53.205532 -0.0040002828 0.054901961
0.17849478 15.761404 -2.4529538 0
1.2048804 19.583769 -2.4988992 0.0039215689
-1.6282502 48.885094 0.28028703 0.019607844
3.1672504 49.064293 -0.28893337 0.10588235
0.27579263 21.287056 -2.2942479 0.047058824
2.599304 23.2878 -2.189095 0.035294119
0.71873558 46.470108 1.0782551 0.015686275
8.8341866 77.104774 0.89855784 0.043137256
0.47661525 32.688622 -2.2881896 0.039215688
1.9189779 30.309347 -2.4813199 0.054901961
-0.34269598 7.7707119 0.22701311 0
3.1851957 49.337109 0.85997349 0.031372551
-1.1649795 34.08292 -2.1878598 0.019607844
3.9057107 34.563358 -2.02792 0.031372551
2.9616182 45.981949 1.8747513 0.043137256
0.52752364 35.585487 -1.6601518 0.043137256
2.2521193 35.314812 -1.8568057 0.050980393
0.78317112 50.181728 6.1590061 0.031372551
3.3047645 51.14249 4.181087 0.047058824
-1.2432246 36.581375 -1.4937757 0.039215688
4.3180346 38.123184 -1.3420151 0.019607844
0.58909583 39.089035 -0.91229671 0.011764706
0.25210413 5.0098009 -2.3419001 0.0039215689
2.5799763 38.227654 -1.1173954 0.011764706
0.080365114 8.5045118 -2.3812811 0
0.7503854 12.119136 -2.4298663 0.0039215689
1.0298675 53.513863 -0.0039983615 0.054901961
0.23318195 15.744534 -2.4504824 0
1.2701844 19.535557 -2.4933264 0.0039215689
-1.4512728 48.66222 0.27901834 0.019607844
3.3449266 49.14436 -0.28944415 0.023529412
0.3506881 21.313452 -2.2972357 0.047058824
2.6815252 23.286148 -2.1898234 0.027450981
0.88591641 46.70285 1.0837506 0.015686275
8.8969898 75.345505 0.87850374 0.043137256
0.5899598 32.650505 -2.2856538 0.039215688
2.0225372 30.270302 -2.4786932 0.06666667
-1.4655867 49.170151 1.4276171 0.043137256
3.6123891 52.963867 0.92332655 0.043137256
-1.0453355 34.062496 -2.186301 0.019607844
4.0315452 34.592785 -2.0304582 0.031372551
0.89457583 47.127708 2.741991 0.019607844
3.1251781 46.014843 1.8765688 0.043137256
0.65199023 35.595066 -1.6606885 0.043137256
2.3773329 35.334282 -1.8582503 0.050980393
0.94025153 49.320961 6.053833 0.019607844
3.4891119 51.21381 4.1879478 0.047058824
-1.1146371 36.553188 -1.4924467 0.039215688
4.4690948 38.258369 -1.3473068 0.019607844
0.72308999 38.970451 -0.9095608 0.011764706
0.26785031 5.0086727 -2.341897 0.0039215689
2.7050424 38.286839 -1.119357 0.023529412
0.78903913 12.124229 -2.4314287 0.0039215689
1.1960636 53.430073 -0.0039588865 0.054901961
0.2824637 15.735511 -2.4492426 0
1.3312738 19.527199 -2.4928091 0.0039215689
-1.2777836 47.830498 0.27428117 0.019607844
0.7156024 11.12777 -0.064340875 0
0.41736847 21.300007 -2.2959368 0.047058824
2.7556512 23.285204 -2.1905534 0.027450981
1.0261589 46.431683 1.0775712 0.015686275
9.1273527 75.265251 0.8779493 0.043137256
0.69177389 32.616268 -2.2833991 0.023529412
2.1170571 30.255535 -2.4780231 0.06666667
-1.3009446 48.762493 1.415706 0.043137256
3.7784908 52.947952 0.92328882 0.043137256
-0.93673116 34.001453 -2.1821811 0.019607844
4.1470222 34.635124 -2.0336971 0.031372551
1.0647079 48.03455 2.7949474 0.019607844
3.243176 45.64175 1.8618132 0.043137256
0.76392633 35.596531 -1.6608545 0.054901961
2.4906788 35.3582 -1.8599069 0.035294119
1.0654036 48.08704 5.9028707 0.019607844
3.7067845 51.977623 4.2513695 0.047058824
-0.99830335 36.496262 -1.4899768 0.039215688
4.6165237 38.466022 -1.3551197 0.019607844
0.53939152 8.7262945 1.5964125 0
0.84369147 38.891716 -0.90776223 0.011764706
0.2864919 5.0109086 -2.3435845 0.0039215689
2.8502593 38.340088 -1.1211981 0.023529412
0.13826635 8.5030918 -2.3812704 0
0.83317631 12.116983 -2.4306355 0.0039215689
1.3904313 53.372986 -0.0039171353 0.054901961
0.34002987 15.730054 -2.4486165 0
1.4028399 19.521826 -2.4927952 0.0039215689
-1.1021352 47.818489 0.27422163 0.019607844
0.49454927 21.266165 -2.2924922 0.047058824
2.8444746 23.302244 -2.1931412 0.027450981
9.2547779 74.056343 0.86432004 0.043137256
0.81064671 32.589222 -2.2817001 0.039215688
2.227937 30.24721 -2.4780018 0.06666667
-1.1673113 50.917194 1.4781005 0.054901961
3.7866333 50.516888 0.88124812 0.039215688
-0.81201869 34.000301 -2.1819022 0.039215688
4.2774415 34.64706 -2.0353026 0.015686275
1.1960841 46.429283 2.7018898 0.019607844
3.7344365 49.841259 2.0335603 0.050980393
0.89405477 35.581142 -1.6602705 0.054901961
2.6230147 35.384315 -1.8617696 0.054901961
1.2071 46.844215 5.7509384 0.019607844
3.7181005 49.633953 4.0609059 0.031372551
-0.86461467 36.503311 -1.4901159 0.039215688
4.7860336 38.674545 -1.3630682 0.019607844
0.98410982 38.81205 -0.9059599 0.011764706
0.3036975 5.0059185 -2.3418901 0.0039215689
2.9898446 38.401299 -1.1232736 0.011764706
0.16698411 8.4714136 -2.3726354 0.0039215689
0.87610209 12.121474 -2.4321971 0.0039215689
0.39494064 15.728424 -2.4486063 0
1.468433 19.484821 -2.4887385 0.0039215689
-0.93577278 47.853699 0.27443427 0.019607844
0.56790805 21.236137 -2.2894769 0.047058824
2.9237483 23.276028 -2.1916366 0.027450981
1.4648273 49.811848 1.156195 0.098039217
10.047352 78.136436 0.91231191 0.043137256
0.92314714 32.545963 -2.2788846 0.039215688
2.3351059 30.258772 -2.4796109 0.082352944
-0.94590741 48.422039 1.4056842 0.043137256
4.1585512 52.934792 0.92363906 0.043137256
-0.69291151 33.978634 -2.1803429 0.039215688
4.4086432 34.710773 -2.0399368 0.015686275
1.3735561 46.915394 2.730474 0.019607844
3.5869913 45.831783 1.8706484 0.043137256
1.0183762 35.581451 -1.6604339 0.043137256
2.7490759 35.406448 -1.8634237 0.054901961
1.3703555 46.831425 5.7499943 0.019607844
3.5966492 45.95636 3.7612085 0.031372551
-0.73656082 36.469791 -1.4886234 0.039215688
4.943656 38.83168 -1.3691987 0.019607844
1.1190802 38.792046 -0.90556085 0.011764706
0.32117888 5.0044813 -2.3418868 0.0039215689
3.1302457 38.465981 -1.1254659 0.011764706
0.1975061 8.4973803 -2.3801806 0
0.91677839 12.098454 -2.4282646 0.0039215689
0.449853 15.726604 -2.448596 0
1.5347917 19.459461 -2.4861987 0.0039215689
-0.81226522 50.97197 0.29223016 0.035294119
0.64232391 21.241629 -2.2903204 0.047058824
3.0055199 23.269281 -2.191993 0.027450981
1.697714 51.496605 1.195417 0.031372551
10.261882 77.664421 0.90728003 0.043137256
1.0364864 32.534222 -2.2783046 0.039215688
2.4430656 30.277897 -2.4818714 0.06666667
-0.78049177 48.684559 1.4132497 0.043137256
6.2648382 75.807632 1.3224721 0.074509807
-0.57378095 33.944572 -2.178015 0.019607844
4.5393023 34.766071 -2.0441048 0.015686275
1.6980326 51.515385 2.9984064 0.035294119
3.7132025 45.416386 1.8542706 0.043137256
1.1423111 35.569344 -1.6600375 0.054901961
2.2356308 27.809475 -1.4636881 0.023529412
1.5753583 48.01635 5.8961473 0.019607844
3.7477255 45.831932 3.7521367 0.031372551
-0.60878891 36.439819 -1.4872942 0.05882353
5.106153 39.015926 -1.3763083 0.019607844
1.253245 38.751583 -0.90469444 0.011764706
0.33960384 5.0138168 -2.346956 0.0039215689
3.2732265 38.554047 -1.1283581 0.011764706
0.2276206 8.5078392 -2.3834114 0
0.95833176 12.087018 -2.4266868 0.0039215689
0.50354439 15.692997 -2.4436631 0
1.5992633 19.41411 -2.4811311 0.0039215689
0.71648073 21.238911 -2.2903066 0.047058824
3.0840383 23.238571 -2.1901162 0.027450981
1.7999985 49.472042 1.1486628 0.019607844
10.366865 76.415184 0.89318544 0.043137256
1.1489902 32.502151 -2.2763274 0.039215688
2.5484092 30.26487 -2.4815252 0.054901961
-0.63280427 50.809631 1.4748356 0.054901961
6.5290971 75.780975 1.3224535 0.074509807
-0.45506293 33.926067 -2.1767123 0.019607844
4.6666088 34.793182 -2.0466423 0.015686275
1.6891391 46.592731 2.7124271 0.019607844
4.2182312 49.364388 2.0159519 0.043137256
1.2674015 35.588753 -1.6611335 0.054901961
2.3201733 27.657902 -1.4561199 0.0078431377
1.7653561 48.593403 5.9677787 0.019607844
4.417954 51.652515 4.2297287 0.047058824
-0.481318 36.417408 -1.4862915 0.039215688
5.2841039 39.302486 -1.3870558 0.019607844
1.3908254 38.806572 -0.90607101 0.011764706
0.35590681 5.0087242 -2.3452621 0.0039215689
2.2702103 26.091227 -0.76333183 0.0039215689
0.25599906 8.5105562 -2.3844845 0
0.99841374 12.083445 -2.4266791 0.0039215689
0.32757622 10.236872 0.00054522092 0.0039215689
0.55591571 15.69881 -2.4448841 0
1.6639967 19.412323 -2.4816239 0.0039215689
-0.44717422 48.451748 0.2778998 0.019607844
0.78624737 21.220198 -2.2885783 0.047058824
3.1627464 23.239721 -2.1912172 0.035294119
2.1043842 52.829643 1.2267063 0.031372551
10.580175 76.094872 0.88990653 0.043137256
1.2546028 32.446003 -2.2726746 0.039215688
2.4111023 27.639452 -2.2667902 0.039215688
-0.44761261 48.484161 1.4073977 0.043137256
6.722477 75.121292 1.3113905 0.074509807
-0.34227085 33.887154 -2.174129 0.019607844
4.7936182 34.860233 -2.0515101 0.015686275
1.8356452 46.395035 2.7013125 0.019607844
4.0323882 45.500824 1.8588791 0.043137256
1.3862442 35.603985 -1.6620442 0.054901961
1.8426204 46.575787 5.72086 0.019607844
4.590652 51.653126 4.2310619 0.047058824
-0.36032167 36.386501 -1.4849633 0.039215688
5.4382968 39.454643 -1.3930465 0.019607844
1.5213382 38.84536 -0.90707487 0.011764706
0.37426963 5.0070224 -2.3452585 0.0039215689
0.28684691 8.5015011 -2.3823211 0.0039215689
1.04307 12.083246 -2.4274554 0.0039215689
0.61255932 15.676562 -2.4417968 0
1.7321521 19.37413 -2.477567 0.0039215689
-0.26907095 48.304695 0.27708814 0.019607844
0.32643211 4.5056119 -0.025152594 0
0.86330009 21.20092 -2.2868485 0.039215688
3.2484748 23.23155 -2.1915724 0.035294119
1.9563864 45.294979 1.0521816 0.015686275
12.664899 88.588943 1.0363619 0.062745102
1.3731542 32.43285 -2.2720935 0.039215688
2.5060143 27.562592 -2.2612317 0.074509807
-0.26568332 47.281616 1.3725359 0.043137256
5.2953815 57.082771 0.99725795 0.043137256
-0.21803723 33.879829 -2.173594 0.039215688
4.9412899 34.980404 -2.0596356 0.015686275
1.9995199 46.251987 2.6934512 0.019607844
4.3299842 46.87006 1.9154505 0.043137256
1.5158243 35.578346 -1.6610869 0.043137256
2.5060644 27.564777 -1.4520983 0.14901961
2.0233886 46.790459 5.7481685 0.019607844
4.3174834 46.741703 3.8302526 0.031372551
-0.22687218 36.363228 -1.4839593 0.039215688
5.6290503 39.75457 -1.4043515 0.031372551
1.6640654 38.847153 -0.90723503 0.011764706
0.39139813 5.0017319 -2.3435643 0.0039215689
0.31596231 8.4885616 -2.3790796 0.0078431377
1.0833334 12.059669 -2.4235232 0.0039215689
0.29124752 7.9922299 0.00078090001 0.0039215689
8.299365 56.881107 -0.67243975 0.035294119
0.66573679 15.6424 -2.4368641 0
1.7986121 19.355774 -2.4760375 0.0039215689
-0.10044797 47.753002 0.2739704 0.019607844
0.93691474 21.189484 -2.2859769 0.031372551
3.3278058 23.207907 -2.1904402 0.027450981
2.4850912 52.868435 1.2280746 0.031372551
12.985143 88.619034 1.037302 0.062745102
1.4861641 32.423531 -2.2717929 0.039215688
2.8671436 30.255327 -2.4830933 0.027450981
-0.10067179 48.68132 1.4131418 0.043137256
5.4961605 57.079514 0.99757439 0.043137256
-0.099772312 33.860077 -2.172291 0.019607844
5.070364 35.010002 -2.0624058 0.015686275
2.1695323 46.41988 2.7036967 0.019607844
4.7403774 49.372158 2.0183265 0.043137256
1.6407874 35.588448 -1.6618097 0.054901961
2.6030495 27.563467 -1.4524992 0.10980392
4.4837236 46.757748 3.8328853 0.031372551
-0.099939317 36.355461 -1.4836096 0.05882353
5.8057394 39.991394 -1.4134187 0.031372551
1.8002422 38.852741 -0.90748984 0.011764706
0.40872329 5.0072904 -2.3469427 0.0039215689
2.7006156 27.616364 -0.80879891 0.0039215689
1.1213509 12.036168 -2.4195914 0.0039215689
0.71802962 15.647671 -2.4380848 0
1.8620007 19.341478 -2.4750142 0.0039215689
0.074712329 52.840637 0.30302423 0.035294119
1.0065676 21.174017 -2.2846775 0.039215688
3.4083309 23.220043 -2.1926575 0.035294119
2.6916931 53.458591 1.2420067 0.031372551
11.237868 75.061348 0.87933558 0.043137256
1.5928602 32.402149 -2.2706547 0.039215688
2.9630499 30.201691 -2.4794898 0.054901961
0.057343744 47.637505 1.382913 0.043137256
5.6531639 56.742321 0.99205476 0.043137256
0.012384042 33.815979 -2.1694515 0.019607844
5.2055359 35.119015 -2.0698347 0.015686275
2.3009889 45.981407 2.678652 0.019607844
4.9032884 49.347874 2.018033 0.043137256
1.7594366 35.594456 -1.662347 0.054901961
2.7004981 27.613964 -1.4556268 0.078431375
2.3503284 46.937466 5.768199 0.019607844
4.6729474 47.07943 3.8605492 0.031372551
0.02061148 36.347267 -1.483261 0.039215688
5.9861054 40.287807 -1.4245855 0.031372551
1.9315933 38.894146 -0.90858698 0.011764706
0.4270829 5.0053949 -2.3469391 0.0039215689
4.0312796 39.30447 -1.1521546 0.011764706
0.3750197 8.4816103 -2.37799 0.011764706
1.1654696 12.031612 -2.4195828 0.0039215689
8.6779528 56.702503 -0.67095429 0.074509807
0.77494752 15.636679 -2.4368434 0
1.9295729 19.302586 -2.470957 0.0039215689
0.26929453 52.967636 0.30379006 0.035294119
7.8328462 75.480789 -0.44624859 0.06666667
1.0808508 21.11026 -2.2782311 0.054901961
3.4928186 23.203094 -2.1922681 0.035294119
2.8758044 53.236389 1.2371324 0.031372551
1.7109579 32.383789 -2.2697942 0.039215688
2.9983139 29.472618 -2.4204967 0.0078431377
0.24420702 49.395821 1.4339566 0.043137256
5.3185873 51.55806 0.90194023 0.043137256
0.13625902 33.803371 -2.1686602 0.019607844
5.3476758 35.186153 -2.0749321 0.015686275
2.4739778 46.052036 2.6833272 0.019607844
4.7374735 46.030106 1.8832127 0.043137256
1.8894562 35.579426 -1.6619493 0.062745102
2.4605737 45.822197 5.6323333 0.019607844
5.3245845 51.621292 4.2344546 0.047058824
0.15370861 36.326603 -1.4824202 0.039215688
6.1820579 40.577316 -1.4356091 0.031372551
1.0318407 10.768156 1.9751093 0
2.0774996 38.946327 -0.90996158 0.011764706
0.44658637 4.9964557 -2.3435144 0.0039215689
0.40711564 8.4838781 -2.378926 0.0039215689
1.210853 12.042983 -2.422488 0.0039215689
0.82948273 15.614003 -2.4334273 0
1.9991968 19.311556 -2.4725473 0.0039215689
8.096549 75.533478 -0.44476461 0.06666667
1.1578506 21.157871 -2.2833121 0.031372551
3.5799444 23.230379 -2.1954644 0.035294119
2.8276954 49.357952 1.148616 0.019607844
8.8896027 56.795521 0.66791964 0.054901961
1.8222209 32.373634 -2.2687113 0.039215688
3.0953755 29.418591 -2.4162073 0.023529412
0.45008969 53.052608 1.5414422 0.05882353
8.2076864 76.56115 1.3410155 0.074509807
0.25229207 33.782478 -2.1665177 0.019607844
5.485342 35.274338 -2.080375 0.015686275
4.9229097 46.275913 1.8950986 0.043137256
2.0108995 35.560665 -1.6604983 0.054901961
3.763514 35.57983 -1.8764338 0.035294119
2.6347675 46.114452 5.6705356 0.019607844
5.0025039 47.013042 3.8591642 0.031372551
0.27799121 36.289616 -1.4800195 0.039215688
6.3645687 40.832581 -1.4444108 0.031372551
2.2141879 38.994759 -0.91028327 0.011764706
0.4644351 4.9981356 -2.345202 0.0039215689
4.3341112 39.553543 -1.1593192 0.011764706
0.43649203 8.4782276 -2.3778424 0.019607844
1.2520155 12.030554 -2.4209108 0.0039215689
0.88225222 15.583069 -2.4291115 0
2.0639484 19.280466 -2.4695034 0.0039215689
0.63748944 53.195839 0.30655435 0.035294119
8.1575975 73.695755 -0.43402901 0.06666667
1.2336944 21.185122 -2.2867286 0.031372551
3.6622872 23.225273 -2.1961937 0.035294119
14.449741 89.906631 1.0570779 0.062745102
1.9354661 32.370731 -2.2689707 0.039215688
3.2757065 30.100616 -2.4731865 0.039215688
0.55244642 47.041485 1.3670497 0.043137256
5.6711864 51.49601 0.90286058 0.043137256
0.3696081 33.73716 -2.1636798 0.019607844
5.6511726 35.518757 -2.0959475 0.015686275
2.7837691 45.905785 2.6771045 0.019607844
5.0639496 46.075409 1.8876488 0.043137256
2.136018 35.569042 -1.6612219 0.054901961
3.8934679 35.617748 -1.8791363 0.035294119
2.8088877 46.314648 5.6963854 0.019607844
5.1674633 47.002884 3.8598442 0.031372551
0.40482926 36.300079 -1.480487 0.039215688
6.5409002 41.018936 -1.4517941 0.031372551
2.3600571 39.142113 -0.91389912 0.011764706
0.48146957 4.9925494 -2.3435082 0.0039215689
4.4932604 39.720551 -1.164658 0.019607844
0.46659982 8.4840078 -2.3799942 0.0078431377
1.2913061 12.0024 -2.4161952 0.0039215689
3.1539805 49.058239 -0.0018990294 0.090196081
0.93612391 15.571673 -2.4278715 0
2.1275971 19.24128 -2.4654489 0.0039215689
0.8272469 53.428913 0.30793983 0.035294119
8.4326878 73.821472 -0.43489853 0.06666667
1.3097441 21.212099 -2.2901447 0.039215688
3.7400901 23.192368 -2.1943188 0.035294119
3.1714063 49.324368 1.1483984 0.039215688
14.703437 89.492264 1.0528706 0.062745102
2.0492418 32.375385 -2.2697885 0.039215688
3.2965631 29.359957 -2.413239 0.023529412
0.71374506 46.871029 1.3622038 0.043137256
6.8321824 59.96978 1.0516328 0.06666667
0.48640519 33.679455 -2.1600735 0.019607844
5.7842436 35.553635 -2.0991831 0.015686275
5.2531853 46.303272 1.8977584 0.043137256
2.2633345 35.608883 -1.6634368 0.054901961
4.0223589 35.643288 -1.8812096 0.035294119
2.9456127 45.927876 5.6501298 0.019607844
5.4486127 47.998096 3.94313 0.031372551
0.53139967 36.290119 -1.4801388 0.039215688
6.7283945 41.26371 -1.4612743 0.031372551
2.505661 39.268967 -0.9170481 0.011764706
0.49933201 4.9941039 -2.3451955 0
4.6640482 39.974258 -1.1725615 0.019607844
0.49622178 8.4819927 -2.3799889 0
1.3336694 12.00138 -2.4169722 0.0039215689
3.3285666 49.094479 -0.0018719861 0.090196081
15.010798 89.408325 -1.0587626 0.082352944
0.99021047 15.564034 -2.4272466 0
2.1928849 19.217638 -2.4634151 0.0039215689
1.016008 53.53334 0.30859151 0.035294119
8.7016993 73.886566 -0.43541557 0.06666667
1.3840702 21.211029 -2.29056 0.047058824
3.819711 23.17098 -2.1935596 0.027450981
3.5633881 52.464149 1.2217252 0.031372551
11.748073 70.099472 0.8255682 0.043137256
2.1628122 32.375664 -2.2703273 0.039215688
3.4848406 30.068426 -2.4724967 0.039215688
0.87919712 46.95586 1.3647854 0.043137256
6.8755317 58.551285 1.0272509 0.047058824
0.6038996 33.673229 -2.1597972 0.019607844
5.9223022 35.615582 -2.104048 0.015686275
3.3650663 49.625126 2.8952758 0.023529412
5.3505411 45.744576 1.8756751 0.043137256
2.3898604 35.632317 -1.664906 0.054901961
4.1510205 35.664394 -1.8830733 0.015686275
3.184087 47.037823 5.7880373 0.019607844
5.6340523 48.128876 3.9555187 0.031372551
0.65833914 36.299694 -1.4806062 0.05882353
6.9270215 41.562847 -1.4727111 0.031372551
2.6533124 39.411236 -0.92057019 0.011764706
0.51678085 4.9993005 -2.3485742 0
4.8218665 40.164627 -1.1786005 0.019607844
0.52435625 8.4799833 -2.3799841 0.0039215689
1.3744246 12.00436 -2.4185345 0.0039215689
15.30248 89.330154 -1.0583802 0.082352944
1.0403879 15.540638 -2.4241614 0
2.2575779 19.217819 -2.4644144 0.0039215689
1.185263 53.185467 0.30664915 0.035294119
9.1012707 75.119545 -0.44283873 0.06666667
1.4552842 21.217903 -2.2918336 0.047058824
3.8985708 23.169643 -2.1946614 0.035294119
3.7819614 53.061939 1.2359518 0.031372551
11.956033 69.917915 0.82394212 0.043137256
2.2710509 32.379932 -2.2711461 0.023529412
3.4876404 29.264954 -2.4073405 0.023529412
9.2878075 76.645805 1.3448241 0.074509807
0.71509665 33.650772 -2.1584971 0.019607844
6.0675263 35.752838 -2.1133363 0.015686275
3.3410456 47.032635 2.7447834 0.019607844
6.7673707 56.060497 2.2992606 0.05882353
2.5097735 35.647793 -1.6660033 0.054901961
4.2848167 35.776993 -1.8897583 0.015686275
3.6441283 51.188293 6.3001223 0.031372551
5.8197999 48.323299 3.9731095 0.031372551
0.77843827 36.285011 -1.480096 0.05882353
7.1286621 41.909649 -1.4858267 0.031372551
2.7915869 39.505596 -0.92297345 0.011764706
0.53423774 4.9971323 -2.3485708 0.0039215689
4.9910421 40.377293 -1.1853377 0.019607844
0.5545525 8.4854488 -2.3821359 0
1.4148592 11.98748 -2.4161727 0.0039215689
1.0955464 15.5484 -2.4259975 0
2.3231719 19.197678 -2.4628863 0.0039215689
1.3742371 53.300621 0.30736977 0.035294119
9.6004324 76.968079 -0.45392075 0.070588239
1.530872 21.232187 -2.2939637 0.047058824
3.9766774 23.139872 -2.1931584 0.035294119
3.9412222 52.70916 1.228098 0.031372551
12.195887 69.851784 0.82370919 0.043137256
2.3828614 32.355556 -2.2700088 0.039215688
3.6824811 29.987978 -2.4679 0.06666667
1.1800919 46.268677 1.3451107 0.043137256
5.8303618 47.042786 0.82638484 0.031372551
0.83213151 33.631775 -2.1574523 0.019607844
6.215147 35.860886 -2.1209941 0.015686275
3.8580208 51.627048 3.013571 0.035294119
6.2262664 50.18729 2.0594659 0.050980393
2.635735 35.658398 -1.6669133 0.043137256
4.4186807 35.832821 -1.8935082 0.015686275
3.4623907 46.468109 5.7208591 0.019607844
6.1110287 49.275398 4.0531454 0.031372551
0.9044475 36.257767 -1.4790952 0.05882353
7.3421335 42.266064 -1.4993596 0.031372551
2.9438426 39.682682 -0.92733496 0.011764706
0.54941404 4.984231 -2.3434958 0.0039215689
5.1669488 40.685364 -1.1948739 0.019607844
0.58207583 8.4755678 -2.3799736 0
1.4551059 11.986298 -2.4169502 0.0039215689
4.1011763 23.394655 -0.2764093 0.0039215689
1.1458377 15.528605 -2.4235277 0
2.3842704 19.169878 -2.4603484 0.0039215689
9.8268366 76.713364 -0.45255962 0.070588239
1.5999974 21.210823 -2.2922368 0.047058824
4.0568981 23.145844 -2.195004 0.027450981
3.924799 50.303757 1.1724566 0.027450981
12.493093 70.176773 0.82806456 0.043137256
2.4898107 32.343185 -2.2697103 0.039215688
3.7829149 29.9832 -2.4685335 0.054901961
1.5452538 53.118038 1.5441848 0.05882353
9.2531738 72.280632 1.2694947 0.070588239
0.94351524 33.624523 -2.1571767 0.019607844
6.3488216 35.922298 -2.1258597 0.015686275
4.0985236 52.481411 3.0642407 0.035294119
6.2357602 48.953163 2.0097408 0.043137256
2.7568166 35.684994 -1.6685697 0.043137256
4.548738 35.904804 -1.898097 0.015686275
3.5920887 46.151321 5.6833711 0.019607844
6.154717 48.329357 3.977072 0.031372551
1.024537 36.250259 -1.4789113 0.078431375
3.0938799 39.903576 -0.93272406 0.015686275
0.56816655 4.9854264 -2.3451831 0
5.3455882 40.887745 -1.2013757 0.019607844
0.61250436 8.4653492 -2.3778112 0
1.4990394 11.980533 -2.4169421 0.0039215689
1.2011101 15.504258 -2.4204416 0
2.4581931 19.18819 -2.4638727 0.0039215689
12.274441 92.956673 -0.54889786 0.15686275
1.6767474 21.192575 -2.2909367 0.047058824
4.1481776 23.165724 -2.1983361 0.027450981
6.2447271 75.828659 1.7671806 0.047058824
12.850415 70.677017 0.83455813 0.043137256
2.607357 32.321568 -2.2688515 0.039215688
3.8933256 29.972733 -2.4688392 0.06666667
1.6797295 51.369434 1.4936143 0.05882353
9.5607901 72.566994 1.275179 0.070588239
1.0659379 33.59655 -2.1556182 0.019607844
6.5113974 36.067337 -2.1358433 0.015686275
4.0589671 49.69207 2.9023664 0.023529412
6.1352305 46.825924 1.923432 0.043137256
4.6982403 36.022171 -1.9051986 0.015686275
3.8624449 47.348148 5.8324895 0.019607844
6.3255196 48.258694 3.9732015 0.031372551
1.157411 36.245911 -1.4788882 0.05882353
4.1940475 23.41753 -0.83110899 0.12156863
3.2504621 40.01516 -0.9355908 0.015686275
0.58508122 4.9794874 -2.3434894 0.0039215689
0.23994774 8.8220158 -0.15331028 0
5.5315804 41.185425 -1.2106767 0.019607844
0.64205641 8.4628258 -2.3778059 0
1.5403244 11.971007 -2.4161499 0.0039215689
4.271431 23.379753 -0.27656513 0.11372549
1.2562571 15.511449 -2.4222777 0
2.5197892 19.139851 -2.4588075 0.0039215689
1.7486449 21.162491 -2.288352 0.031372551
4.2231674 23.11945 -2.1953452 0.027450981
6.4951401 75.642723 1.7634232 0.047058824
13.056647 70.415154 0.83205354 0.043137256
2.7225904 32.33976 -2.2707863 0.039215688
3.9936094 29.927025 -2.4662147 0.06666667
1.8964375 52.345795 1.5221982 0.05882353
6.6556029 49.415142 0.86926895 0.031372551
1.1816871 33.552402 -2.1530368 0.019607844
6.6577883 36.153969 -2.1423368 0.015686275
4.1090055 48.261028 2.8196995 0.019607844
6.2640195 46.550457 1.9130552 0.043137256
2.3159161 27.674664 -1.2944509 0.10980392
4.8450422 36.159569 -1.9133488 0.015686275
4.0442324 47.523891 5.8559055 0.019607844
7.5607734 56.045269 4.6162186 0.047058824
1.2831657 36.221344 -1.4780504 0.039215688
4.272831 23.386692 -0.83053452 0.25490198
3.3928976 40.035099 -0.93631232 0.015686275
0.60347563 4.9842615 -2.3468676 0.0039215689
5.7069707 41.391224 -1.2172958 0.019607844
0.67160338 8.4601994 -2.3778007 0
1.5826575 11.969108 -2.4169269 0.0039215689
4.3500357 23.348646 -0.2763629 0.082352944
1.3079078 15.479083 -2.4179616 0
2.5838425 19.110954 -2.4562688 0.0039215689
1.8128217 21.048979 -2.2767651 0.031372551
4.3113074 23.143354 -2.1990497 0.027450981
4.5002322 50.700165 1.1828524 0.027450981
14.926499 78.898987 0.9327848 0.062745102
2.8354771 32.329723 -2.2707663 0.011764706
4.0930843 29.877035 -2.4632642 0.054901961
6.8103061 49.264526 0.8670736 0.031372551
1.2998115 33.571667 -2.1545532 0.019607844
4.0752282 46.014988 2.68941 0.019607844
6.4425812 46.642754 1.9178003 0.043137256
2.4049425 27.58251 -1.2905195 0.062745102
4.9912152 36.284512 -1.9208702 0.015686275
4.1373668 46.706478 5.7570291 0.019607844
6.8764567 49.74062 4.0991292 0.047058824
1.4097772 36.220303 -1.4781913 0.039215688
4.3514619 23.355595 -0.82996023 0.10588235
0.62036335 4.9782019 -2.3451736 0
7.2859268 163.81033 -2.8726618 0.24705882
5.8997936 41.707111 -1.2271788 0.019607844
0.70186388 8.4651403 -2.3799524 0
1.624997 11.967059 -2.4177039 0.0039215689
4.4292402 23.321203 -0.27620739 0.082352944
1.3612027 15.46622 -2.4167216 0
2.6516786 19.109339 -2.457267 0.0039215689
1.8743643 20.915489 -2.2630355 0.031372551
4.4042192 23.190386 -2.2049859 0.0078431377
6.9983702 75.332092 1.7573931 0.047058824
15.092146 78.280647 0.92615753 0.043137256
2.5101652 27.667313 -1.9437085 0.031372551
4.1809139 29.747793 -2.4538009 0.039215688
2.1351781 49.518642 1.4405471 0.090196081
8.0412245 56.607269 0.99661142 0.043137256
1.4164678 33.55463 -2.153764 0.019607844
4.8516817 52.540108 3.0715744 0.035294119
6.5917273 46.524693 1.9139276 0.043137256
2.4974775 27.533833 -1.2886385 0.15294118
5.1445732 36.452362 -1.9306965 0.015686275
4.3037453 46.72699 5.7614431 0.019607844
7.0874958 49.976429 4.1206264 0.047058824
1.5365778 36.222805 -1.4784955 0.05882353
4.4322147 23.336004 -0.8298052 0.13333334
0.63740051 4.9793878 -2.3468614 0.0039215689
7.8386636 163.98471 -2.8760715 0.24705882
6.0776243 41.955997 -1.2350808 0.019607844
0.72955912 8.4586163 -2.3788688 0
1.6618165 11.941885 -2.4137733 0.0039215689
4.5080919 23.313919 -0.27628645 0.10196079
1.4117126 15.453438 -2.4154823 0
2.7080953 19.053015 -2.4511919 0.0039215689
1.9433193 20.904884 -2.2625945 0.039215688
4.5397301 23.472288 -2.2332406 0.035294119
4.8172774 50.381145 1.1762326 0.027450981
15.013784 76.519012 0.90598345 0.043137256
2.5825212 27.459955 -1.9297284 0.031372551
4.2737217 29.694008 -2.450526 0.039215688
2.2995429 49.514965 1.4406918 0.090196081
7.1186919 49.034367 0.8639338 0.031372551
1.527909 33.553417 -2.1540008 0.019607844
7.1488719 36.685814 -2.1781089 0.015686275
4.4131417 46.239891 2.7043333 0.019607844
6.9280348 47.739906 1.9648533 0.043137256
2.5906973 27.544968 -1.2895541 0.15686275
5.2886677 36.592865 -1.9390568 0.015686275
