# .PCD v0.7 - Point Cloud Data file format
VERSION 0.7
FIELDS x y z intensity
SIZE 4 4 4 4
TYPE F F F F
COUNT 1 1 1 1
WIDTH 1110
HEIGHT 1
VIEWPOINT 0 0 0 1 0 0 0
POINTS 1110
DATA ascii
-65.097069 26.135235 -0.022470273 0.12156863
-44.293125 22.947012 -0.59211987 0.023529412
-11.645194 4.5468512 -1.8888191 0.015686275
-71.38401 24.713812 0.41318613 0.062745102
-17.301807 6.8314009 -1.9671091 0.0039215689
-19.312931 9.8914957 -1.9972007 0.0078431377
-67.774391 35.21917 0.85866189 0.043137256
-25.638607 10.198445 -1.9099238 0.0039215689
-28.035656 9.6239958 -1.8822849 0.0078431377
-30.160742 15.560814 -1.9652864 0.015686275
-77.407707 31.108414 4.8098025 0.078431375
-9.8191643 3.8101501 1.2509983 0.098039217
-41.96262 21.728809 -1.6525334 0.031372551
-53.629105 21.503265 -1.3537128 0.035294119
-4.7103996 2.0154555 -2.2226346 0.0078431377
-57.627106 20.149036 -1.07742 0.16862746
-6.9990807 2.697269 -1.997438 0.054901961
-8.9294634 3.9822505 -1.8840785 0.050980393
-65.009155 26.362467 -0.022528427 0.12156863
-9.9129534 3.8860576 -1.5996866 0.011764706
-14.927062 6.7779927 -2.0434773 0.0039215689
-70.191818 24.572338 0.40676877 0.062745102
-17.270489 6.8874092 -1.9662639 0.0039215689
-19.274761 9.9556513 -1.9968414 0.0078431377
-67.651039 35.454174 0.85861105 0.043137256
-10.089327 3.9582245 -0.73153955 0
-22.35276 10.239494 -1.9831489 0.0078431377
-27.907761 9.6873226 -1.8758756 0.0078431377
-30.321724 15.778229 -1.9795983 0.015686275
-67.725876 27.47179 4.2118292 0.047058824
-35.655785 14.387575 -1.7842174 0.0078431377
-9.7874241 3.8355603 1.2485605 0.10980392
-41.88652 21.873804 -1.6525648 0.031372551
-53.520393 21.675392 -1.3529074 0.035294119
-4.6967726 2.0274637 -2.219254 0.0078431377
-57.145725 20.202555 -1.0696923 0.16862746
-6.9718137 2.7130117 -1.9920444 0.062745102
-8.9332504 4.0204043 -1.8880159 0.047058824
-64.961121 26.606174 -0.022604078 0.12156863
-14.914082 6.8337874 -2.0450094 0.0039215689
-69.777779 24.699175 0.40481856 0.062745102
-64.382996 30.104631 -0.43478715 0.062745102
-19.197689 9.9991055 -1.9923741 0.0078431377
-22.316879 10.316121 -1.9831668 0.0078431377
-27.779753 9.7498808 -1.8694661 0.0078431377
-30.238253 15.867643 -1.9777467 0.015686275
-66.695442 27.321795 4.1533437 0.047058824
-66.87442 31.277403 2.9687464 0.1254902
-34.201015 15.906495 -1.9684674 0.019607844
-9.7629642 3.8638232 1.2470948 0.094117649
-65.883644 30.812016 5.8846021 0.070588239
-41.456921 21.830921 -1.6384659 0.031372551
-9.8599939 3.9034328 -0.23694624 0
-4.6798396 2.0378473 -2.2141817 0.0078431377
-56.973255 20.36401 -1.0678172 0.16862746
-45.251953 21.296635 -1.4604477 0.023529412
-6.9409609 2.7271178 -1.9855709 0.062745102
-8.9333324 4.0569534 -1.8911672 0.043137256
-9.6958351 3.8735459 -1.5676442 0.082352944
-14.882961 6.8810654 -2.0440073 0.0039215689
-69.152931 24.747572 0.40165582 0.062745102
-64.338943 30.357008 -0.43526232 0.062745102
-19.246904 10.109874 -2.0013514 0.0078431377
-9.7851505 3.9109235 -0.71050793 0.12941177
-22.255518 10.380656 -1.9808947 0.0078431377
-71.86808 25.725159 2.1867335 0.11372549
-27.839449 9.8792458 -1.8759264 0.0078431377
-30.182674 15.971762 -1.9777689 0.015686275
-125.83452 59.548878 5.6053286 0.24705882
-34.199406 16.050138 -1.9716595 0.019607844
-9.7604141 3.9011152 1.2485443 0.074509807
-65.754097 31.03021 5.882607 0.070588239
-39.312706 14.008241 -1.6962242 0.035294119
-44.502071 23.647415 -1.7636905 0.043137256
-4.6792321 2.0559635 -2.2175689 0.0078431377
-56.443306 20.394588 -1.0591594 0.10196079
-6.9207439 2.7455153 -1.9823369 0.070588239
-8.9332619 4.0935483 -1.8943185 0.047058824
-9.6385298 3.887656 -1.5602542 0.098039217
-14.840957 6.9230647 -2.0414853 0.0039215689
-68.675209 24.845224 0.39933935 0.062745102
-64.373276 30.647444 -0.43628541 0.062745102
-9.6558027 3.8950322 -1.0817847 0.06666667
-19.211496 10.175653 -2.0013652 0.0078431377
-9.6684399 3.9004357 -0.70265788 0.12156863
-22.276674 10.484489 -1.986146 0.0078431377
-27.804792 9.9750185 -1.8759515 0.0078431377
-30.074049 16.047199 -1.9742773 0.015686275
-9.681098 3.9058127 -0.46818027 0.16078432
-34.197212 16.193956 -1.974852 0.019607844
-9.6735344 3.903055 1.238819 0.18039216
-65.728096 31.297796 5.8900013 0.070588239
-44.531796 23.862089 -1.7682451 0.043137256
-9.6812716 3.906667 2.7036688 0
-9.659235 3.8966837 -0.23251264 0.12941177
-4.6662178 2.0663002 -2.2141881 0.0078431377
-56.13118 20.479599 -1.0544935 0.10196079
-44.674042 21.383398 -1.4462336 0.10196079
-6.9120803 2.7660422 -1.9823419 0.070588239
-8.9238853 4.1220965 -1.8951108 0.035294119
-9.6532001 3.9285176 0.0015976713 0.26666668
-9.6153479 3.9120891 -1.5584117 0.12941177
-14.826276 6.9719067 -2.0425096 0.0039215689
-68.330231 24.961729 0.39774504 0.05882353
-64.417137 30.916166 -0.43730327 0.062745102
-9.6215458 3.9148335 -1.0792118 0.10196079
-19.154945 10.221428 -1.9987633 0.0078431377
-9.6470766 3.9259789 0.23572062 0.2
-9.6377649 3.9218023 -0.70126176 0.15294118
-22.236441 10.549759 -1.9855076 0.0078431377
-78.63533 28.74819 2.3988347 0.24705882
-124.75341 60.048878 2.3586221 0.10980392
-27.866982 10.095537 -1.8824095 0.0078431377
-30.009449 16.132765 -1.9733597 0.015686275
-9.6376886 3.922086 0.58694828 0.22745098
-124.93292 60.136288 5.5825758 0.24705882
-9.6319885 3.9194114 -0.46630993 0.20392157
-34.03825 16.248014 -1.9685459 0.019607844
-9.657568 3.9306726 1.238326 0.12941177
-65.701241 31.537611 5.89643 0.070588239
-39.781654 14.472851 -1.7209538 0.035294119
-44.477661 24.012154 -1.7691221 0.043137256
-9.6248522 3.9164433 -0.23195173 0.17254902
-4.6423173 2.0740469 -2.2057316 0.0078431377
-55.842052 20.604391 -1.0504773 0.10196079
-44.516289 21.50705 -1.4436737 0.17647059
-6.8877301 2.7838898 -1.9780283 0.070588239
-8.9157639 4.1568084 -1.89669 0.035294119
-9.6277056 3.9577417 0.0015942655 0.33333334
-9.5936766 3.9427884 -1.5571868 0.11372549
-14.829153 7.0387006 -2.0465753 0.0039215689
-67.649612 24.991877 0.39427948 0.05882353
-64.432838 31.213734 -0.43825394 0.062745102
-9.5961647 3.9439709 -1.0779301 0.11764706
-19.092916 10.276741 -1.9961634 0.0078431377
-9.6105661 3.9504595 0.23516382 0.17254902
-9.5939817 3.9431291 -0.69902486 0.16078432
-22.204788 10.633276 -1.9861799 0.0078431377
-78.413246 28.991632 2.3952019 0.24705882
-27.863466 10.208714 -1.8847524 0.0078431377
-29.915121 16.222019 -1.9710399 0.015686275
-9.5865402 3.9402554 0.58463073 0.21960784
-123.99313 60.242168 5.5502405 0.24705882
-9.5881748 3.9406991 -0.46481615 0.21960784
-33.978466 16.371256 -1.968574 0.019607844
-9.6102495 3.9505672 1.233945 0.12156863
-39.728336 14.617157 -1.7209915 0.035294119
-44.589062 24.283318 -1.7772107 0.043137256
-9.6473598 3.9668176 2.701586 0.15294118
-9.5920534 3.9424169 -0.23148657 0.18431373
-4.641551 2.0921001 -2.2091191 0.0078431377
-55.66869 20.759892 -1.0485996 0.10196079
-44.419422 21.650391 -1.4430004 0.17647059
-6.8815022 2.8081064 -1.9791137 0.082352944
-8.9187956 4.19522 -1.9006275 0.027450981
-9.5954714 3.982048 0.0015945993 0.33333334
-44.654217 24.520918 -0.6051873 0.035294119
-9.5798512 3.974915 -1.5571947 0.12941177
-14.786685 7.0803318 -2.0440528 0.0039215689
-67.25116 25.109812 0.39242104 0.05882353
-64.44912 31.498894 -0.43917695 0.062745102
-9.5786848 3.9745278 -1.0775079 0.10196079
-19.11615 10.374792 -2.0025263 0.0078431377
-9.5857058 3.9778821 0.23488174 0.18431373
-9.5764942 3.9736726 -0.69875205 0.14117648
-22.17111 10.711143 -1.9865243 0.0078431377
-78.277885 29.251181 2.3940983 0.24705882
-27.887447 10.327028 -1.888896 0.0078431377
-29.893236 16.344353 -1.9734039 0.015686275
-9.5690613 3.9707704 0.58439189 0.21176471
-123.92915 60.74559 5.5567503 0.24705882
-9.5780268 3.9743915 -0.46501175 0.20392157
-44.53508 21.707001 -2.5934303 0.039215688
-9.5745354 3.973294 1.231022 0.16078432
-39.489994 14.684159 -1.7128062 0.035294119
-38.419422 21.067198 -1.5313586 0.031372551
-9.5908966 3.9807222 2.6891739 0.098039217
-9.5745611 3.9729495 -0.23139971 0.16862746
-4.630969 2.1053421 -2.2074306 0.0078431377
-55.573444 20.944235 -1.0482211 0.10196079
-6.8822446 2.8353956 -1.9823588 0.098039217
-8.9322004 4.2389302 -1.9069231 0.035294119
-9.5705147 4.0093789 0.0015917341 0.33333334
-44.582317 24.683104 -0.60541236 0.035294119
-9.5659151 4.0069938 -1.5572025 0.12941177
-14.761875 7.1305666 -2.0440643 0.0039215689
-66.95369 25.263596 0.39114815 0.05882353
-64.510773 31.80765 -0.44042382 0.062745102
-9.5683956 4.0081925 -1.0779457 0.094117649
-19.08329 10.442061 -2.0029132 0.0078431377
-9.5644302 4.0067787 0.23469113 0.20392157
-76.192772 42.337303 0.97926319 0.062745102
-9.5662203 4.0073352 -0.69904047 0.17647059
-22.158579 10.799533 -1.9888314 0.0078431377
-27.784048 10.397481 -1.8842872 0.0078431377
-29.808111 16.431688 -1.9715513 0.015686275
-9.5405035 3.9964185 0.58346051 0.25882354
-9.5640936 4.0064626 -0.46501952 0.20392157
-34.010052 16.678169 -1.9772787 0.019607844
-9.5533304 4.0021739 1.2300426 0.13725491
-39.438492 14.82058 -1.7128415 0.035294119
-38.150196 21.090687 -1.5234724 0.031372551
-9.5663204 4.0081968 2.686065 0.086274512
-9.5642967 4.006608 -0.23150216 0.19215687
-4.604507 2.1096909 -2.1972816 0.0078431377
-55.470074 21.114256 -1.0476255 0.10196079
-44.417629 22.022963 -1.4479074 0.023529412
-6.8622255 2.8522749 -1.9791243 0.15294118
-8.942646 4.2795372 -1.9124322 0.039215688
-9.5571651 4.0398216 0.0015843939 0.33333334
-9.5742731 4.0469813 -1.560909 0.15294118
-14.773632 7.1959577 -2.0491424 0.0039215689
-66.708931 25.422649 0.39016044 0.05882353
-64.530144 32.082756 -0.44134405 0.062745102
-9.5586872 4.0402327 -1.0783831 0.10196079
-19.097141 10.531363 -2.0081549 0.0078431377
-9.5547495 4.0388136 0.23477519 0.21176471
-9.5638313 4.0425892 -0.69988972 0.18039216
-22.108381 10.864552 -1.9875392 0.0078431377
-150.31149 74.988258 2.8612061 0.10980392
-27.741957 10.485433 -1.8837956 0.0078431377
-29.788248 16.548761 -1.9739141 0.015686275
-9.5418148 4.0332007 0.58437681 0.21176471
-9.5580645 4.0401058 -0.46540236 0.20392157
-33.872387 16.748493 -1.9724501 0.019607844
-9.5472727 4.0357599 1.2310069 0.12941177
-39.631691 15.04299 -1.7235624 0.035294119
-37.804832 21.060917 -1.5123341 0.031372551
-9.5529785 4.0386229 2.6860578 0.074509807
-9.554616 4.0386429 -0.23160419 0.18039216
-4.5773253 2.1153507 -2.1871331 0.0078431377
-55.35503 21.301554 -1.0469632 0.10196079
-44.390152 22.211226 -1.4497141 0.023529412
-6.8517227 2.8760016 -1.97913 0.1254902
-8.926898 4.3108792 -1.9124391 0.050980393
-9.5532589 4.0782924 0.0015713964 0.33333334
-44.648918 25.127302 -0.6088075 0.10980392
-9.5810394 4.0902767 -1.5646164 0.13725491
-14.73653 7.2432876 -2.0476339 0.0039215689
-66.503418 25.622196 0.38944873 0.05882353
-64.572815 32.398746 -0.44251844 0.062745102
-9.5656157 4.0835309 -1.0809712 0.10980392
-19.082657 10.613642 -2.0107834 0.0078431377
-9.5544977 4.0788999 0.23513278 0.2
-9.5635328 4.082695 -0.70102048 0.20392157
-22.118235 10.96925 -1.9921367 0.0078431377
-6.7775207 2.4768958 0.20251711 0
-3.8042161 1.3245561 -0.23087537 0
-29.727392 16.65642 -1.9739362 0.015686275
-9.5196733 4.0634909 0.58390701 0.25882354
-9.5541439 4.0785747 -0.46597373 0.23137255
-33.885658 16.908918 -1.976909 0.019607844
-9.5396738 4.0725436 1.2319705 0.14509805
-39.706722 15.237277 -1.7293543 0.035294119
-37.490993 21.06373 -1.5027524 0.031372551
-9.534585 4.0706272 2.6850159 0.082352944
-9.5434036 4.0738521 -0.23170696 0.20392157
-4.5406156 2.1183951 -2.175292 0.0078431377
-55.1698 21.451298 -1.0450104 0.10196079
-44.455761 22.439943 -1.4547045 0.023529412
-6.8209176 2.8921299 -1.9748154 0.05882353
-8.9296246 4.3529615 -1.917948 0.047058824
-9.5359735 4.1117306 0.0015627174 0.33333334
-44.683201 25.354219 -0.6106239 0.035294119
-9.6033258 4.1415992 -1.5720218 0.11764706
-14.697511 7.2894483 -2.0466309 0.0039215689
-66.332909 25.822243 0.38895938 0.05882353
-64.585205 32.68837 -0.44348833 0.062745102
-9.5736837 4.1284056 -1.0844185 0.10196079
-18.990604 10.650766 -2.0055671 0.0078431377
-9.562746 4.1238079 0.23585698 0.25882354
-96.981506 55.283478 1.2534716 0.062745102
-9.5789824 4.1308742 -0.70383418 0.17647059
-22.066216 11.040976 -1.9914982 0.0078431377
-117.84239 59.802979 2.2508175 0.10980392
-27.756363 10.718187 -1.8905377 0.0078431377
-29.732021 16.797791 -1.9786412 0.015686275
-9.517005 4.1033521 0.58505452 0.21960784
-124.6094 63.248905 5.6263056 0.24705882
-9.5696583 4.1267447 -0.46785849 0.20784314
-33.980255 17.106592 -1.9864299 0.019607844
-9.5296278 4.1091743 1.2334212 0.13725491
-39.587353 15.350292 -1.7267567 0.035294119
-37.331173 21.146673 -1.4995269 0.031372551
-9.52073 4.1055255 2.6870761 0.074509807
-9.5626106 4.1236362 -0.23275566 0.21960784
-4.5142136 2.1222639 -2.165143 0.0039215689
-55.001656 21.594654 -1.0431997 0.10196079
-6.786727 2.9023612 -1.9672613 0.05882353
-8.9325838 4.3902559 -1.921885 0.047058824
-9.5514326 4.1552854 0.0015422944 0.33333334
-54.515289 31.219603 -0.7488662 0.047058824
-9.6435375 4.1966352 -1.5812773 0.043137256
-14.645016 7.3224063 -2.0425875 0.0039215689
-66.191124 26.018764 0.38857925 0.05882353
-64.636581 32.983315 -0.44465747 0.062745102
-9.6106529 4.1818547 -1.0904461 0.078431375
-19.010374 10.744266 -2.0115552 0.0078431377
-9.5745153 4.1657977 0.23648956 0.26666668
-96.676376 55.533592 1.2518376 0.062745102
-9.6197472 4.1860652 -0.70805156 0.14901961
-22.008198 11.101921 -1.9895512 0.0078431377
-68.708176 27.014315 2.1145575 0.10980392
-27.72809 10.81186 -1.8910757 0.0078431377
-29.631184 16.869116 -1.9756153 0.015686275
-9.5542698 4.1567092 0.58828002 0.41568628
-9.6068726 4.1802883 -0.47049457 0.18039216
-33.802513 17.155916 -1.9792792 0.019607844
-9.5340309 4.1476941 1.2358429 0.17647059
-37.236595 21.255123 -1.4985622 0.031372551
-9.5211439 4.1422009 2.6912036 0.094117649
-9.5998783 4.177176 -0.23408875 0.21568628
-4.4903088 2.1290827 -2.1566863 0.0078431377
-54.807011 21.748718 -1.0410364 0.10196079
-44.40453 22.802294 -1.4583137 0.12941177
-6.7795434 2.927439 -1.9683466 0.074509807
-8.9373264 4.4324083 -1.9266087 0.035294119
-9.6016121 4.2188344 0.001504567 0.21960784
-56.3125 32.5298 -0.77561301 0.047058824
-14.632168 7.3819528 -2.0446258 0.0039215689
-66.06189 26.246454 0.38832355 0.05882353
-64.703499 33.316113 -0.44603094 0.062745102
-18.926111 10.786466 -2.0067136 0.0078431377
-9.6246405 4.2294245 0.23812677 0.12156863
-21.988596 11.192132 -1.9915314 0.0078431377
-68.7201 27.309092 2.1179368 0.10980392
-145.10829 74.961449 2.7816629 0.10980392
-27.703098 10.91796 -1.8921307 0.0078431377
-29.77281 17.094666 -1.9894596 0.015686275
-9.5861788 4.2119131 0.5912739 0.26666668
-33.70039 17.25811 -1.9769846 0.019607844
-9.5476503 4.1944418 1.2397219 0.10196079
-39.353039 15.573242 -1.7212352 0.035294119
-37.06514 21.335821 -1.4947735 0.031372551
-9.5445538 4.1933703 2.7025664 0.074509807
-4.4667816 2.1350408 -2.1482291 0.0078431377
-54.645451 21.904152 -1.0394412 0.10196079
-44.416801 23.003977 -1.4614167 0.12941177
-6.7797704 2.9546151 -1.9715916 0.054901961
-8.9669876 4.4858699 -1.9368349 0.047058824
-56.160645 32.702602 -0.77512062 0.047058824
-14.623891 7.440855 -2.0471704 0.0039215689
-65.951317 26.468096 0.38815776 0.05882353
-18.926132 10.873306 -2.0108349 0.0078431377
-21.952925 11.269351 -1.9918749 0.0078431377
-27.635202 11.001331 -1.8900952 0.0078431377
-29.681948 17.178997 -1.9873713 0.015686275
-145.40442 75.758881 6.6023264 0.24705882
-33.625774 17.36693 -1.9761659 0.019607844
-39.391087 15.7466 -1.7253805 0.035294119
-36.838699 21.374802 -1.4885806 0.031372551
-4.4440117 2.1394408 -2.1397719 0.0078431377
-54.557842 22.066994 -1.0391269 0.10196079
-44.418606 23.181324 -1.463926 0.12941177
-6.7460089 2.9633412 -1.9640369 0.054901961
-8.9493771 4.5110087 -1.9360545 0.043137256
-55.682217 32.656017 -0.76989067 0.047058824
-12.244138 5.5226269 -2.036314 0
-14.586397 7.4781871 -2.0451531 0.0039215689
-65.85672 26.669445 0.38804123 0.05882353
-44.882824 23.425926 -0.30798891 0.039215688
-16.878822 7.6800256 -1.962588 0.0039215689
-18.867867 10.917354 -2.0082319 0.0078431377
-25.28676 11.593812 -1.9270773 0.0039215689
-21.920935 11.338936 -1.9922167 0.0078431377
-27.607893 11.089925 -1.8906316 0.0078431377
-29.665651 17.293318 -1.9899668 0.015686275
-144.62813 75.931137 6.5777359 0.24705882
-35.626427 16.406809 -1.8216172 0.0078431377
-44.394211 23.168234 -2.6223974 0.039215688
-36.705959 21.450632 -1.4859179 0.031372551
-52.270401 24.154457 -1.3500156 0.035294119
-4.4205046 2.1451309 -2.1313148 0.0078431377
-54.476788 22.254471 -1.0391027 0.10196079
-44.425701 23.381788 -1.4669105 0.12941177
-6.73562 2.9855576 -1.9640422 0.05882353
-8.9543571 4.55194 -1.9407778 0.050980393
-64.886238 30.301689 -0.023938775 0.12156863
-55.385723 32.740452 -0.76736867 0.047058824
-12.214049 5.558979 -2.0344741 0
-14.556693 7.5258832 -2.044657 0.0039215689
-65.759529 26.896332 0.38796264 0.05882353
-44.804306 23.583019 -0.30804729 0.039215688
-16.869905 7.7460375 -1.9647515 0.0039215689
-18.853598 10.996094 -2.0108593 0.0078431377
-94.478607 56.009136 1.2330165 0.062745102
-25.220852 11.66882 -1.9251328 0.0039215689
-21.877697 11.412204 -1.9919058 0.0078431377
-137.45357 72.765968 2.6485374 0.10980392
-29.605103 17.395451 -1.9899869 0.015686275
-144.58107 76.550407 6.5876179 0.24705882
-35.612328 16.550138 -1.8238991 0.0078431377
-36.544975 21.526199 -1.4824094 0.031372551
-4.3870478 2.1462514 -2.1177821 0.0039215689
-44.417252 23.584597 -1.4695425 0.12941177
-6.7246299 3.0088439 -1.9640476 0.070588239
-8.9341555 4.5814962 -1.9399984 0.047058824
-64.890411 30.592754 -0.024046797 0.12156863
-55.419693 33.034462 -0.76958174 0.047058824
-12.197162 5.6040192 -2.0351007 0
-14.504527 7.5646915 -2.0411205 0.0039215689
-44.759888 23.768345 -0.3083815 0.039215688
-16.823433 7.797914 -1.9626153 0.0039215689
-18.864386 11.094477 -2.0164752 0.0078431377
-159.02023 75.232079 4.0181146 0.074509807
-25.199547 11.770055 -1.9268379 0.0039215689
-21.853292 11.50034 -1.9935583 0.0078431377
-137.56323 73.469902 2.6557174 0.10980392
-29.503481 17.479849 -1.9874305 0.015686275
-65.955132 31.098642 4.2021694 0.047058824
-144.26785 77.061394 6.5860543 0.24705882
-35.565872 16.686014 -1.8246803 0.0078431377
-36.37672 21.605124 -1.4787605 0.031372551
-7.2042875 3.6557798 1.4143913 0
-45.09024 21.202824 -1.1664422 0.18039216
-4.3635778 2.1516292 -2.1093249 0.0078431377
-44.433144 23.791395 -1.4728811 0.19607843
-6.7036586 3.0260003 -1.9608129 0.062745102
-8.925005 4.6150703 -1.9415772 0.035294119
-64.91671 30.881662 -0.024160374 0.12156863
-55.762604 33.503822 -0.77609193 0.047058824
-12.16326 5.6384273 -2.0326438 0
-14.474535 7.6120811 -2.0406244 0.0039215689
-44.747025 23.961153 -0.30891353 0.039215688
-16.799692 7.8569984 -1.9630585 0.0039215689
-18.828947 11.161013 -2.0168612 0.0078431377
-25.187094 11.870415 -1.9291034 0.0039215689
-21.805992 11.571455 -1.9929199 0.0078431377
-9.6637421 3.897505 0.29472089 0.21176471
-138.99153 74.858673 2.6882362 0.10980392
-9.6520653 3.8923721 -0.6430822 0.13725491
-29.442278 17.581425 -1.9874501 0.015686275
-65.730896 31.272221 4.1947284 0.047058824
-35.406487 16.760469 -1.8194504 0.0078431377
-7.2762265 3.7249699 -0.40858862 0
-9.6634569 3.8972118 -0.40872464 0.16862746
-36.253189 21.7017 -1.4768062 0.031372551
-44.806721 21.258673 -1.1609842 0.12941177
-4.3369384 2.1551344 -2.0991757 0.0039215689
-9.6230001 3.9183025 -0.17368327 0.23921569
-44.430592 23.989006 -1.4756292 0.15686275
-6.6930518 3.0480669 -1.9608181 0.070588239
-8.9157276 4.6486311 -1.9431556 0.027450981
-65.017456 31.207617 -0.02430892 0.12156863
-54.569595 33.041054 -0.76091194 0.047058824
-12.161297 5.6881256 -2.0357361 0
-14.458328 7.6669359 -2.042155 0.0039215689
-9.62432 3.9189191 0.059982989 0.26274511
-44.82822 24.205786 -0.31011924 0.039215688
-16.779327 7.9177332 -1.9639318 0.0039215689
-18.789873 11.225351 -2.0168736 0.0078431377
-124.67231 60.009789 3.1597044 0.074509807
-25.141911 11.955209 -1.9288425 0.0039215689
-21.80748 11.669061 -1.9968618 0.0078431377
-9.6243105 3.9189725 0.29390982 0.30588236
-9.6200418 3.916934 -0.64180285 0.15294118
-29.404594 17.697321 -1.9891096 0.015686275
-124.83865 60.091202 7.9966846 0.078431375
-113.42783 61.564133 5.1950541 0.24705882
-35.272198 16.846155 -1.8155347 0.0078431377
-9.6203566 3.9171243 -0.40741694 0.2
-36.207935 21.845518 -1.4781023 0.031372551
-44.613403 21.356249 -1.1578938 0.17647059
-4.3103218 2.1584809 -2.0890262 0.0039215689
-9.587203 3.941112 -0.17326251 0.40392157
-44.44471 24.19652 -1.4789675 0.19607843
-6.6789045 3.0684111 -1.959743 0.074509807
-8.8856916 4.6708608 -1.9400173 0.023529412
-65.066338 31.510138 -0.024433978 0.1254902
-56.617828 34.559769 -0.79162568 0.047058824
-12.134257 5.7257676 -2.0345125 0
-14.434953 7.7179551 -2.0426724 0.0039215689
-9.5995502 3.9464533 0.059910249 0.28627452
-64.763428 35.353806 -0.45267764 0.062745102
-16.776608 7.9871321 -1.9669552 0.0039215689
-18.753963 11.291643 -2.0172594 0.0078431377
-124.46207 60.443298 3.1596057 0.074509807
-25.132305 12.05731 -1.9313885 0.0039215689
-21.763117 11.741881 -1.9965502 0.0078431377
-9.6105719 3.9512279 0.29390192 0.40000001
-135.75916 74.338425 2.635462 0.10980392
-9.5953007 3.9444635 -0.64103842 0.15686275
-29.403877 17.836172 -1.9933466 0.015686275
-123.55471 60.002396 7.9275517 0.078431375
-35.288612 17.004608 -1.8195062 0.0078431377
-33.660542 18.274796 -2.0005836 0.019607844
-6.3306861 2.8994195 0.81604022 0
-9.5956001 3.944649 -0.40693143 0.1882353
-36.090584 21.945347 -1.4764299 0.031372551
-44.473873 21.479015 -1.1562238 0.19607843
-4.2967944 2.1680052 -2.085645 0.0078431377
-9.5704079 3.970048 -0.17319851 0.41176471
-44.437691 24.383179 -1.4814776 0.15686275
-6.6652331 3.0875967 -1.9586679 0.062745102
-8.8838768 4.7066483 -1.9431677 0.011764706
-65.097923 31.791502 -0.024546307 0.1254902
-54.62569 33.583916 -0.76499212 0.047058824
-12.104559 5.7594995 -2.0326715 0
-14.405803 7.7626104 -2.0421751 0.0039215689
-9.5790644 3.9738431 0.059859581 0.28235295
-64.792809 35.648472 -0.45377061 0.06666667
-16.73218 8.0327082 -1.9648172 0.0039215689
-18.719799 11.35462 -2.0176444 0.0078431377
-25.113672 12.149894 -1.9330914 0.0039215689
-21.741495 11.822391 -1.998201 0.0078431377
-9.6010857 3.9834118 0.29400918 0.40784314
-9.5785007 3.9734294 -0.64078838 0.12941177
-29.259682 17.879784 -1.9875072 0.015686275
-123.04324 60.257359 7.907373 0.078431375
-112.52008 62.063194 5.1724982 0.24705882
-44.538429 21.691692 -2.3068748 0.015686275
-33.557816 18.36186 -1.9980737 0.019607844
-9.586134 3.9767835 -0.40710336 0.1882353
-35.966629 22.032101 -1.4743325 0.031372551
-44.420345 21.633947 -1.1567305 0.19607843
-4.2729917 2.173527 -2.0771878 0.0039215689
-9.5557928 4.0037146 -0.17320666 0.41960785
-6.6538696 3.1106246 -1.9586731 0.070588239
-8.8631392 4.7358856 -1.9423882 0
-65.092072 32.083572 -0.024651814 0.1254902
-55.004402 34.095947 -0.77218026 0.047058824
-12.104612 5.8129773 -2.0363805 0
-14.373788 7.8120427 -2.0416789 0.0039215689
-9.564436 4.0075412 0.059851415 0.28627452
-64.787468 35.954506 -0.45471832 0.06666667
-16.702625 8.092598 -1.9648306 0.0039215689
-18.688189 11.428099 -2.0187776 0.0078431377
-25.136894 12.274148 -1.938445 0.0039215689
-21.73979 11.92393 -2.0021434 0.0078431377
-9.5497751 4.0012012 0.29285377 0.28627452
-112.10141 62.366833 2.1841586 0.10980392
-9.5711889 4.0103183 -0.64131147 0.14901961
-29.278641 18.038382 -1.9933848 0.015686275
-111.1193 61.819206 5.1182799 0.24705882
-34.89698 17.113037 -1.8052881 0.0078431377
-33.424026 18.446354 -1.9940889 0.019607844
-9.5751572 4.0121064 -0.40727597 0.2
-35.841549 22.134872 -1.4725194 0.031372551
-31.168974 17.18927 6.4198508 0.011764706
-4.2590652 2.1863687 -2.0771899 0.0039215689
-9.5431299 4.0371695 -0.17335629 0.41568628
-44.490177 24.818619 -1.4893329 0.039215688
-6.643733 3.1347485 -1.9608371 0.070588239
-9.5380783 5.1560879 -2.1027691 0.0039215689
-65.147446 32.380657 -0.024776643 0.1254902
-56.097233 35.037903 -0.78950977 0.047058824
-12.075117 5.8498316 -2.0357718 0
-14.337773 7.8561826 -2.0411808 0.0039215689
-9.5481024 4.0394139 0.059866287 0.28627452
-64.829262 36.260639 -0.45595843 0.06666667
-16.676245 8.149909 -1.9657022 0.0039215689
-18.697641 11.522294 -2.0247643 0.0078431377
-148.12933 73.863403 3.7800879 0.074509807
-25.178806 12.400269 -1.94548 0.0039215689
-21.693647 11.994259 -2.0021567 0.0078431377
-9.5444384 4.037858 0.29330593 0.30588236
-111.9618 62.775726 2.1855159 0.10980392
-9.5657978 4.0470357 -0.64234817 0.2
-29.212317 18.133509 -1.9934016 0.015686275
-123.85009 61.727371 7.9870682 0.078431375
-112.47584 63.065517 5.1907072 0.24705882
-44.494019 22.055687 -2.312952 0.015686275
-33.237961 18.48855 -1.9869339 0.019607844
-9.5624619 4.0456233 -0.40761164 0.2
-35.677094 22.198402 -1.4690063 0.031372551
-44.548126 22.082989 -1.1643767 0.019607844
-4.2478662 2.1988223 -2.0755007 0.0039215689
-9.5392303 4.0756397 -0.17357871 0.41960785
-44.468456 25.019632 -1.4917278 0.039215688
-6.6321945 3.1577246 -1.9608423 0.062745102
-9.5259333 5.1935301 -2.1043482 0.0039215689
-65.167603 32.688141 -0.024895271 0.1254902
-46.195332 29.046923 -0.64975816 0.035294119
-12.060648 5.8962579 -2.0370145 0
-14.301974 7.9034133 -2.0401778 0.0039215689
-9.5368853 4.0746531 0.059879817 0.28627452
-64.831604 36.57365 -0.45698062 0.06666667
-16.653355 8.2132082 -1.9665757 0.0039215689
-18.63846 11.578737 -2.0229092 0.0078431377
-25.115366 12.482134 -1.9440967 0.0039215689
-21.656469 12.076276 -2.0028272 0.0078431377
-9.5441875 4.0779557 0.29375675 0.30980393
-9.5691357 4.0888228 -0.64364356 0.18039216
-29.206358 18.27759 -1.9976386 0.015686275
-123.55526 62.14537 7.9825802 0.078431375
-69.528694 39.239475 3.2109346 0.13333334
-44.587673 22.305452 -2.3221905 0.015686275
-33.354099 18.713377 -1.9981452 0.019607844
-9.5767822 4.0922794 -0.40893552 0.22745098
-35.527962 22.284866 -1.4662032 0.031372551
-44.470451 22.246574 -1.1645075 0.019607844
-4.2311077 2.2062747 -2.0704274 0.0078431377
-9.5548544 4.1191187 -0.17415765 0.29411766
-44.437305 25.195503 -1.4935288 0.039215688
-6.6216836 3.1784749 -1.9608469 0.06666667
-9.5188704 5.2297058 -2.1067128 0.0039215689
-65.212151 32.980816 -0.025015468 0.1254902
-12.037504 5.9332037 -2.0364065 0
-14.286018 7.9554801 -2.0417073 0.0039215689
-9.5452175 4.114851 0.060002163 0.39607844
-64.810654 36.844788 -0.45774829 0.06666667
-16.608305 8.2581482 -1.9644374 0.0039215689
-18.616741 11.649973 -2.0247879 0.0078431377
-25.073833 12.564127 -1.9441149 0.0039215689
-21.657833 12.170547 -2.0067675 0.0078431377
-9.548852 4.1165376 0.29432306 0.30588236
-124.27325 70.84491 2.4354315 0.10980392
-9.602869 4.1405444 -0.64699799 0.17254902
-29.192699 18.403202 -2.0009365 0.015686275
-123.48022 62.620518 7.9910321 0.078431375
-69.443306 39.494396 3.2129822 0.13333334
-44.48497 22.437475 -2.3207209 0.015686275
-33.291859 18.822657 -1.9981674 0.019607844
-9.6032705 4.1407809 -0.41075203 0.19607843
-35.413425 22.375519 -1.4645284 0.031372551
-9.5732079 4.1659989 -0.17480838 0.39607844
-50.885647 29.116926 -1.7163942 0.043137256
-6.6071181 3.1985197 -1.9597718 0.082352944
-9.500555 5.2616086 -2.1067193 0
-65.221199 33.270855 -0.025124505 0.1254902
-12.009683 5.9702859 -2.0351825 0
-14.275347 8.0139122 -2.0442512 0.0039215689
-9.5745211 4.1666493 0.06025371 0.28627452
-64.854927 37.169365 -0.45904255 0.06666667
-16.582914 8.3165932 -1.9648798 0.0039215689
-18.582657 11.717903 -2.0255466 0.0078431377
-147.20309 94.482025 1.961598 0.062745102
-25.033375 12.652102 -1.9444147 0.0039215689
-21.667025 12.274638 -2.0116901 0.0078431377
-9.599988 4.1782365 0.29638028 0.30588236
-131.31207 75.47728 2.5785205 0.10980392
-29.104776 18.488573 -1.9993149 0.015686275
-70.613914 40.489727 3.2738304 0.24705882
-35.088634 17.81097 -1.8284934 0.0078431377
-33.239792 18.945429 -1.9990348 0.019607844
-9.6652145 4.2076015 -0.41421378 0.031372551
-35.224167 22.426319 -1.4598861 0.031372551
-4.2061982 2.2277157 -2.0653567 0.023529412
-50.90815 29.365402 -1.7206808 0.043137256
-6.5924892 3.2185035 -1.9586966 0.082352944
-9.4821262 5.2934494 -2.1067257 0
-65.232559 33.563202 -0.025235055 0.1254902
-11.992276 6.0126963 -2.0358078 0
-14.261005 8.0703783 -2.0462883 0.0039215689
-64.859665 37.47261 -0.46006185 0.06666667
-16.578501 8.3859291 -1.9679027 0.0039215689
-18.538296 11.779241 -2.0251846 0.0078431377
-145.13026 74.908417 3.7293863 0.074509807
-24.992599 12.739951 -1.9447142 0.0039215689
-21.586126 12.326874 -2.008106 0.0078431377
-29.123821 18.643076 -2.0051911 0.015686275
-148.00813 76.398918 9.6161299 0.078431375
-69.23848 40.017796 3.2162683 0.13333334
-35.022697 17.930216 -1.8283319 0.0078431377
-33.176907 19.062059 -1.9992689 0.019607844
-35.162441 22.55872 -1.4606149 0.031372551
-44.416603 22.791393 -1.1693445 0.15686275
-4.20152 2.2429261 -2.0670514 0.027450981
-50.905384 29.600241 -1.7241408 0.043137256
-6.5880399 3.2437696 -1.9608612 0.078431375
-9.4635878 5.3252263 -2.1067321 0
-65.242661 33.856041 -0.025345424 0.1254902
-11.974716 6.0550599 -2.0364332 0
-14.215626 8.1087923 -2.0437639 0.0039215689
-64.873428 37.78241 -0.46115586 0.06666667
-16.545597 8.4406195 -1.967485 0.0039215689
-18.507063 11.849123 -2.0263166 0.0078431377
-67.632256 43.947388 0.90564966 0.062745102
-25.068243 12.888591 -1.9542774 0.0039215689
-21.58424 12.425037 -2.0120471 0.0078431377
-28.95159 18.673441 -1.9977108 0.015686275
-148.76012 77.44593 9.6825056 0.078431375
-68.291389 39.78524 3.1785235 0.13333334
-34.938641 18.03998 -1.8272314 0.0078431377
-33.134289 19.190596 -2.0007694 0.019607844
-69.764206 40.648628 6.5360012 0.16862746
-35.036629 22.649422 -1.4586576 0.031372551
-44.4254 22.991266 -1.1717469 0.18039216
-4.1905408 2.2544451 -2.065362 0.023529412
-53.358177 24.662596 -1.038758 0.10196079
-50.918804 29.845568 -1.728191 0.043137256
-6.5732651 3.2636607 -1.9597859 0.078431375
-9.4381838 5.3529482 -2.1051662 0
-65.279823 34.164242 -0.025469201 0.1254902
-35.524242 23.143682 -0.50287986 0.019607844
-11.950005 6.0936885 -2.0358255 0
-14.200899 8.1651411 -2.0458007 0.0039215689
-65.738876 30.425636 0.39483336 0.05882353
-64.878914 38.088669 -0.46219972 0.06666667
-16.537148 8.5081425 -1.9700776 0.0039215689
-18.472242 11.916739 -2.0270751 0.0078431377
-35.55125 23.161636 0.47747144 0.011764706
-24.998381 12.961713 -1.9523309 0.0039215689
-21.599094 12.533469 -2.0176241 0.0078431377
-27.410704 12.584906 -1.9182426 0.0078431377
-28.869556 18.762112 -1.9965571 0.015686275
-114.24732 59.939865 7.4453683 0.078431375
-68.358589 40.14399 3.1881423 0.13333334
-34.875454 18.160532 -1.8272575 0.0078431377
-33.166851 19.363739 -2.0069132 0.019607844
-69.549805 40.848011 6.5291548 0.16862746
-38.480667 17.737562 -1.724385 0.035294119
-34.873886 22.71533 -1.4551452 0.031372551
-44.433342 23.19146 -1.1741489 0.15686275
-4.182642 2.2677698 -2.0653646 0.027450981
-53.318821 24.86953 -1.0397302 0.10196079
-50.903633 30.07502 -1.7312963 0.043137256
-6.5448189 3.2762692 -1.9543909 0.082352944
-9.4329166 5.3925967 -2.1083169 0
-65.312088 34.471272 -0.025591137 0.1254902
-35.296581 23.168974 -0.50077486 0.019607844
-11.935639 6.137784 -2.0370674 0
-14.189353 8.2235212 -2.0483441 0.0039215689
-65.76622 30.71657 0.39557892 0.05882353
-64.869301 38.387287 -0.4631435 0.06666667
-16.521395 8.5719881 -1.9718099 0.0039215689
-18.533405 12.04811 -2.0386658 0.0078431377
-135.4545 71.704712 3.4993126 0.074509807
-35.303532 23.173756 0.47520989 0.011764706
-24.991751 13.06819 -1.9554375 0.0039215689
-21.555206 12.607504 -2.0176387 0.0078431377
-27.32325 12.658865 -1.9151747 0.0078431377
-28.843813 18.88798 -1.9993867 0.015686275
-148.13472 78.43692 9.6769733 0.078431375
-68.228355 40.38723 3.1885791 0.13333334
-34.811844 18.28088 -1.8272835 0.0078431377
-33.07159 19.461771 -2.0052469 0.019607844
-69.749382 41.293175 6.56148 0.16862746
-38.396805 17.860304 -1.7234288 0.035294119
-34.731087 22.793657 -1.4524806 0.031372551
-44.43335 23.388264 -1.1763613 0.15686275
-4.1809134 2.2847948 -2.0687511 0.027450981
-45.429131 21.355978 -0.88545692 0.054901961
-50.880627 30.300594 -1.7341651 0.043137256
-6.53334 3.2978046 -1.9543955 0.086274512
-9.4039431 5.4181476 -2.1059647 0
-65.35006 34.782696 -0.025716329 0.1254902
-11.914139 6.1781197 -2.037076 0
-14.157156 8.2696695 -2.0478466 0.0039215689
-65.828468 31.025177 0.3965404 0.05882353
-64.868683 38.692444 -0.46416196 0.06666667
-16.48085 8.6226864 -1.9705319 0.0039215689
-18.421701 12.064964 -2.0308325 0.0078431377
-137.0966 73.18927 3.5482655 0.074509807
-24.942459 13.152174 -1.955175 0.0039215689
-21.514482 12.683428 -2.0179803 0.0078431377
-27.343815 12.783646 -1.9198313 0.0078431377
-28.7777 18.987257 -1.9994041 0.015686275
-68.093811 40.627956 3.1888547 0.13333334
-34.747818 18.400993 -1.8273091 0.0078431377
-32.924667 19.528542 -2.0004144 0.019607844
-69.946724 41.740204 6.5938058 0.16862746
-38.478683 18.061401 -1.7300395 0.035294119
-34.687862 22.937899 -1.4540566 0.031372551
-44.4431 23.590998 -1.1788579 0.23529412
-4.1919227 2.3086693 -2.0789061 0.011764706
-45.073009 21.369017 -0.87984455 0.054901961
-50.879097 30.52791 -1.7376226 0.043137256
-6.5257545 3.3200555 -1.9554799 0.074509807
-9.4027033 5.458221 -2.1099014 0
-65.361084 35.066372 -0.025823599 0.1254902
-35.320541 23.52903 -0.50347495 0.062745102
-11.890104 6.2144923 -2.0364676 0
-14.119463 8.3091898 -2.0463352 0.0039215689
-65.873184 31.312805 0.39737517 0.062745102
-64.959084 39.03854 -0.46580273 0.06666667
-16.487158 8.6949482 -1.974844 0.0039215689
-18.417929 12.149226 -2.0349522 0.0078431377
-136.78276 73.604279 3.5463421 0.074509807
-35.271053 23.49588 0.47687042 0.05882353
-24.916262 13.243062 -1.9565959 0.0039215689
-21.465475 12.749353 -2.0173395 0.0078431377
-149.82236 71.445587 4.7574644 0.24705882
-27.391306 12.916064 -1.9262892 0.015686275
-28.880194 19.19286 -2.0111365 0.015686275
-112.08479 60.278748 7.3440051 0.078431375
-67.955292 40.850246 3.1886504 0.13333334
-34.739346 18.543352 -1.8301506 0.0078431377
-32.859722 19.636393 -2.0004354 0.019607844
-69.637321 41.867573 6.5775743 0.16862746
-38.357281 18.158379 -1.7272722 0.035294119
-34.641445 23.071669 -1.4553488 0.031372551
-31.390467 16.738777 9.4344454 0.011764706
-44.445564 23.780695 -1.1810684 0.27058825
-4.1803346 2.3207762 -2.0772166 0.0039215689
-50.807835 30.737787 -1.7390755 0.043137256
-6.5135388 3.3425951 -1.9554846 0.070588239
-9.3826332 5.4912906 -2.1099079 0
-65.379684 35.384647 -0.02594574 0.1254902
-35.323433 23.717602 -0.50480223 0.062745102
-11.867246 6.2566733 -2.0364764 0
-14.102466 8.3677855 -2.048372 0.0039215689
-65.909286 31.625673 0.39822638 0.062745102
-64.986359 39.379082 -0.46709794 0.06666667
-16.47963 8.7672691 -1.977867 0.0039215689
-18.406229 12.237652 -2.0386989 0.0078431377
-137.82922 74.820679 3.5804901 0.074509807
-35.283997 23.691011 0.47819206 0.05882353
-24.881573 13.340568 -1.9577379 0.0039215689
-21.469667 12.857705 -2.0222623 0.0078431377
-149.49471 71.961563 4.7552748 0.24705882
-27.390518 13.037563 -1.9296595 0.015686275
-28.727051 19.241165 -2.0052967 0.015686275
-69.061058 41.863102 3.2478821 0.24705882
-32.879627 19.81146 -2.0061576 0.019607844
-67.743752 41.060886 6.4121051 0.078431375
-38.236473 18.271423 -1.7248365 0.035294119
-34.62281 23.24201 -1.4581981 0.031372551
-44.452938 23.99369 -1.1836611 0.23529412
-44.66021 21.552816 -0.87469739 0.054901961
-50.777172 30.948812 -1.7415878 0.043137256
-6.5024152 3.3629508 -1.9554889 0.070588239
-9.3677101 5.5232005 -2.1106997 0
-65.391731 35.671215 -0.026054369 0.1254902
-35.346951 23.903343 -0.50632066 0.062745102
-11.849894 6.2966676 -2.037101 0
-14.088161 8.4215832 -2.0504081 0.0039215689
-65.937134 31.907602 0.3989751 0.062745102
-64.998573 39.681038 -0.4681887 0.06666667
-16.436514 8.812993 -1.976158 0.0039215689
-18.375408 12.304139 -2.0398297 0.0078431377
-133.77286 73.18721 3.481199 0.074509807
-35.297703 23.869852 0.47942629 0.05882353
-24.896666 13.454403 -1.9625275 0.0039215689
-21.413319 12.91926 -2.0209668 0.0078431377
-112.2523 68.695488 2.2400153 0.10980392
-27.293291 13.100898 -1.9258173 0.015686275
-28.663084 19.335096 -2.0053127 0.015686275
-112.88662 61.729427 7.4246373 0.078431375
-68.870773 42.059288 3.2454226 0.24705882
-34.556499 18.754013 -1.8273838 0.0078431377
-32.796722 19.908709 -2.0051227 0.019607844
-68.327499 41.726334 6.48069 0.16862746
-38.078636 18.349674 -1.7204235 0.035294119
-34.588444 23.384792 -1.4600554 0.031372551
-44.460777 24.18783 -1.1860609 0.27058825
-6.4772372 3.3804929 -1.9533329 0.070588239
-9.3284187 5.5461426 -2.1075604 0
-65.362373 35.952713 -0.026149122 0.12941177
-35.342743 24.083515 -0.50759685 0.062745102
-11.817787 6.3345566 -2.0364921 0
-14.079122 8.4858379 -2.0544708 0.0039215689
-65.973694 32.210655 0.39985314 0.062745102
-64.993256 39.991299 -0.46925405 0.06666667
-16.395632 8.866766 -1.9757389 0.0039215689
-18.355406 12.386865 -2.0432014 0.0078431377
-133.42398 73.601128 3.4788225 0.074509807
-35.310085 24.061195 0.48079538 0.043137256
-24.898977 13.570318 -1.967036 0.0039215689
-21.409103 13.021563 -2.0255606 0.0078431377
-148.97116 72.959366 4.7542467 0.24705882
-27.362778 13.254036 -1.9345925 0.015686275
-28.753555 19.546366 -2.0170448 0.015686275
-112.46592 62.00919 7.4114013 0.078431375
-65.991989 40.609978 3.1161921 0.12941177
-34.592896 18.932453 -1.8332303 0.0078431377
-32.69696 20.006378 -2.0036652 0.019607844
-74.149811 40.815563 10.322591 0.10196079
-68.277328 42.024761 6.4903593 0.16862746
-37.975739 18.464535 -1.7189711 0.035294119
-34.546486 23.535101 -1.4620535 0.031372551
-44.439857 24.379353 -1.1879866 0.13333334
-4.1029983 2.3317151 -2.0518429 0.050980393
-46.141838 28.558571 -1.5882258 0.039215688
-6.4849806 3.4141383 -1.9598172 0.078431375
-9.304698 5.57689 -2.1067803 0
-65.366394 36.266712 -0.026265508 0.12941177
-35.356102 24.282251 -0.50911713 0.062745102
-11.797938 6.3784237 -2.0371175 0
-14.041188 8.5318537 -2.0534666 0.0039215689
-66.00573 32.525509 0.40070483 0.062745102
-64.99556 40.32106 -0.47039855 0.06666667
-16.342184 8.9138432 -1.9731704 0.0039215689
-18.332781 12.468621 -2.0458276 0.0078431377
-112.02218 62.298355 2.9260526 0.074509807
-35.307095 24.248411 0.48193824 0.05882353
-24.911791 13.695151 -1.972108 0.0039215689
-21.391672 13.117603 -2.0285201 0.0078431377
-148.66692 73.485794 4.7529769 0.24705882
-27.378389 13.384806 -1.9392501 0.015686275
-113.13063 62.91774 7.4704118 0.078431375
-66.049545 40.979286 3.1259723 0.12941177
-34.484886 19.036373 -1.8311899 0.0078431377
-32.589516 20.103609 -2.0015767 0.019607844
-74.297897 41.25209 10.364311 0.10196079
-67.730469 42.028591 6.4527617 0.078431375
-37.936447 18.616465 -1.7203183 0.035294119
-34.489552 23.680748 -1.463347 0.031372551
-4.1009674 2.3486142 -2.0552294 0.039215688
-44.371899 21.997147 -0.87380081 0.22352941
-6.4663062 3.4317119 -1.9576616 0.062745102
-9.2785301 5.6038942 -2.1052139 0
-65.375359 36.569881 -0.026379338 0.12941177
-35.359631 24.466129 -0.51044291 0.062745102
-11.768708 6.4144258 -2.0358925 0
-14.011317 8.5795488 -2.0534756 0.0039215689
-66.052795 32.83493 0.4016239 0.062745102
-65.016953 40.648621 -0.47164083 0.070588239
-16.359489 8.9968634 -1.9792032 0.0039215689
-18.266294 12.5153 -2.0432229 0.0078431377
-111.78313 62.675976 2.9254246 0.074509807
-35.314022 24.43441 0.48317179 0.043137256
-24.884695 13.792497 -1.97381 0.0039215689
-21.342375 13.188807 -2.0282063 0.0078431377
-8.7430334 4.1878233 0.27439618 0
-27.356495 13.491522 -1.9410737 0.015686275
-28.612946 19.749025 -2.0170786 0.015686275
-110.99956 62.236115 7.3435998 0.078431375
-65.912872 41.212578 3.1262517 0.12941177
-34.393841 19.141653 -1.8298995 0.0078431377
-32.593533 20.262753 -2.0062418 0.019607844
-67.114204 41.968506 6.407722 0.078431375
-37.835491 18.729641 -1.7187026 0.035294119
-34.455814 23.834084 -1.4654875 0.031372551
-44.563999 24.86274 -1.1962022 0.031372551
-4.1080494 2.3713467 -2.0636921 0.015686275
-44.376976 22.192041 -0.87547946 0.22352941
-6.4509339 3.4510956 -1.956586 0.05882353
-9.2688465 5.6412783 -2.1075783 0
-65.396912 36.881439 -0.026499862 0.12941177
-35.375378 24.659542 -0.51196194 0.062745102
-11.759994 6.4619989 -2.038367 0
-14.014797 8.6483746 -2.0585527 0.0039215689
-66.052055 33.121655 0.40226281 0.062745102
-65.023331 40.968258 -0.47278285 0.070588239
-16.327982 9.0526466 -1.9792147 0.0039215689
-12.459416 8.5186281 -1.3820455 0.0039215689
-134.91823 76.309662 3.5385354 0.074509807
-35.326611 24.625359 0.48449498 0.05882353
-24.867634 13.895725 -1.9763544 0.0039215689
-21.225483 13.217153 -2.0213487 0.0078431377
-27.309227 13.585665 -1.9410946 0.015686275
-73.454559 41.452152 4.862956 0.078431375
-65.562668 41.31065 3.1163836 0.12941177
-34.486691 19.350994 -1.8385649 0.0078431377
-32.95787 20.650923 -2.0334942 0.019607844
-72.97551 41.181561 10.218961 0.10196079
-68.479431 43.159374 6.5530243 0.16862746
-37.72348 18.836937 -1.716593 0.035294119
-34.40509 23.975964 -1.466921 0.031372551
-44.546505 25.056335 -1.1981293 0.031372551
-4.0722494 2.3668516 -2.048466 0.023529412
-44.366974 22.379984 -0.87687194 0.22352941
-6.4355025 3.4704134 -1.9555105 0.05882353
-9.265625 5.6828823 -2.1115148 0
-65.434471 37.20351 -0.026628839 0.12941177
-35.383682 24.848721 -0.51338404 0.062745102
-11.733934 6.4997787 -2.0377586 0
-14.034685 8.7280006 -2.0661635 0.0039215689
-66.078659 33.423267 0.40307438 0.062745102
-65.055244 41.30563 -0.4741247 0.070588239
-16.27902 9.0984468 -1.9770755 0.0039215689
-12.416615 8.5515785 -1.3805584 0.0039215689
-124.31615 70.86982 3.2665572 0.074509807
-35.325256 24.807425 0.48563924 0.043137256
-24.874399 14.012858 -1.9808636 0.0039215689
-21.29682 13.364979 -2.0328147 0.0078431377
-123.80118 62.782879 3.9775505 0.24705882
-27.371937 13.735733 -1.9490985 0.015686275
-73.278229 41.689175 4.860827 0.078431375
-65.781891 41.770267 3.1337376 0.12941177
-34.370377 19.442221 -1.8359591 0.0078431377
-32.93272 20.794661 -2.0364707 0.019607844
-72.914055 41.482044 10.230568 0.10196079
-71.742409 45.576828 6.881865 0.16862746
-37.629002 18.95273 -1.7153057 0.035294119
-34.432037 24.173292 -1.4717475 0.031372551
-5.0900393 3.0172896 1.0256404 0
-44.395718 22.578705 -0.87897754 0.22352941
-44.654182 28.486265 -1.5500709 0.039215688
-6.4272928 3.4924548 -1.9565943 0.070588239
-9.2269335 5.699646 -2.1068029 0
-65.411247 37.477009 -0.026722541 0.12941177
-35.375935 25.018204 -0.51451498 0.019607844
-11.715735 6.5394249 -2.0383828 0
-13.978966 8.7561226 -2.0621176 0.0039215689
-66.106277 33.712189 0.4038671 0.062745102
-65.052475 41.606491 -0.4751642 0.070588239
-16.276321 9.1670599 -1.9805269 0.0039215689
-12.417349 8.6123419 -1.3839267 0.0039215689
-124.50319 71.52404 3.277616 0.074509807
-35.343681 24.995317 0.48700851 0.027450981
-24.827789 14.094068 -1.98088 0.0039215689
-21.306026 13.468832 -2.0380628 0.0078431377
-27.216122 13.768762 -1.9411352 0.015686275
-73.253769 41.996532 4.8683953 0.078431375
-66.463211 42.51453 3.1729994 0.13333334
-34.288403 19.544916 -1.8350427 0.0078431377
-32.819901 20.874466 -2.033746 0.019607844
-73.894157 42.366611 10.388391 0.10196079
-71.70153 45.884457 6.8925047 0.16862746
-37.644184 19.116329 -1.7189525 0.035294119
-34.397217 24.318676 -1.4737452 0.031372551
-44.544712 25.454313 -1.2028344 0.13333334
-4.040833 2.38219 -2.0400105 0.06666667
-44.384121 22.767179 -0.88036972 0.22352941
-44.638348 28.695063 -1.5530522 0.039215688
-6.4050679 3.5077994 -1.9533589 0.074509807
-9.2069788 5.7305527 -2.1068087 0
-65.425301 37.788216 -0.026840782 0.12941177
-54.94035 39.286987 -0.80726755 0.047058824
-11.696251 6.5809989 -2.0390074 0
-13.925004 8.7884912 -2.0585785 0.0039215689
-66.119652 34.00946 0.40461433 0.062745102
-65.108246 41.962574 -0.47670579 0.070588239
-16.223585 9.2105684 -1.9779574 0.0039215689
-12.380742 8.6497135 -1.3831863 0.0039215689
-24.778437 14.179379 -1.9808972 0.0039215689
-21.218731 13.515835 -2.0341494 0.0078431377
-145.21585 74.920326 4.682693 0.24705882
-67.805038 43.710804 1.3731272 0.10980392
-27.345169 13.954102 -1.9540316 0.015686275
-28.658783 20.367601 -2.0403421 0.015686275
-73.641953 42.561581 4.9041224 0.078431375
-67.947746 43.803642 3.2513978 0.24705882
-34.25106 19.681278 -1.8367571 0.0078431377
-32.71331 20.965908 -2.0316556 0.019607844
-72.743324 42.04071 10.246498 0.10196079
-65.157555 41.99575 6.2748361 0.074509807
-37.680164 19.299593 -1.7237519 0.035294119
-34.289406 24.420982 -1.4727746 0.031372551
-4.0415931 2.4009602 -2.0450888 0.05882353
-44.396561 22.968809 -0.88226235 0.22352941
-44.855923 29.057148 -1.5643017 0.039215688
-6.4060745 3.536654 -1.9576828 0.074509807
-9.1803465 5.7571034 -2.1052418 0
-65.417252 38.087864 -0.026948439 0.12941177
-54.411076 39.193153 -0.80144691 0.047058824
-11.659561 6.6125355 -2.0365489 0.0039215689
-13.910844 8.8466301 -2.061121 0.0039215689
-66.135284 34.309105 0.40538332 0.062745102
-65.165642 42.321762 -0.47827217 0.070588239
-16.194765 9.2678919 -1.9783987 0.0039215689
-12.144131 8.5419846 -1.3592854 0.0039215689
-24.752888 14.278637 -1.9828795 0.0039215689
-21.21147 13.61472 -2.038089 0.0078431377
-67.625244 43.928478 1.3725406 0.10980392
-27.229042 14.013135 -1.9491593 0.015686275
-73.585983 42.871605 4.9103036 0.078431375
-67.392868 43.777046 3.2320271 0.24705882
-34.640736 20.067961 -1.8617655 0.0078431377
-32.589752 21.045954 -2.0285094 0.019607844
-72.825691 42.427528 10.278993 0.10196079
-66.379135 43.115536 6.4075122 0.078431375
-37.488537 19.365053 -1.7180221 0.035294119
-34.18129 24.52284 -1.4718038 0.031372551
-51.157284 29.738432 -1.3894322 0.035294119
-4.0301571 2.4117937 -2.0433991 0.050980393
-44.39399 23.16333 -0.88386887 0.22352941
-35.606209 23.192047 -1.2407786 0.019607844
-6.3870535 3.5538113 -1.9555272 0.082352944
-9.1634684 5.79 -2.1060336 0
-65.42514 38.398064 -0.027064541 0.12941177
-54.251331 39.365047 -0.80113822 0.047058824
-11.62279 6.6438904 -2.03409 0.0078431377
-13.883191 8.8960438 -2.0616362 0.0039215689
-66.163811 34.616692 0.40623865 0.062745102
-35.557335 23.160057 -0.25776699 0.019607844
-16.179436 9.3332005 -1.9805601 0.0039215689
-12.072432 8.552515 -1.3544356 0.0039215689
-110.97402 65.281265 2.9386582 0.074509807
-103.87682 75.617714 1.4406269 0.062745102
-24.709766 14.367741 -1.9834579 0.0039215689
-21.227091 13.729046 -2.0443192 0.0078431377
-142.98726 75.034317 4.6273208 0.24705882
-27.247082 14.142134 -1.9540725 0.015686275
-12.616273 8.9498749 -0.88481295 0
-73.157333 42.962517 4.8915563 0.078431375
-68.842216 45.065384 3.3092968 0.24705882
-34.432827 20.106247 -1.8542747 0.0078431377
-32.472713 21.129763 -2.025785 0.019607844
-72.294212 42.454163 10.224539 0.10196079
-64.533089 42.230083 6.2427087 0.074509807
-37.286304 19.423807 -1.711798 0.035294119
-34.079342 24.628941 -1.4711155 0.031372551
-51.149601 29.97246 -1.3921213 0.035294119
-4.0035849 2.4125628 -2.0332489 0.047058824
-44.397648 23.361876 -0.88561821 0.22745098
-35.398407 23.230963 -1.2363116 0.019607844
-6.364676 3.5689104 -1.9522914 0.082352944
-9.1497345 5.8250203 -2.1076114 0
-65.452278 38.721046 -0.027190862 0.12941177
-55.073582 40.259365 -0.81557858 0.047058824
-11.616508 6.6932569 -2.0371809 0
-13.878507 8.9607286 -2.0656993 0.0039215689
-66.208626 34.934277 0.40720183 0.062745102
-35.292923 23.161186 -0.25641289 0.019607844
-16.143337 9.3863201 -1.9801409 0.0039215689
-11.930233 8.5107222 -1.3413671 0.0039215689
-123.79144 73.428192 3.2852168 0.074509807
-103.62189 75.985695 1.4407046 0.062745102
-24.714329 14.485279 -1.9879667 0.0039215689
-21.182354 13.803995 -2.0446594 0.0078431377
-27.222227 14.248987 -1.9558955 0.015686275
-71.160553 42.117893 4.7673244 0.078431375
-71.515785 47.181637 3.4461572 0.24705882
-34.276588 20.173981 -1.8496016 0.0078431377
-32.382103 21.230682 -2.0247493 0.019607844
-72.244553 42.763847 10.238577 0.10196079
-72.618942 47.913788 7.0447869 0.16862746
-37.066467 19.472034 -1.7047511 0.035294119
-34.025356 24.770178 -1.4725478 0.031372551
-51.134018 30.202707 -1.3946207 0.035294119
-3.9921222 2.4232433 -2.0315592 0.054901961
-44.389881 23.555059 -0.88715291 0.16862746
-35.307129 23.346453 -1.2359786 0.019607844
-6.3488727 3.587858 -1.9512154 0.094117649
-9.1326036 5.8578353 -2.108403 0
-65.481384 39.046757 -0.027318744 0.12941177
-55.022682 40.516785 -0.8169623 0.047058824
