# .PCD v0.7 - Point Cloud Data file format
VERSION 0.7
FIELDS x y z intensity
SIZE 4 4 4 4
TYPE F F F F
COUNT 1 1 1 1
WIDTH 1108
HEIGHT 1
VIEWPOINT 0 0 0 1 0 0 0
POINTS 1108
DATA ascii
-18.12747 21.553074 0.48834929 0.0078431377
-17.823399 21.188679 1.1228019 0.0078431377
-6.6338558 7.0521178 -0.44775504 0
-7.347156 8.6377649 -0.59079409 0
-3.3067141 3.1195915 -0.18208507 0
-19.718775 25.937401 -1.1366516 0.035294119
-42.958496 46.484344 -1.4740611 0.050980393
-3.3194978 3.8398285 -2.3269229 0
-39.981163 39.495937 -0.98260051 0.094117649
-83.644958 100.76069 -3.8142388 0.15686275
-5.8119612 6.2035165 -2.3549347 0.023529412
-8.2707262 9.8140116 -2.5506501 0.0039215689
-19.585976 25.949249 -0.37924975 0.047058824
-11.850456 12.804727 -2.7014537 0.0078431377
-12.687578 15.143373 -2.505033 0.039215688
-41.228096 40.731808 0.33288288 0.039215688
-97.010406 116.88693 -0.88872254 0.16862746
-15.254457 16.525866 -2.4142828 0.054901961
-15.588026 20.61536 -2.4065087 0.019607844
-4.4174438 4.678689 0.14666721 0
-19.612438 25.984428 0.37634832 0.039215688
-23.866766 25.94067 -2.4606426 0.070588239
-17.308289 20.718666 -2.1985013 0.0078431377
-40.140999 39.654026 1.6359881 0.05882353
-23.697941 23.354984 -2.1284256 0.019607844
-19.640451 26.022196 -1.8956457 0.011764706
-42.831268 46.672352 -2.9498825 0.039215688
-52.341175 62.989643 -4.291307 0.24705882
-7.7025366 9.1278744 0.96682054 0
-19.683252 26.079174 -1.1398538 0.015686275
-3.3074157 3.8498094 -2.3269212 0
-41.142376 40.903233 -1.0143625 0.098039217
-5.7950315 6.2241669 -2.3560102 0.023529412
-8.2498245 9.8516293 -2.5537844 0.0039215689
-19.580791 26.112885 -0.38073337 0.011764706
-11.815484 12.847314 -2.7026784 0.0039215689
-12.652552 15.198045 -2.5075531 0.039215688
-41.11692 40.877651 0.33303899 0.039215688
-97.095306 117.7403 -0.89283866 0.16862746
-15.223858 16.596821 -2.4177041 0.054901961
-15.558859 20.71172 -2.4120789 0.027450981
-20.03607 21.890268 0.68650496 0.0039215689
-19.599977 26.138521 0.37770548 0.027450981
-23.70731 25.929466 -2.4525347 0.054901961
-17.035299 20.520151 -2.1717927 0.0078431377
-39.866203 39.629856 1.6298482 0.05882353
-23.649885 23.454264 -2.1307194 0.019607844
-18.72397 20.446692 1.6074731 0.0039215689
-18.238878 21.981178 1.1584474 0.0078431377
-8.231082 8.9034939 1.4763906 0
-9.7996235 9.6381254 -0.5573495 0
-19.558249 26.082739 -1.137328 0.015686275
-4.6302805 4.9422097 1.7890661 0
-42.781048 46.912331 -1.4785873 0.10588235
-3.2962496 3.8636615 -2.3286102 0
-39.619576 39.66013 -0.98011416 0.094117649
-6.3828444 7.6382961 -0.28819123 0
-5.7758493 6.2467413 -2.3570862 0.023529412
-8.2129002 9.8768539 -2.5529952 0.0039215689
-18.42639 20.261213 -0.0017912899 0.0078431377
-19.441969 26.11627 -0.37978774 0.011764706
-11.786455 12.905607 -2.7063627 0.0078431377
-12.596909 15.23857 -2.5070407 0.039215688
-40.655087 40.700127 0.33045298 0.039215688
-97.157188 118.6571 -0.8971594 0.16862746
-15.144514 16.625767 -2.4142678 0.054901961
-15.479362 20.755819 -2.4109538 0.027450981
-19.458687 26.138756 0.37674215 0.019607844
-23.528423 25.913837 -2.4433093 0.027450981
-21.97278 26.705488 -2.8181112 0.027450981
-39.848919 39.890144 1.6348629 0.05882353
-23.635454 23.604094 -2.1368525 0.019607844
-19.107899 21.016417 -1.3207122 0.0039215689
-51.843876 63.238625 -4.2847571 0.24705882
-19.424309 26.09251 -1.1348013 0.015686275
-18.670567 20.531818 -0.64545119 0.0039215689
-3.2827415 3.8746672 -2.3286085 0
-39.168797 39.481987 -0.9723255 0.094117649
-5.7514367 6.2635179 -2.3560045 0.023529412
-8.1932049 9.923255 -2.5576982 0.0039215689
-19.305731 26.122225 -0.37888885 0.011764706
-11.749249 12.955023 -2.7082021 0.0039215689
-12.543642 15.281969 -2.5070336 0.050980393
-40.689934 41.020508 0.33192551 0.039215688
-97.140762 119.48568 -0.90080112 0.16862746
-15.089043 16.681013 -2.4146886 0.06666667
-15.267807 20.619801 -2.3890021 0.0078431377
-18.801771 20.822651 0.64890701 0.0039215689
-19.320005 26.141548 0.37582517 0.027450981
-21.866867 26.766064 -2.8164709 0.043137256
-39.993343 40.315685 1.646616 0.05882353
-13.431134 16.374689 0.36675733 0.0078431377
-23.592209 23.725712 -2.1404254 0.05882353
-19.120895 25.870594 -1.870482 0.074509807
-19.066427 21.11821 -1.3229378 0.0039215689
-51.622826 63.41872 -4.2847281 0.24705882
-7.0518966 8.5168657 0.89461362 0
-19.29291 26.104885 -1.1324141 0.015686275
-3.2678363 3.8867207 -2.3286064 0
-40.411682 41.053352 -1.0071617 0.098039217
-5.7299004 6.2879133 -2.35708 0.023529412
-8.1550379 9.9541197 -2.5576932 0.0039215689
-18.513964 20.660744 -0.0017859322 0.0078431377
-19.16291 26.137434 -0.37803549 0.011764706
-11.717801 13.020194 -2.7125008 0.0039215689
-12.487354 15.33259 -2.5075312 0.035294119
-40.019512 40.653408 0.32772675 0.039215688
-97.140411 120.42736 -0.90502167 0.16862746
-15.040732 16.756138 -2.4172513 0.047058824
-15.153357 20.629454 -2.3834136 0.039215688
-18.431984 20.568478 0.63879305 0.0039215689
-19.16769 26.143871 0.37481642 0.039215688
-23.242365 25.977278 -2.4332325 0.070588239
-21.711405 26.784113 -2.8096199 0.011764706
-40.028641 40.662525 1.6545374 0.062745102
-23.512108 23.827005 -2.1414368 0.019607844
-19.120108 26.078896 -1.8802418 0.027450981
-19.152531 26.123306 -1.1300259 0.015686275
-68.741051 77.131683 -2.4069681 0.10196079
-3.2519834 3.8947959 -2.3269138 0
-38.766697 39.652466 -0.96948576 0.094117649
-5.710465 6.3102856 -2.3581553 0.027450981
-8.1226912 9.9851112 -2.5584733 0.0039215689
-96.510468 109.11724 -0.0066084773 0.24705882
-19.024706 26.138845 -0.37708998 0.011764706
-11.690594 13.081276 -2.7168002 0.011764706
-12.423843 15.363212 -2.5055034 0.031372551
-39.832703 40.746529 0.32737729 0.039215688
-97.176651 121.33686 -0.9092471 0.16862746
-14.995314 16.822962 -2.4193861 0.06666667
-15.144234 20.768904 -2.3934455 0.019607844
-18.529499 20.824038 0.64474756 0.0039215689
-19.031811 26.148544 0.3739458 0.039215688
-23.114567 26.015902 -2.429312 0.054901961
-21.595367 26.83123 -2.8066769 0.043137256
-40.168251 41.090775 1.666291 0.062745102
-23.462223 23.942766 -2.1444976 0.019607844
-18.883961 25.944328 -1.8658041 0.027450981
-18.471733 20.758488 1.6112311 0.0039215689
-6.3922443 7.8208923 0.40704593 0
-51.281303 63.950417 -4.2951412 0.24705882
-19.023766 26.13768 -1.1277786 0.015686275
-3.242873 3.9113264 -2.3302932 0
-39.017342 40.189495 -0.97926545 0.094117649
-5.6858597 6.3268094 -2.357074 0.023529412
-8.102416 10.031359 -2.5631766 0.0039215689
-19.018082 21.528336 -0.0018064856 0.0078431377
-18.886713 26.13962 -0.3761445 0.011764706
-11.657885 13.136387 -2.7198691 0.011764706
-12.384936 15.424656 -2.5085275 0.031372551
-39.181271 40.358761 0.32317582 0.035294119
-97.202675 122.24185 -0.91342509 0.16862746
-14.931248 16.86875 -2.4185212 0.054901961
-15.046103 20.78557 -2.3893452 0.0078431377
-18.910103 26.172098 0.37335381 0.05882353
-23.028862 26.101952 -2.429858 0.039215688
-21.442074 26.831051 -2.7988503 0.05882353
-40.266426 41.480278 1.6764184 0.062745102
-23.35907 24.003963 -2.1426938 0.019607844
-18.821203 26.048557 -1.8685846 0.027450981
-7.7407503 8.6694098 0.67051035 0
-18.881144 26.13199 -1.124693 0.015686275
-3.2283225 3.9182196 -2.3286014 0
-10.577724 10.859903 -0.2642968 0
-5.6710148 6.350018 -2.3592281 0.015686275
-8.0781488 10.065572 -2.565526 0.0039215689
-18.77433 26.156046 -0.37552705 0.019607844
-11.600979 13.154638 -2.7161734 0.015686275
-12.321673 15.444366 -2.5054898 0.027450981
-40.08551 41.553894 0.33177412 0.039215688
-97.236885 123.07689 -0.91732746 0.16862746
-14.891245 16.930136 -2.4206569 0.054901961
-18.464539 21.029976 0.64736706 0.011764706
-18.783689 26.16905 0.37248194 0.078431375
-23.004425 26.23992 -2.4359891 0.070588239
-21.325575 26.857157 -2.7946064 0.027450981
-38.969337 40.392658 1.627524 0.05882353
-21.368401 26.910877 0.59648401 0.015686275
-18.625732 25.947765 -1.8571728 0.027450981
-6.248282 7.7455969 0.80451655 0
-18.761843 26.138655 -1.1224469 0.035294119
-7.9461479 9.8974514 2.2977028 0
-3.2072325 3.9209635 -2.3235273 0.0039215689
-39.560169 41.309635 -0.99994463 0.098039217
-20.548891 26.068319 -0.96539539 0.0078431377
-5.6502199 6.3731771 -2.3603036 0.019607844
-8.0508709 10.106968 -2.5686598 0.0039215689
-18.629839 26.155605 -0.37453443 0.0078431377
-11.547509 13.190595 -2.7149367 0.031372551
-12.279655 15.507673 -2.5085137 0.027450981
-38.786896 40.499161 0.32222164 0.035294119
-20.549873 26.069445 -0.19424471 0.011764706
-14.847301 17.005161 -2.4236484 0.054901961
-15.200863 21.306084 -2.4373016 0.027450981
-18.639151 26.16864 0.37151888 0.05882353
-22.973351 26.399012 -2.4429557 0.054901961
-16.812784 21.297028 -2.2098207 0.0078431377
-39.01424 40.737202 1.6356771 0.05882353
-20.557047 26.07848 0.57636231 0.011764706
-6.7700515 6.9500213 -0.61685711 0
-18.544329 26.034929 -1.8585567 0.043137256
-8.4328527 10.594289 0.54713213 0
-20.559019 26.081381 -1.7378895 0.015686275
-20.600807 26.134008 2.7079589 0.011764706
-8.1108971 8.3550243 -0.47173712 0
-18.622057 26.144732 -1.1197801 0.015686275
-7.5919962 9.5201302 2.2037361 0
-3.2008867 3.9397097 -2.3285978 0
-8.8314667 9.1707458 -0.22180395 0
-20.435335 26.101143 -0.96410263 0.0078431377
-5.6290536 6.3914251 -2.3603008 0.019607844
-8.0173092 10.133157 -2.5686555 0.0039215689
-18.496784 21.366434 -0.0017588494 0.0078431377
-18.494743 26.148037 -0.37354296 0.0078431377
-11.480523 13.201381 -2.7093954 0.023529412
-12.228162 15.547853 -2.508507 0.031372551
-39.805439 41.843391 0.33190623 0.039215688
-20.421568 26.083309 -0.19383582 0.011764706
-14.736401 16.990499 -2.4146414 0.047058824
-15.164454 21.404812 -2.4428709 0.039215688
-17.988892 20.775257 0.63568205 0.0039215689
-18.515501 26.177471 0.37078685 0.047058824
-22.950701 26.550255 -2.449924 0.011764706
-20.40579 26.063444 -2.6972287 0.011764706
-38.678135 40.654072 1.6272141 0.05882353
-20.421352 26.082905 0.57498014 0.011764706
-5.8242111 5.9986038 -0.53083533 0
-18.430361 26.056606 -1.8557535 0.011764706
-20.423376 26.085896 -1.7336886 0.015686275
-18.491615 26.143721 -1.1171144 0.015686275
-3.1842093 3.948045 -2.326905 0
-39.007702 41.304241 -0.99318647 0.098039217
-20.278465 26.096237 -0.96117771 0.0078431377
-5.6055889 6.4115133 -2.3602977 0.019607844
-7.9849086 10.168182 -2.5702198 0.0039215689
-96.67955 113.19165 -0.0064796144 0.24705882
-18.369061 26.172478 -0.37292388 0.019607844
-11.416672 13.224826 -2.7056985 0.011764706
-12.161401 15.579502 -2.5064785 0.027450981
-20.281843 26.100483 -0.19340242 0.011764706
-14.67661 17.046923 -2.4150617 0.047058824
-17.089151 24.335554 -2.7701261 0.011764706
-8.7573423 10.106399 0.30795628 0
-18.378281 26.185577 0.36996308 0.05882353
-16.154615 20.753305 -2.1417522 0.0078431377
-38.602859 40.873672 1.6303716 0.05882353
-20.279194 26.09692 0.57366884 0.011764706
-31.082409 32.882965 -2.8965869 0.047058824
-20.358437 26.199463 1.3466119 0.10980392
-7.9671855 9.1801081 -0.56321257 0
-20.281261 26.099991 -1.729696 0.015686275
-20.361837 26.203642 2.7005007 0.086274512
-69.414391 73.615372 -4.1235418 0.24705882
-2.0890057 2.5285378 0.58183748 0
-3.1674356 3.9586308 -2.3268826 0
-7.9536452 10.204756 -2.572546 0.0039215689
-96.760788 114.09122 -0.0063895951 0.24705882
-18.231731 26.173197 -0.37199837 0.0078431377
-11.359942 13.254917 -2.7038224 0.019607844
-12.067945 15.573973 -2.4988687 0.035294119
-19.34972 20.561117 0.16172415 0.0039215689
-14.60396 17.08523 -2.4133132 0.06666667
-18.243183 26.189621 0.3691656 0.05882353
-23.085011 27.099209 -2.4853239 0.070588239
-20.116713 26.077784 -2.6838264 0.011764706
-10.567713 11.163939 0.44344839 0
-7.2390838 7.6023164 -0.6680252 0
-18.206734 26.137314 -1.8522127 0.011764706
-18.064905 21.171101 1.6141059 0.0039215689
-20.064884 26.009464 1.3333112 0.086274512
-20.136375 26.103279 -1.7252568 0.015686275
-19.991167 25.91304 2.6634538 0.086274512
-68.882202 73.563721 -4.1071515 0.24705882
-4.3725896 5.5307708 1.2697909 0
-3.1477032 3.9600146 -2.3218091 0.0039215689
-19.860437 25.92063 -0.94970959 0.054901961
-5.5613623 6.4514728 -2.3613482 0.062745102
-7.9268866 10.239993 -2.5748954 0.0039215689
-96.79393 114.90076 -0.0063641062 0.24705882
-18.101828 26.170416 -0.37110052 0.0078431377
-11.310838 13.286021 -2.7025864 0.019607844
-12.011428 15.607145 -2.4978516 0.035294119
-39.419849 42.317467 0.33249003 0.039215688
-19.844309 25.899309 -0.19087256 0.094117649
-14.557465 17.145294 -2.41502 0.054901961
-16.843813 24.338512 -2.7574346 0.06666667
-18.11096 26.183578 0.36824754 0.047058824
-23.002728 27.184328 -2.4861495 0.027450981
-19.856251 25.914871 0.56675279 0.074509807
-31.048164 33.300098 -2.9146976 0.047058824
-18.08832 26.151014 -1.8489443 0.011764706
-19.925276 26.00544 1.3297429 0.086274512
-8.0823135 9.4475613 1.5149587 0
-19.801306 25.842321 2.6494763 0.086274512
-39.969578 42.910019 -2.3885949 0.074509807
-18.098814 26.166161 -1.1099274 0.015686275
-7.9388595 9.277318 -0.28322279 0
-3.1404138 3.9791908 -2.326879 0
-19.711983 25.912771 -0.94690204 0.06666667
-5.5363355 6.4674253 -2.3602669 0.082352944
-7.8910899 10.267138 -2.5748909 0.0039215689
-96.866638 115.80543 -0.0063392515 0.24705882
-17.978825 26.186707 -0.37043554 0.0078431377
-11.251718 13.309793 -2.6995049 0.019607844
-11.952085 15.642182 -2.4968343 0.035294119
-39.31255 42.498463 0.33285609 0.039215688
-19.698317 25.894554 -0.19032319 0.082352944
-14.482225 17.177229 -2.4124408 0.054901961
-16.720617 24.340746 -2.7511017 0.043137256
-17.983406 26.193293 0.36751583 0.047058824
-23.383482 27.833609 -2.5380642 0.070588239
-5.1824546 5.4757619 0.21584021 0
-19.734318 25.942076 0.56585866 0.043137256
-5.8451757 6.1947603 -0.54104173 0
-17.965439 26.167332 -1.8456756 0.011764706
-19.737999 25.946817 1.3232468 0.10980392
-58.07222 69.362373 -4.2139969 0.074509807
-19.871538 26.124088 -1.7176927 0.015686275
-19.691744 25.885374 2.6468852 0.05882353
-68.111679 73.739067 -4.0909467 0.24705882
-17.97134 26.175858 -1.1076804 0.015686275
-7.1530576 9.2894936 2.1220028 0
-11.903067 14.089214 -0.4285236 0
-3.123632 3.9872851 -2.3251867 0
-19.588095 25.945969 -0.94549191 0.06666667
-5.5150514 6.4901495 -2.361342 0.11372549
-7.8675222 10.314331 -2.5795937 0.0039215689
-96.870468 116.67649 -0.0063085845 0.24705882
-17.835684 26.18235 -0.36944327 0.0078431377
-11.175111 13.316984 -2.6927333 0.023529412
-11.866111 15.647299 -2.4907646 0.039215688
-19.603277 25.966087 -0.19031097 0.070588239
-14.40394 17.211334 -2.4098611 0.047058824
-16.602297 24.358482 -2.7462559 0.054901961
-18.000042 21.548222 0.6496942 0.0039215689
-17.849201 26.202206 0.3667382 0.039215688
-23.329699 27.977001 -2.543355 0.086274512
-19.713388 26.113367 -2.6662092 0.011764706
-19.629509 26.00094 0.56559217 0.043137256
-24.112377 26.202477 -2.278507 0.019607844
-17.80455 26.136576 -1.8389162 0.011764706
-19.68832 26.079248 1.3263503 0.10980392
-6.0527225 7.1383462 -0.43296668 0
-19.722942 26.125944 -1.7130718 0.015686275
-19.670881 26.055761 2.6569827 0.043137256
-42.920856 46.755722 -2.5854557 0.14901961
-17.841696 26.191381 -1.1055727 0.015686275
-5.2918601 6.2206073 -0.18898627 0
-3.1140201 4.0035148 -2.3285661 0
-42.756802 46.903954 -1.1095624 0.16862746
-19.609602 26.164465 -0.95095533 0.0078431377
-5.4948068 6.5118709 -2.3624177 0.13333334
-7.8267813 10.334973 -2.5780196 0.0039215689
-96.945587 117.60023 -0.0062832977 0.24705882
-17.708513 26.190844 -0.36868498 0.0078431377
-11.115993 13.340191 -2.6896517 0.019607844
-11.780614 15.64678 -2.48419 0.039215688
-18.520052 20.232403 0.15712409 0.0039215689
-14.394319 17.322453 -2.4184241 0.054901961
-16.594826 24.531574 -2.7592611 0.043137256
-6.241035 7.4179292 0.22262438 0
-17.72419 26.214067 0.36605293 0.047058824
-23.417019 28.282692 -2.5637219 0.070588239
-19.588768 26.136211 0.56706709 0.011764706
-24.063707 26.33329 -2.2825906 0.019607844
-17.697624 26.174892 -1.8372761 0.011764706
-5.4735293 6.48557 0.48836198 0
-19.65682 26.227505 1.3304297 0.10980392
-19.653597 26.222942 2.6670797 0.11764706
-17.707834 26.18997 -1.1029068 0.015686275
-5.3875546 7.0572443 1.6033682 0
-3.1035814 4.0157733 -2.3302548 0.0039215689
-18.938999 20.8246 -0.4915795 0.0078431377
-19.467882 26.145151 -0.94803256 0.0078431377
-5.4645672 6.5167546 -2.3581011 0.082352944
-7.8059354 10.37486 -2.5819385 0.0039215689
-97.082199 118.52301 -0.0062643006 0.24705882
-17.603966 26.212646 -0.36820793 0.031372551
-11.076531 13.377685 -2.6902611 0.023529412
-11.724321 15.67372 -2.4826679 0.039215688
-18.547546 20.390999 0.15791737 0.0039215689
-19.459169 26.133238 -0.19056931 0.011764706
-14.334793 17.361012 -2.4175596 0.054901961
-16.488966 24.540085 -2.7544167 0.043137256
-17.608479 26.219275 0.3653664 0.039215688
-23.770168 28.896206 -2.6125655 0.027450981
-19.45425 26.126455 0.56554461 0.011764706
-23.996914 26.426111 -2.2841153 0.019607844
-17.584307 26.183422 -1.8340085 0.011764706
-19.531553 26.23086 1.3275114 0.10980392
-19.53319 26.232841 2.6618848 0.086274512
-17.594433 26.198479 -1.1009405 0.015686275
-3.0895414 4.0261173 -2.3302531 0.0078431377
-19.333902 26.154469 -0.9459241 0.031372551
-5.4417815 6.535326 -2.358098 0.054901961
-7.7650251 10.395256 -2.5803647 0.0039215689
-17.472631 26.213423 -0.36735639 0.0078431377
-10.99986 13.378988 -2.6828742 0.015686275
-11.676579 15.723684 -2.4841766 0.035294119
-18.486927 20.467064 0.15801923 0.0039215689
-19.320478 26.136055 -0.19009013 0.023529412
-14.271589 17.407394 -2.4171236 0.047058824
-16.381226 24.56381 -2.7506874 0.043137256
-17.481535 26.226742 0.36463454 0.027450981
-22.119564 27.070534 -2.4405825 0.039215688
-19.311199 26.123838 -2.6472917 0.011764706
-2.9310033 3.1187444 0.12115017 0
-19.320322 26.135708 0.56430203 0.011764706
-23.925835 26.53303 -2.2861512 0.019607844
-17.45314 26.184229 -1.829809 0.011764706
-11.517671 14.015963 1.050336 0
-19.392563 26.233984 1.3242692 0.10980392
-19.306171 26.116827 -1.6996318 0.015686275
-19.39431 26.23613 2.6553898 0.086274512
-17.454351 26.185921 -1.0978557 0.015686275
-4.4269252 5.2853889 -0.15934087 0
-3.0747631 4.0369244 -2.3302512 0.0039215689
-19.186123 26.153564 -0.94334906 0.019607844
-7.7407298 10.44218 -2.5850673 0.0039215689
-17.328167 26.203224 -0.36631763 0.0078431377
-10.95075 13.418723 -2.682868 0.015686275
-11.618871 15.765884 -2.4841692 0.035294119
-19.026117 21.224379 0.16336156 0.0039215689
-19.184525 26.151236 -0.18968056 0.011764706
-14.310025 17.586042 -2.4346848 0.047058824
-16.253942 24.566586 -2.744354 0.090196081
-6.2471361 7.5831652 0.22570038 0
-17.352377 26.239983 0.36394972 0.05882353
-21.87746 26.97385 -2.4246569 0.027450981
-15.206026 20.690083 -2.0911853 0.0078431377
-19.186729 26.154131 0.56319934 0.011764706
-23.847008 26.640924 -2.28793 0.019607844
-17.324194 26.197449 -1.8263071 0.011764706
-19.244513 26.233318 1.320702 0.10588235
-19.25577 26.248539 2.6495461 0.10196079
-17.334135 26.212458 -1.0963068 0.015686275
-4.0355682 5.3552508 1.2073987 0
-3.052155 4.0354171 -2.323487 0.0039215689
-19.0502 26.158348 -0.9411242 0.019607844
-5.4141307 6.5972004 -2.3667192 0.011764706
-7.7111273 10.478205 -2.5874164 0.0039215689
-17.203859 26.212807 -0.36560619 0.031372551
-10.896437 13.447143 -2.6810167 0.031372551
-11.554467 15.793016 -2.4821413 0.035294119
-19.048592 26.155991 -0.18922485 0.011764706
-14.236127 17.619892 -2.4325342 0.047058824
-16.133322 24.569309 -2.7383933 0.043137256
-17.212662 26.226189 0.362939 0.039215688
-15.199123 20.833023 -2.1002924 0.0078431377
-18.798698 21.116745 0.81846625 0.0078431377
-19.04142 26.145939 0.56160825 0.027450981
-17.202139 26.210445 -1.8230383 0.011764706
-19.115355 26.248049 1.3181103 0.10588235
-19.119642 26.253748 2.6433766 0.086274512
-99.786636 124.51156 -3.7173553 0.10196079
-3.0422738 4.0514712 -2.3268666 0.0039215689
-18.553017 20.986164 -0.48916095 0.039215688
-18.921455 26.172255 -0.93924886 0.043137256
-5.3910651 6.6155949 -2.3667164 0.011764706
-7.6744981 10.504594 -2.5874119 0.0039215689
-17.070999 26.208412 -0.3647081 0.0078431377
-10.819918 13.4475 -2.67363 0.031372551
-11.508517 15.845684 -2.4841552 0.039215688
-18.917509 26.166618 -0.18881592 0.023529412
-14.179475 17.675243 -2.433383 0.047058824
-16.017189 24.578184 -2.7331762 0.043137256
-17.09495 26.245338 0.3623929 0.039215688
-21.616621 27.034399 -2.4165363 0.10980392
-18.894819 26.135447 -2.628047 0.011764706
-18.350351 20.755054 0.80197561 0.0078431377
-18.917374 26.166298 0.56064427 0.011764706
-17.06502 26.199442 -1.8181411 0.011764706
-4.9134769 6.0141215 0.44654205 0
-18.981649 26.255707 1.3151934 0.10588235
-18.990671 26.268042 2.6381826 0.10196079
-17.072601 26.211035 -1.0912547 0.015686275
-4.8769951 6.6067147 1.4821507 0
-3.0281117 4.0616002 -2.3268647 0
-18.790543 26.182316 -0.93725699 0.019607844
-5.3703246 6.6369309 -2.3677921 0.011764706
-7.6446118 10.540435 -2.589761 0.0039215689
-16.947023 26.216866 -0.36399671 0.0078431377
-10.750878 13.456792 -2.6680887 0.031372551
-11.453136 15.885293 -2.484148 0.035294119
-18.337664 20.887306 0.15930478 0.0039215689
-18.781956 26.17013 -0.18836029 0.011764706
-14.142327 17.755388 -2.4376602 0.054901961
-15.9055 24.593245 -2.728703 0.043137256
-21.412832 26.970163 0.7975868 0.0078431377
-16.970846 26.253876 0.36170739 0.039215688
-21.569082 27.168739 -2.4218283 0.039215688
-18.768774 26.152069 -2.6231513 0.011764706
-18.403885 20.963194 0.80756295 0.0078431377
-18.770224 26.153534 0.55898333 0.011764706
-23.873569 27.239876 -2.3178434 0.019607844
-16.936819 26.201237 -1.8141747 0.011764706
-18.848141 26.262747 1.3122762 0.10588235
-10.02682 12.538291 1.959938 0.0039215689
-18.847971 26.262276 2.631037 0.082352944
-18.335878 20.885454 -1.1304632 0.0078431377
-16.950792 26.222887 -1.0892875 0.015686275
-8.3296146 11.500844 2.5739715 0
-2.5857358 3.1071107 -0.09288469 0
-3.0167174 4.0741377 -2.3285537 0
-7.1828184 8.1420727 -0.18904829 0
-18.659731 26.182034 -0.93503278 0.031372551
-5.3506589 6.6572943 -2.3688674 0.011764706
-7.6141438 10.571692 -2.5913255 0.0039215689
-2.225749 2.668977 -0.0007416287 0
-16.823469 26.215128 -0.36319262 0.0078431377
-10.691564 13.473265 -2.6643925 0.035294119
-11.416435 15.945421 -2.4876776 0.031372551
-18.920164 21.700584 0.16506314 0.0039215689
-18.644232 26.159996 -0.18783519 0.011764706
-14.080912 17.79862 -2.4372244 0.054901961
-15.806742 24.61854 -2.725718 0.043137256
-20.580853 26.093142 0.76963133 0.0078431377
-16.84502 26.24884 0.36088184 0.027450981
-15.264718 21.384106 -2.1399853 0.0078431377
-18.101355 20.754627 0.79723006 0.0078431377
-18.644114 26.159695 0.55780959 0.011764706
-23.809229 27.348644 -2.3203914 0.019607844
-16.828386 26.223135 -1.8118372 0.011764706
-18.719389 26.265944 1.3093586 0.10588235
-20.561539 26.068871 -1.5445594 0.0078431377
-18.721624 26.268869 2.6255174 0.082352944
-20.570833 26.080603 -0.77280736 0.011764706
-3.0029655 4.0905843 -2.3319123 0.0039215689
-4.2932415 4.8432522 -0.1123395 0
-18.517372 26.187315 -0.93278044 0.043137256
-5.3209333 6.6732674 -2.3677642 0.011764706
-7.5792432 10.608568 -2.593652 0.0039215689
-20.463331 26.143143 -0.0017323364 0.023529412
-16.701159 26.238678 -0.3626416 0.0078431377
-10.612602 13.477403 -2.6575961 0.035294119
-11.302694 15.911817 -2.4760268 0.035294119
-18.511129 26.178291 -0.18744542 0.011764706
-13.998181 17.830582 -2.4346189 0.054901961
-15.662723 24.594772 -2.7167563 0.043137256
-16.718317 26.265705 0.36031547 0.019607844
-20.401321 26.063791 -2.310668 0.011764706
-18.512104 26.180115 -2.6130083 0.011764706
-18.491514 21.365929 0.81818521 0.0078431377
-18.520208 26.19109 0.55708224 0.011764706
-23.656797 27.377357 -2.3154833 0.019607844
-16.684765 26.213001 -1.8069137 0.011764706
-18.572144 26.264925 1.305981 0.10588235
-18.583651 26.281078 2.6200259 0.098039217
-8.1142282 9.2898731 -0.5001533 0
-16.69425 26.227877 -1.0846289 0.015686275
-8.0653629 11.300028 2.5166156 0
-2.985235 4.094141 -2.3285296 0.0039215689
-17.524397 20.377005 -0.4692944 0.0078431377
-18.396122 26.198952 -0.93102235 0.031372551
-5.301125 6.6934934 -2.3688397 0.011764706
-7.5417743 10.629997 -2.5928628 0.0039215689
-16.582182 26.242655 -0.361931 0.0078431377
-10.5461 13.483939 -2.6520553 0.039215688
-11.233975 15.925995 -2.4724839 0.039215688
-18.352613 21.347208 0.16143979 0.0039215689
-18.387608 26.186607 -0.18706068 0.023529412
-13.96328 17.907948 -2.4388964 0.047058824
-15.566263 24.622528 -2.7141433 0.043137256
-20.300224 26.111532 0.7660597 0.050980393
-16.592876 26.259575 0.35948977 0.039215688
-20.265985 26.067717 -2.305074 0.011764706
-18.674942 21.724731 0.82958293 0.0078431377
-18.38521 26.183035 0.55562955 0.027450981
-16.58077 26.24069 -1.8050418 0.011764706
-20.371758 26.203951 1.9266343 0.10588235
-18.446077 26.270206 1.3032258 0.10588235
-20.276268 26.080902 -1.5368705 0.0078431377
-18.448505 26.273453 2.6132047 0.098039217
-16.579571 26.238632 -1.0828023 0.015686275
-20.280512 26.086267 -0.76874816 0.011764706
-2.9688613 4.1011 -2.3268371 0.0039215689
-17.680716 20.706076 -0.47544178 0.0078431377
-18.259056 26.196789 -0.92868131 0.031372551
-5.2824149 6.7176142 -2.3709939 0.0078431377
-7.504622 10.655802 -2.5928583 0.0039215689
-20.177801 26.141275 -0.001703562 0.023529412
-16.45879 26.248976 -0.36121988 0.0078431377
-10.467702 13.479439 -2.6440537 0.043137256
-11.19412 15.987496 -2.4760132 0.031372551
-18.248289 26.181097 -0.1865586 0.023529412
-13.878905 17.927719 -2.4350319 0.047058824
-15.465494 24.652584 -2.7115295 0.031372551
-16.469425 26.265928 0.35880399 0.019607844
-20.136021 26.087177 -2.3005958 0.011764706
-18.229113 26.153826 -2.5980096 0.011764706
-18.56797 21.752724 0.82819837 0.0078431377
-18.250462 26.184105 0.55431682 0.011764706
-23.609262 27.701303 -2.3292818 0.019607844
-16.446894 26.230135 -1.8003776 0.011764706
-20.156235 26.112829 1.9147924 0.086274512
-18.322426 26.287964 1.3009595 0.10588235
-20.136482 26.087648 -1.5331336 0.0078431377
-18.320385 26.284779 2.6080108 0.098039217
-4.3245478 4.947454 -0.26512468 0
-16.458321 26.248363 -1.0808353 0.015686275
-2.9538069 4.1114764 -2.3268352 0.0039215689
-18.117647 26.197138 -0.92633981 0.043137256
-5.2554216 6.7333889 -2.3699121 0.0078431377
-7.476613 10.698928 -2.5967765 0.0039215689
-16.326761 26.250782 -0.36041486 0.0078431377
-10.399075 13.492081 -2.639127 0.054901961
-11.164639 16.070465 -2.482573 0.035294119
-18.11824 26.197868 -0.18619615 0.019607844
-13.866084 18.047619 -2.4444509 0.047058824
-15.356208 24.678123 -2.7081716 0.043137256
-19.894888 25.968798 0.75772089 0.070588239
-16.339436 26.271179 0.35807231 0.019607844
-19.958101 26.05237 -2.2910917 0.039215688
-18.094769 26.164116 -2.5924628 0.011764706
-18.115879 26.194296 0.55314404 0.011764706
-23.551254 27.839109 -2.3336203 0.019607844
-19.891098 25.963625 1.898535 0.086274512
-18.185225 26.295158 1.2980425 0.12941177
-18.10957 26.185509 -1.6661953 0.015686275
-18.181042 26.288826 2.6018414 0.098039217
-16.353603 26.29443 -1.0802648 0.031372551
-5.0843515 7.2138677 1.5948161 0
-19.841457 25.898846 -0.75903302 0.094117649
-2.9421968 4.1238117 -2.3285241 0.0039215689
-17.994638 26.203777 -0.9244653 0.031372551
-5.2377086 6.7564917 -2.3720663 0.0078431377
-7.4455099 10.729711 -2.598341 0.0039215689
-19.743973 25.948723 -0.0016665624 0.11764706
-16.204111 26.246355 -0.359611 0.0078431377
-10.335209 13.500829 -2.6342008 0.054901961
-11.129166 16.133194 -2.4866078 0.039215688
-17.983953 26.187965 -0.18569474 0.019607844
-13.791775 18.074032 -2.4418721 0.031372551
-15.249332 24.687719 -2.7036991 0.043137256
-19.738743 25.941677 0.75503707 0.090196081
-16.218807 26.270205 0.35733938 0.027450981
-19.840328 26.076591 -2.287452 0.039215688
-17.965237 26.160954 -2.5862663 0.011764706
-17.983862 26.187698 0.55176091 0.011764706
-23.522799 27.993198 -2.340008 0.043137256
-16.269627 26.353622 -1.8010529 0.011764706
-19.723028 25.920692 1.8906436 0.086274512
-18.05065 26.285532 1.2946364 0.10588235
-19.859901 26.102364 -1.5258464 0.015686275
-17.979889 26.182274 -1.6622049 0.015686275
-18.062326 26.302418 2.5972974 0.098039217
-58.084354 69.353676 -3.6862197 0.24705882
-16.268408 26.35149 -1.0803937 0.015686275
-19.716887 25.913017 -0.75753105 0.05882353
-2.9257512 4.1305985 -2.3268316 0.0039215689
-6.3387556 7.4814153 -0.17067391 0
-17.856014 26.196432 -0.92200798 0.031372551
-5.2140908 6.7742777 -2.3720632 0.011764706
-7.4190011 10.771423 -2.6022592 0.0039215689
-19.622068 25.975435 -0.0016533032 0.070588239
-16.089556 26.264698 -0.3590866 0.0078431377
-10.273788 13.517399 -2.6305046 0.054901961
-11.08835 16.194494 -2.4901371 0.035294119
-17.854328 26.193804 -0.18528624 0.019607844
-13.75963 18.162958 -2.4474347 0.039215688
-15.136182 24.696093 -2.6988544 0.031372551
-19.650469 26.013159 0.75514162 0.082352944
-16.106243 26.292019 0.35688591 0.019607844
-19.636627 25.995222 -2.2743201 0.023529412
-17.842535 26.176821 -2.581697 0.011764706
-17.863207 26.206793 0.55086631 0.011764706
-23.486118 28.148407 -2.3461385 0.019607844
-16.138142 26.344952 -1.7966213 0.011764706
-19.694742 26.071964 1.8966982 0.086274512
-17.922955 26.294958 1.2920443 0.12941177
-19.708721 26.091173 -1.5211784 0.015686275
-17.854809 26.194792 -1.6590515 0.015686275
-17.927956 26.302109 2.5911272 0.098039217
-16.151419 26.366659 -1.0787061 0.015686275
-19.616718 25.968431 -0.75714684 0.05882353
-2.9133329 4.143342 -2.3285205 0
-17.731018 26.208363 -0.92024952 0.031372551
-5.188108 6.7888947 -2.3709817 0.0078431377
-7.3879113 10.80657 -2.6046083 0.0039215689
-19.62924 26.174841 -0.0016469641 0.023529412
-10.200563 13.51786 -2.6237333 0.050980393
-11.033959 16.235945 -2.4906354 0.043137256
-17.738247 26.21899 -0.1850179 0.019607844
-13.65575 18.156208 -2.4401417 0.047058824
-15.023145 24.703987 -2.6940095 0.031372551
-19.609703 26.148487 0.75710469 0.05882353
-15.975121 26.282543 0.3560141 0.0078431377
-19.395586 25.861559 -2.2567217 0.011764706
-17.715485 26.185535 -2.5764763 0.011764706
-17.735937 26.215412 0.54976249 0.011764706
-16.015148 26.349377 -1.7931205 0.011764706
-19.670401 26.229769 1.9032178 0.094117649
-17.788713 26.293867 1.2889642 0.10588235
-17.720943 26.193497 -1.6550605 0.015686275
-17.800465 26.311123 2.585933 0.098039217
-16.02006 26.35738 -1.0760409 0.015686275
-19.585663 26.11647 -0.75946474 0.023529412
-2.8968401 4.1500134 -2.326828 0.0039215689
-17.610601 26.226383 -0.91872406 0.031372551
-5.1712475 6.8157978 -2.3742139 0.0078431377
-7.3523197 10.835099 -2.6053882 0.0039215689
-19.487808 26.175198 -0.0016326657 0.023529412
-15.840098 26.265627 -0.35757133 0.0078431377
-10.127465 13.517969 -2.616962 0.043137256
-10.975019 16.270601 -2.490123 0.039215688
-17.597816 26.207062 -0.18449268 0.019607844
-13.594657 18.206505 -2.4405622 0.031372551
-14.918426 24.725054 -2.6906524 0.019607844
-19.477892 26.161657 0.7555365 0.050980393
-15.844278 26.272467 0.35514221 0.0078431377
-19.29096 25.909393 -2.2550354 0.011764706
-17.577543 26.177092 -2.569628 0.011764706
-5.7480593 6.8664203 0.25727877 0
-17.606617 26.220127 0.54858899 0.011764706
-8.2687645 9.9481697 -0.82484752 0
-15.90463 26.373816 -1.7910155 0.011764706
-19.531237 26.233597 1.8985809 0.10588235
-17.665794 26.308781 1.2866974 0.10196079
-17.59618 26.204878 -1.6519074 0.015686275
-17.662083 26.302971 2.5791123 0.098039217
-71.214386 86.900154 -4.5787396 0.24705882
-15.901286 26.368078 -1.0742136 0.015686275
-19.444452 26.116697 -0.75749636 0.011764706
-2.8850591 4.162189 -2.3285172 0.0039215689
-17.481604 26.220858 -0.91650027 0.031372551
-5.1486135 6.832478 -2.3742111 0.0078431377
-7.3185081 10.862262 -2.606168 0.0039215689
-19.351171 26.171547 -0.0016189939 0.023529412
-15.72432 26.269432 -0.35690761 0.0078431377
-10.061525 13.522379 -2.6114209 0.027450981
-10.951651 16.352806 -2.4971888 0.035294119
-17.479902 26.218145 -0.18415493 0.019607844
-13.515369 18.225414 -2.4371266 0.031372551
-14.820079 24.746565 -2.6876674 0.0078431377
-19.341314 26.157991 0.75359607 0.050980393
-15.736644 26.290043 0.35468808 0.0078431377
-19.155329 25.905258 -2.2491622 0.011764706
-17.45763 26.184937 -2.5647337 0.011764706
-17.471006 26.204565 0.54706627 0.011764706
-30.112072 36.901146 -3.0495191 0.047058824
-15.786502 26.374477 -1.787515 0.011764706
-19.40867 26.249516 1.8951055 0.094117649
-17.547567 26.320126 1.2844303 0.1254902
-19.285267 26.082064 -1.5090377 0.0078431377
-17.471699 26.206028 -1.6483359 0.015686275
-17.54175 26.311094 2.5742428 0.098039217
-15.789263 26.378984 -1.0725268 0.015686275
-10.102592 15.068581 3.2935691 0.0039215689
-19.324593 26.135483 -0.75618082 0.011764706
-17.352663 26.224443 -0.91450906 0.050980393
-5.124732 6.8499522 -2.374208 0.0078431377
-7.2827001 10.890564 -2.6069481 0.0039215689
-19.212576 26.173832 -0.0016049137 0.023529412
-15.608174 26.282343 -0.35633662 0.019607844
-9.997962 13.534604 -2.6071098 0.023529412
-10.907571 16.410376 -2.5002129 0.035294119
-17.353149 26.225046 -0.1837699 0.043137256
-13.435269 18.249527 -2.4341187 0.023529412
-14.721485 24.777096 -2.6854255 0.0078431377
-19.209843 26.169952 0.75202787 0.050980393
-15.610276 26.285761 0.35390908 0.0078431377
-19.050686 25.95216 -2.2474761 0.011764706
-17.350805 26.221931 -2.5624437 0.011764706
-17.353086 26.224813 0.54624122 0.027450981
-7.1883082 8.7481394 -0.72142547 0
-15.635581 26.329176 -1.7807574 0.011764706
-19.265175 26.245657 1.8900038 0.10588235
-17.413904 26.317284 1.2813498 0.1254902
-17.342844 26.209633 -1.6447639 0.015686275
-5.0726051 6.7778578 1.0291761 0
-17.419165 26.325052 2.5696993 0.098039217
-71.371521 88.312103 -4.6273918 0.24705882
-15.672748 26.392145 -1.0708394 0.015686275
-19.188488 26.140923 -0.75439888 0.035294119
-2.8579073 4.1843562 -2.3302038 0.0039215689
-17.22826 26.234159 -0.9127506 0.031372551
-5.1007857 6.8673458 -2.3742049 0.0078431377
-7.2510591 10.925325 -2.6092968 0.0039215689
-19.085907 26.191679 -0.0015914871 0.070588239
-9.7199383 16.414017 -0.22231209 0.0078431377
-9.9506512 13.568969 -2.6071036 0.015686275
-10.822051 16.404682 -2.4936383 0.035294119
-17.219995 26.221338 -0.18331487 0.031372551
-13.627948 18.650263 -2.4812467 0.031372551
-14.634899 24.827883 -2.685415 0.0078431377
-19.064442 26.161886 0.74990213 0.050980393
-15.494206 26.298199 0.35336247 0.0078431377
-18.885109 25.914606 -2.2385316 0.011764706
-17.206919 26.201725 -2.5546188 0.011764706
-5.3146114 6.4714012 0.24043606 0
-17.222122 26.224464 0.54499787 0.011764706
-8.1658812 10.031447 -0.82483417 0
-15.539543 26.376249 -1.7802809 0.011764706
-19.12895 26.250828 1.8855991 0.094117649
-17.282644 26.317188 1.2784321 0.1254902
-19.04414 26.13423 -1.5043585 0.0078431377
-17.220707 26.222706 -1.6418204 0.015686275
-17.290154 26.328465 2.5641794 0.098039217
-70.997841 88.479156 -4.6231146 0.24705882
-15.550271 26.394466 -1.068733 0.015686275
-19.038504 26.126307 -0.75205797 0.011764706
-2.8386145 4.1882358 -2.3268209 0.0039215689
-17.092922 26.236208 -0.91064245 0.043137256
-5.0800743 6.8917732 -2.3763585 0.0078431377
-7.2109675 10.951348 -2.609292 0.0039215689
-18.92679 26.17325 -0.0015760679 0.023529412
-15.363565 26.295515 -0.35500765 0.0078431377
-9.9031572 13.608078 -2.6077123 0.015686275
-10.772625 16.460417 -2.4961567 0.043137256
-17.086861 26.226692 -0.18290603 0.019607844
-13.109472 18.072916 -2.3981075 0.023529412
-14.54181 24.877426 -2.6850321 0.0078431377
-18.931108 26.179131 0.74842733 0.050980393
-15.363636 26.295488 0.352584 0.0078431377
-18.745781 25.921581 -2.2332158 0.011764706
-17.073977 26.207218 -2.5490725 0.011764706
-21.483292 26.859402 0.9968099 0.019607844
-17.093323 26.236549 0.54396415 0.011764706
-22.0494 27.572067 -2.2592876 0.019607844
-15.410743 26.377256 -1.776547 0.011764706
-18.99534 26.268379 1.8818922 0.10588235
-17.155695 26.332884 1.2761658 0.14509805
-17.087616 26.228138 -1.6382478 0.015686275
-17.156744 26.334259 2.5586605 0.098039217
-15.425378 26.402372 -1.0667657 0.015686275
-18.914627 26.156448 -0.75092775 0.011764706
-2.8249257 4.2037406 -2.3301797 0
-16.966227 26.244534 -0.90885812 0.043137256
-5.0620055 6.9214954 -2.3806477 0.011764706
-7.1783085 10.989111 -2.6124036 0.0039215689
-18.802502 26.196085 -0.00153559 0.023529412
-15.235182 26.28936 -0.35417891 0.0078431377
-9.8550711 13.645191 -2.6082978 0.019607844
-10.680188 16.447222 -2.4885483 0.047058824
-16.966665 26.245077 -0.18258858 0.019607844
-13.53065 18.801229 -2.4884892 0.031372551
-14.442317 24.910107 -2.6831379 0.0078431377
-18.799849 26.192228 0.74697942 0.050980393
-15.249203 26.313608 0.35215494 0.0078431377
-18.650242 25.982885 -2.2328978 0.011764706
-16.949629 26.218981 -2.5444772 0.039215688
-21.45615 27.021336 1.0001054 0.019607844
-16.964458 26.241497 0.54288614 0.027450981
-6.8297186 8.4905529 -0.69425821 0
-9.6655626 16.597303 -1.1158314 0.0039215689
-18.849915 26.26226 1.8768176 0.10588235
-17.020041 26.327991 1.2731113 0.1254902
-16.956667 26.229774 -1.6346501 0.015686275
-17.027643 26.3396 2.5534921 0.098039217
-10.72738 14.867537 4.8915906 0.0039215689
-10.01752 15.413255 3.3380966 0.0039215689
-18.778805 26.162973 -0.74921179 0.035294119
-2.8070719 4.2065487 -2.326797 0.0039215689
-20.607115 26.123587 -0.58113897 0.023529412
-16.853317 26.259766 -0.9074499 0.031372551
-5.0390215 6.9378233 -2.3806448 0.0078431377
-7.1418228 11.012435 -2.6123991 0.0039215689
-18.680857 26.208904 -0.0015229442 0.070588239
-15.120172 26.290674 -0.35351545 0.019607844
-9.8006287 13.664474 -2.6058319 0.015686275
-10.587212 16.421886 -2.4794486 0.047058824
-20.568008 26.073578 0.19084343 0.0078431377
-16.845148 26.246799 -0.18220435 0.019607844
-13.488902 18.874792 -2.4923379 0.031372551
-14.36949 24.974747 -2.6849873 0.0078431377
-18.662048 26.182201 0.74494565 0.050980393
-9.3724136 16.211109 0.21632756 0.0039215689
-18.487888 25.936697 -2.2236755 0.023529412
-16.817608 26.20401 -2.5376298 0.011764706
-20.577051 26.084984 0.96292466 0.019607844
-16.840809 26.239847 0.54171169 0.027450981
-20.592768 26.105539 -2.1276672 0.019607844
-15.119422 26.289656 -1.7637058 0.011764706
-18.725798 26.27206 1.8731096 0.094117649
-16.90472 26.34005 1.2710067 0.1254902
-18.519789 25.98163 -1.4843688 0.078431375
-16.83954 26.238274 -1.6317073 0.015686275
-16.903786 26.338337 2.5479717 0.11372549
-15.125846 26.300772 -1.0584785 0.015686275
-5.2562346 8.0511045 1.7397792 0
-18.643414 26.156141 -0.74724424 0.011764706
-2.7846234 4.2036185 -2.3200331 0.0039215689
-16.720968 26.253771 -0.90522599 0.043137256
-5.0169859 6.958077 -2.3817203 0.0078431377
-7.1075292 11.043482 -2.6139634 0.0039215689
-18.545563 26.211319 -0.0015092962 0.023529412
-15.008617 26.308029 -0.35303798 0.0078431377
-9.7437811 13.68522 -2.6033659 0.015686275
-10.523467 16.448235 -2.4779263 0.050980393
-16.719238 26.250891 -0.18181963 0.019607844
-13.418363 18.914806 -2.4914727 0.031372551
-18.540653 26.204199 0.74374902 0.050980393
-18.3743 25.967978 -2.2208726 0.011764706
-16.698351 26.218298 -2.5333865 0.011764706
-16.714926 26.243931 0.54060757 0.027450981
-20.445129 26.104362 -2.1217682 0.019607844
-15.002006 26.29664 -1.7606705 0.011764706
-18.585762 26.268202 1.8682396 0.10588235
-16.780645 26.347771 1.2685767 0.1254902
-16.779797 26.34618 2.5431025 0.098039217
-15.002459 26.297291 -1.0562328 0.050980393
-18.510616 26.161715 -0.74555582 0.011764706
-2.7749705 4.2225456 -2.3251028 0.0039215689
-20.282736 26.09222 -0.57719821 0.023529412
-16.586397 26.253437 -0.90311801 0.031372551
-4.9914455 6.9759531 -2.381717 0.0078431377
-7.0649166 11.065669 -2.613174 0.0039215689
-18.412756 26.226152 -0.0014954607 0.023529412
-9.6935511 13.720378 -2.6033597 0.023529412
-10.463104 16.486229 -2.4779189 0.050980393
-20.283094 26.092558 0.18994276 0.0078431377
-16.591034 26.260693 -0.18145773 0.043137256
-13.355763 18.973186 -2.4927499 0.031372551
-14.182611 25.062122 -2.6834781 0.0078431377
-18.396448 26.202627 0.74180925 0.039215688
-18.221941 25.952854 -2.2138822 0.023529412
-20.333645 26.157871 0.96027535 0.082352944
-20.295626 26.109159 -2.1161246 0.019607844
-14.868404 26.284807 -1.7562391 0.011764706
-18.450527 26.279997 1.8643003 0.10588235
-16.645742 26.347679 1.2656595 0.1254902
-16.589821 26.259041 -1.6256106 0.015686275
-16.651346 26.356371 2.538234 0.098039217
-20.259245 26.061937 -1.3433986 0.015686275
-9.4251604 16.578381 -0.66472244 0.023529412
-18.373428 26.169874 -0.74386686 0.035294119
-2.7666969 4.2405353 -2.3301725 0.0039215689
-16.471785 26.263739 -0.90159345 0.031372551
-4.9748621 7.001545 -2.3849497 0.011764706
-7.034399 11.098604 -2.6155231 0.0039215689
-18.271048 26.207708 -0.0014819038 0.047058824
-9.2332125 16.362965 -0.21893655 0.015686275
-9.6367521 13.735773 -2.6002791 0.031372551
-10.408378 16.520412 -2.4779122 0.050980393
-16.474274 26.267597 -0.18112029 0.019607844
-13.299564 19.026754 -2.4940274 0.031372551
-11.736892 20.862768 -2.2298138 0.027450981
-18.263937 26.197302 0.73996127 0.027450981
-9.3693953 16.607603 0.22034635 0.011764706
-18.131239 26.006151 -2.2133131 0.011764706
-16.445389 26.221645 -2.5226209 0.011764706
-16.472132 26.264015 0.53867787 0.027450981
-20.150621 26.09988 -2.1099706 0.019607844
-14.769512 26.312607 -1.7548327 0.011764706
-18.329189 26.291361 1.8608243 0.10588235
-16.526604 26.35141 1.263229 0.1254902
-16.460443 26.245655 -1.6214112 0.015686275
-16.536472 26.367016 2.5340149 0.10980392
-14.769907 26.313166 -1.0527189 0.06666667
-7.9702125 12.601371 2.7053895 0
-18.243303 26.167765 -0.74208587 0.011764706
-2.7537789 4.2528081 -2.3318613 0.0039215689
-19.840523 25.882006 -0.569552 0.14117648
-16.354792 26.27981 -0.90018481 0.031372551
-4.950388 7.018425 -2.3849466 0.0078431377
-6.9914889 11.115973 -2.6139491 0.0039215689
-18.140934 26.21484 -0.0014686091 0.023529412
-9.577549 13.752598 -2.5971978 0.035294119
-10.338131 16.535944 -2.474874 0.050980393
-19.857811 25.904579 0.18760754 0.094117649
-16.340445 26.256432 -0.18064232 0.031372551
-13.224051 19.059509 -2.4923048 0.031372551
-18.142929 26.217609 0.73876441 0.027450981
-18.112652 26.17408 -2.2222345 0.023529412
-16.332809 26.244528 -2.5193541 0.027450981
-19.871672 25.922651 0.94669908 0.082352944
-16.348825 26.269865 0.53764331 0.039215688
-19.890078 25.947325 -2.092042 0.019607844
-18.194324 26.292206 1.8564194 0.10980392
-16.407213 26.364285 1.2611247 0.1254902
-18.112225 26.173325 -1.4807848 0.0078431377
-16.347734 26.268526 -1.6193056 0.015686275
-8.0510082 11.530167 1.7168964 0
-16.408716 26.366467 2.5284948 0.094117649
-19.841637 25.883595 -1.3272429 0.035294119
-18.1224 26.188 -0.74086338 0.011764706
-2.7389159 4.26195 -2.3318596 0.0039215689
-19.711466 25.899611 -0.56842154 0.094117649
-16.281759 26.366978 -0.90122163 0.043137256
-4.9280276 7.0383983 -2.3860219 0.0078431377
-6.9608407 11.153245 -2.6170828 0.0039215689
-18.022276 26.237902 -0.0014559024 0.023529412
-9.5094452 13.756112 -2.5916567 0.019607844
-10.272057 16.557949 -2.4728463 0.054901961
-19.704546 25.890333 0.18701795 0.14117648
-16.213173 26.254883 -0.18023442 0.031372551
-13.155203 19.101822 -2.491868 0.031372551
-18.008495 26.217558 0.73700988 0.019607844
-17.985209 26.183952 -2.2177567 0.011764706
-16.270256 26.348526 -2.5239005 0.027450981
-19.797949 26.013731 0.94752425 0.082352944
-16.223602 26.271765 0.53653896 0.070588239
-19.847536 26.079826 -2.0971494 0.019607844
-18.059689 26.292421 1.8520143 0.10196079
-16.277508 26.359608 1.2582066 0.1254902
-17.986986 26.186424 -1.4779799 0.023529412
-16.283262 26.368746 2.5233002 0.10980392
-19.722244 25.913994 -1.3252759 0.035294119
-7.0453277 11.290149 2.4134235 0
-17.983562 26.181271 -0.73889554 0.035294119
-2.7202554 4.2648435 -2.3284769 0.0039215689
-19.58733 25.923033 -0.56743091 0.1882353
-16.16678 26.385618 -0.89992952 0.0078431377
-4.9055867 7.0583014 -2.3870969 0.0078431377
-6.9157548 11.166973 -2.6147244 0.0039215689
-17.885736 26.233953 -0.0014423535 0.019607844
-14.409814 26.310635 -0.34962523 0.019607844
-9.4480753 13.769136 -2.5879607 0.031372551
-10.201831 16.572912 -2.4698083 0.054901961
-19.61165 25.955307 0.18700631 0.10980392
-16.098576 26.273268 -0.17996655 0.019607844
-13.083986 19.140593 -2.491003 0.031372551
-11.483578 20.920193 -2.2230945 0.0078431377
-17.874279 26.21689 0.73525536 0.019607844
-14.417518 26.324673 0.34762883 0.023529412
-17.853439 26.186646 -2.2127209 0.011764706
-16.140915 26.343388 -2.5180297 0.011764706
-19.750229 26.139788 0.94962788 0.05882353
-16.115181 26.300442 0.53599238 0.082352944
-19.718042 26.097422 -2.0930424 0.039215688
-17.931988 26.301945 1.8483067 0.10196079
-16.152182 26.36117 1.255614 0.1254902
-17.852917 26.185734 -1.4744302 0.0078431377
-16.155914 26.36706 2.5177801 0.10980392
-19.59808 25.937479 -1.322983 0.035294119
-14.407733 26.306953 -1.046401 0.05882353
-17.860682 26.197075 -0.73757994 0.011764706
-2.7016044 4.2676606 -2.3250937 0.0039215689
-16.043596 26.390091 -0.89817148 0.0078431377
-4.8809152 7.0749402 -2.3870938 0.0078431377
-6.8807783 11.197322 -2.6162887 0.0039215689
-17.753895 26.236021 -0.0014290639 0.019607844
-14.298919 26.325115 -0.34914798 0.054901961
-9.4065609 13.811434 -2.5897996 0.035294119
-10.150061 16.618177 -2.4713168 0.050980393
-19.599798 26.129011 0.18778078 0.031372551
-15.971641 26.270636 -0.17955872 0.019607844
-13.019305 19.189009 -2.4914231 0.031372551
-11.408588 20.956203 -2.2227139 0.0078431377
-17.749199 26.228893 0.73387253 0.027450981
-14.325531 26.374397 0.34763983 0.0039215689
-16.028265 26.364992 -2.5147631 0.011764706
-19.620632 26.156836 0.94777972 0.05882353
-15.979893 26.284176 0.5345394 0.054901961
-19.524252 26.028017 -2.0820248 0.019607844
-14.296587 26.321091 -1.7419946 0.054901961
-17.802202 26.307589 1.8443663 0.10980392
-16.035288 26.375881 1.2536722 0.12156863
-17.719059 26.184437 -1.4708804 0.0078431377
-16.040817 26.38563 -1.6161306 0.015686275
-16.030827 26.368229 2.5125852 0.10980392
-19.507416 26.005295 -1.3229716 0.015686275
-14.310123 26.346085 -1.0459709 0.078431375
-17.726749 26.195753 -0.7357986 0.023529412
-2.6885488 4.2797318 -2.3267825 0.0039215689
-19.465324 26.138643 -0.56915635 0.023529412
-15.918526 26.390594 -0.89629722 0.0078431377
-4.8540487 7.0882859 -2.3860126 0.0078431377
-6.8416457 11.220828 -2.6162839 0.0039215689
-17.62669 26.244143 -0.0014160261 0.019607844
-9.1119804 16.829897 -0.22300565 0.035294119
-9.3560953 13.840454 -2.5891786 0.043137256
-10.11032 16.683708 -2.4758563 0.047058824
-19.458504 26.129295 0.18730675 0.050980393
-15.857242 26.288027 -0.17929091 0.019607844
-12.952236 19.233896 -2.4914148 0.031372551
-17.619812 26.233685 0.7323038 0.019607844
-9.1308594 16.865166 0.22168313 0.0078431377
-17.605978 26.21349 -2.2046034 0.011764706
-15.895186 26.351917 -2.5082409 0.011764706
-19.467371 26.141151 0.94476914 0.039215688
-15.855184 26.284441 0.53343493 0.070588239
-19.345428 25.976835 -2.0725429 0.019607844
-14.185807 26.335167 -1.7396574 0.062745102
-17.67038 26.309322 1.8401936 0.10980392
-15.908228 26.37295 1.2509168 0.12156863
-17.589857 26.189173 -1.4677031 0.023529412
-15.90759 26.372463 -1.6119308 0.011764706
-15.918207 26.389372 2.5093427 0.10980392
-19.418884 26.075998 -1.323123 0.035294119
-14.182294 26.328428 -1.0433065 0.039215688
-17.595263 26.197142 -0.73411041 0.035294119
-2.6754425 4.2917633 -2.3284714 0.0039215689
-19.331356 26.147963 -0.56788599 0.047058824
-15.797738 26.397417 -0.89465576 0.0078431377
-4.8356528 7.1143789 -2.3892446 0.0039215689
-6.8044386 11.247569 -2.6170638 0.0039215689
-17.490829 26.238346 -0.0014026104 0.019607844
-14.084842 26.366848 -0.34838003 0.10196079
-9.2968197 13.856101 -2.5860975 0.047058824
-10.062151 16.735512 -2.478375 0.047058824
-19.329298 26.145031 0.1869483 0.05882353
-15.732718 26.287737 -0.17890647 0.019607844
-12.876242 19.265278 -2.4896927 0.031372551
-11.18375 20.886612 -2.2070794 0.015686275
-17.490618 26.23789 0.73073494 0.019607844
-14.084912 26.366825 0.34626675 0.0039215689
-17.472534 26.211113 -2.1992886 0.011764706
-15.770548 26.35194 -2.5030212 0.011764706
-19.328672 26.144045 0.94245583 0.039215688
-15.7368 26.29447 0.53253967 0.070588239
-19.155401 25.908628 -2.0617814 0.019607844
-14.063908 26.32761 -1.7359245 0.074509807
-17.547588 26.323772 1.8369505 0.12156863
-15.785472 26.376318 1.2484869 0.14117648
-17.460852 26.193317 -1.4645261 0.0078431377
-15.79505 26.393034 -1.6098254 0.011764706
-10.911546 16.295332 2.3982711 0.0039215689
