# .PCD v0.7 - Point Cloud Data file format
VERSION 0.7
FIELDS x y z intensity
SIZE 4 4 4 4
TYPE F F F F
COUNT 1 1 1 1
WIDTH 1107
HEIGHT 1
VIEWPOINT 0 0 0 1 0 0 0
POINTS 1107
DATA ascii
-26.795034 20.324053 0.78206062 0.0078431377
-6.2500362 5.7836123 0.09902548 0.11764706
-26.552553 20.140154 -2.3309309 0.039215688
-22.099117 18.53047 -2.3547893 0.015686275
-48.002712 32.843964 1.6918056 0.062745102
-47.783176 40.066921 1.0875278 0.06666667
-29.821533 20.40423 -2.3163359 0.019607844
-6.2134991 5.7498083 -0.49312818 0.3019608
-31.889088 24.187922 -1.8650212 0.011764706
-31.909447 26.756586 -2.1830337 0.039215688
-6.2319751 5.7669029 -0.29661578 0.14901961
-6.5252728 5.4715271 1.5525038 0
-3.7496681 3.1676514 -2.2889578 0.0039215689
-104.47856 72.048981 -2.2172835 0.24705882
-73.120552 61.770569 -2.7871659 0.14509805
-6.3993192 4.8909583 -2.2548366 0.05882353
-9.0637398 7.656857 -2.373184 0.0039215689
-46.704922 35.696136 -0.00090635038 0.062745102
-6.2083149 5.7873878 -0.098918855 0.070588239
-12.413562 9.4875898 -2.4309659 0
-16.122742 13.620139 -2.6867898 0.0039215689
-48.033165 33.123917 0.33819729 0.039215688
-47.908272 40.471798 -0.36544782 0.050980393
-18.292015 13.980435 -2.4802833 0.015686275
-46.047337 35.193539 1.3477175 0.031372551
-6.2346478 5.811934 0.099118724 0.062745102
-26.510263 20.261564 -2.3337209 0.039215688
-21.985373 18.572748 -2.3499057 0.015686275
-46.450195 32.03228 1.641217 0.05882353
-48.289814 40.794094 1.1024555 0.06666667
-29.657825 20.452204 -2.3094261 0.043137256
-6.2040682 5.7834334 -0.4940584 0.082352944
-31.832531 26.891399 -2.1844983 0.039215688
-6.2107978 5.7897048 -0.29661554 0.074509807
-16.950428 12.955058 -0.49675268 0.0039215689
-3.7330661 3.1760225 -2.2855768 0.0039215689
-104.51218 72.611763 -2.2233601 0.24705882
-6.3669462 4.9015183 -2.2494447 0.062745102
-9.054882 7.7036977 -2.3778908 0.0039215689
-102.17112 78.65493 -0.0020070919 0.24705882
-6.1851583 5.8062849 -0.098871991 0.070588239
-12.396028 9.5429192 -2.4340403 0
-16.0751 13.676333 -2.6867893 0.0039215689
-48.206326 33.492218 0.34023857 0.039215688
-48.357735 41.141613 -0.36996824 0.050980393
-18.186377 14.000533 -2.4725707 0.015686275
-6.1500797 5.7733626 -0.78753048 0.054901961
-6.1968255 5.8172359 0.098839931 0.05882353
-26.43305 20.349112 -2.3331623 0.06666667
-21.847532 18.587376 -2.3420923 0.0078431377
-46.521976 32.321983 1.6477307 0.05882353
-48.759396 41.483311 1.1164763 0.06666667
-29.560024 20.537382 -2.3073781 0.019607844
-6.1721969 5.7941213 -0.4931277 0.078431375
-9.1762466 7.0641923 0.67424911 0
-26.376877 22.4408 1.4104002 0.019607844
-31.848167 24.517857 -1.8728392 0.027450981
-31.787149 27.043764 -2.1878481 0.039215688
-6.1818066 5.8031402 -0.29619631 0.082352944
-8.6109629 7.3259811 2.0611515 0
-3.730773 3.1954591 -2.290648 0.0039215689
-104.45105 73.084045 -2.2272007 0.24705882
-72.394737 62.006752 -2.7755189 0.14509805
-6.3415236 4.915525 -2.2462096 0.047058824
-9.0203495 7.726028 -2.3755369 0.0039215689
-27.390928 21.231537 -0.00052531488 0.023529412
-6.2152891 5.8734655 -0.099664383 0.086274512
-12.370562 9.5888157 -2.4352701 0
-16.059795 13.755378 -2.6918399 0.019607844
-102.23994 71.536903 0.7232582 0.10980392
-18.111557 14.038836 -2.468714 0.031372551
-6.1337957 5.7964611 -0.78790212 0.082352944
-6.6973572 5.1913228 0.1970638 0
-6.2298274 5.8872027 0.099677235 0.074509807
-26.302349 20.387764 -2.3275797 0.06666667
-22.454939 19.232872 -2.4140315 0.023529412
-48.750336 34.110424 1.7306525 0.062745102
-48.32996 41.39502 1.1097822 0.06666667
-29.478678 20.626143 -2.3063538 0.043137256
-6.2022882 5.8611841 -0.49708197 0.094117649
-31.779324 24.633131 -1.8735832 0.027450981
-31.727627 27.175009 -2.1899412 0.039215688
-15.660387 13.41324 1.6829702 0.0039215689
-48.095192 33.65205 -2.392391 0.074509807
-6.2235432 5.8812675 -0.29912895 0.10588235
-5.9853868 4.6394386 2.0290411 0
-3.7162917 3.2067437 -2.2889576 0.0039215689
-2.7193966 1.9176401 -0.058116369 0
-72.257797 62.350037 -2.7790091 0.14509805
-6.2931085 4.9150262 -2.2354259 0.027450981
-9.00385 7.7692876 -2.3786747 0.0039215689
-11.881646 9.2797346 -0.00021780384 0
-6.2139997 5.9155116 -0.099990509 0.094117649
-12.354023 9.6486883 -2.4389594 0
-15.9582 13.77008 -2.6832521 0.019607844
-46.57938 40.192551 -0.35849705 0.047058824
-18.022371 14.07575 -2.4635723 0.023529412
-6.1702023 5.8738246 -0.79533863 0.10588235
-27.998903 21.867537 0.82614088 0.0078431377
-6.2313848 5.9320588 0.10004952 0.070588239
-26.158266 20.429998 -2.321439 0.094117649
-22.272615 19.218676 -2.4019866 0.023529412
-46.504322 32.793453 1.6551762 0.062745102
-48.271778 41.652874 1.111946 0.06666667
-29.376781 20.715645 -2.304306 0.043137256
-6.2039027 5.9059038 -0.49894267 0.098039217
-48.42675 41.786587 2.6049554 0.10588235
-31.732912 24.783875 -1.876189 0.011764706
-31.65201 27.311995 -2.1916151 0.039215688
-6.2164226 5.91782 -0.29982695 0.098039217
-3.7078114 3.2220738 -2.2906477 0.0039215689
-47.989918 34.092499 -1.0284479 0.10196079
-83.103699 72.216393 -3.2058146 0.15686275
-6.2577481 4.9226737 -2.2289553 0.050980393
-8.9766741 7.8006697 -2.3786743 0.0039215689
-26.615816 20.937321 -0.00051132997 0.023529412
-6.2135234 5.9565415 -0.10031664 0.094117649
-12.329587 9.6990852 -2.440804 0
-15.868103 13.789262 -2.6761799 0.023529412
-47.631218 33.837666 0.33866552 0.039215688
-48.244293 41.923859 -0.37243423 0.050980393
-17.938742 14.111526 -2.4588587 0.031372551
-6.1726599 5.917376 -0.79831302 0.16078432
-6.2366242 5.9786854 0.1004683 0.05882353
-26.077377 20.513779 -2.320601 0.094117649
-22.211411 19.301537 -2.402637 0.023529412
-47.559734 33.786877 1.6969284 0.062745102
-46.867241 40.727192 1.0828625 0.06666667
-29.281509 20.80188 -2.3025141 0.019607844
-6.2005439 5.9441032 -0.50033808 0.10196079
-8.8914871 6.9944797 0.65867281 0
-48.129745 41.824287 2.5968184 0.10588235
-27.328106 21.497658 -1.6201808 0.0078431377
-47.875965 34.011555 -2.3935289 0.074509807
-6.2072697 5.9505491 -0.30038533 0.094117649
-3.6883581 3.2278354 -2.2855763 0.0039215689
-6.8103437 4.8739953 -0.14629634 0
-6.216373 4.9253511 -2.2203283 0.05882353
-8.9611979 7.8422894 -2.3818121 0.0039215689
-6.2214699 6.0059743 -0.10078264 0.082352944
-12.314243 9.756793 -2.4444933 0
-15.772098 13.802758 -2.6680968 0.031372551
-48.073582 42.070938 -0.37224612 0.050980393
-17.876907 14.164181 -2.4571443 0.031372551
-6.244494 6.0281987 0.10093359 0.05882353
-25.977467 20.582382 -2.3180885 0.094117649
-22.134901 19.371077 -2.4016595 0.023529412
-47.204155 33.782822 1.6884397 0.062745102
-46.703728 40.872108 1.0823758 0.06666667
-29.101597 20.827303 -2.2940691 0.043137256
-6.1969957 5.9823527 -0.50173354 0.10196079
-9.7746859 7.7446346 0.72609627 0
-47.983463 41.992043 2.5968201 0.10588235
-6.0162063 4.7667398 -0.35764673 0
-31.676992 27.721704 -2.2066903 0.039215688
-1.937088 1.386328 -0.097065747 0
-6.2152219 5.9999452 -0.30178165 0.094117649
-3.6797884 3.2430868 -2.2872667 0.0039215689
-6.2422371 5.5014014 -0.24225819 0
-6.1600041 4.9157848 -2.2063093 0.035294119
-8.924942 7.8657417 -2.3794582 0.0039215689
-26.769148 21.362139 -0.00051576999 0.023529412
-6.2176762 6.0443821 -0.10106214 0.082352944
-12.295559 9.8120432 -2.4475679 0
-15.685122 13.823621 -2.6615298 0.043137256
-102.25995 73.72599 0.73071039 0.10980392
-17.805597 14.209128 -2.4541447 0.054901961
-17.202717 16.723288 -2.2399189 0.027450981
-26.380587 21.052057 0.7848556 0.0078431377
-6.2434897 6.0694742 0.10125937 0.062745102
-25.871157 20.64555 -2.3150175 0.082352944
-22.076126 19.456129 -2.4026356 0.023529412
-28.944536 20.868059 -2.287415 0.043137256
-6.1961193 6.0234308 -0.50336158 0.090196081
-16.593208 14.623899 0.90077746 0.0078431377
-31.583036 27.834749 -2.2068985 0.039215688
-1.9387213 1.3977557 -0.097391486 0
-6.2085738 6.0355353 -0.30247971 0.094117649
-3.6744368 3.260083 -2.2906475 0.0039215689
-6.1256533 4.9217105 -2.1998391 0.031372551
-8.9164124 7.910912 -2.384165 0.0039215689
-6.2176089 6.084549 -0.10138828 0.074509807
-12.281441 9.8676167 -2.4512575 0
-15.576865 13.820254 -2.6509213 0.035294119
-102.24148 74.229187 0.73233575 0.10980392
-17.770784 14.27806 -2.455858 0.023529412
-17.187016 16.819239 -2.2451241 0.015686275
-26.528845 21.314747 0.79136562 0.0078431377
-6.2290463 6.0957398 0.10135262 0.047058824
-25.786999 20.718733 -2.3136215 0.06666667
-22.00552 19.523933 -2.4019835 0.023529412
-48.422619 35.155704 1.7405438 0.062745102
-6.2765107 5.5686917 0.14635114 0.098039217
-28.791187 20.902952 -2.280761 0.043137256
-6.1932349 6.0607009 -0.50475705 0.082352944
-26.204769 21.054358 1.9571521 0.0078431377
-47.696526 42.317665 2.5968232 0.10588235
-6.211381 6.0784569 -0.30359674 0.082352944
-3.6522214 3.2632282 -2.2838852 0.0039215689
-15.876115 11.6112 -0.34361735 0.0039215689
-6.0844808 4.9236779 -2.1912117 0.043137256
-8.8945923 7.9472151 -2.3857341 0.0039215689
-12.259212 9.920373 -2.453717 0
-15.469349 13.821671 -2.6408181 0.043137256
-48.167477 35.227886 0.34590372 0.039215688
-6.248929 5.5833282 -0.0488129 0.13725491
-17.705376 14.327497 -2.4537153 0.031372551
-26.286419 21.271385 0.78634501 0.0078431377
-25.742437 20.831215 -2.3161325 0.082352944
-21.937233 19.60063 -2.4019828 0.023529412
-47.41856 34.680149 1.7087955 0.062745102
-6.2719455 5.6038909 0.14670011 0.082352944
-28.634274 20.942055 -2.274107 0.019607844
-26.603575 21.528053 -1.5946702 0.0078431377
-13.110385 9.5884514 -0.66197687 0.0039215689
-26.336128 21.311625 -0.78884977 0.011764706
-3.6461976 3.2808075 -2.2872663 0.0039215689
-6.2298393 5.605505 -0.24400391 0.16078432
-6.0493402 4.9302874 -2.1847415 0.039215688
-8.8697119 7.9808402 -2.3865182 0.0039215689
-26.715183 21.773125 -0.00051676598 0.023529412
-26.854662 26.649551 -0.4409934 0.011764706
-12.22144 9.9606094 -2.4531016 0
-15.364961 13.82516 -2.6312201 0.050980393
-48.288952 35.576134 0.34766695 0.039215688
-6.2531881 5.6265121 -0.048999153 0.14117648
-17.649086 14.384192 -2.452858 0.031372551
-17.255751 17.123978 -2.2696636 0.0078431377
-6.5034256 5.3003507 0.19511235 0
-17.375061 17.242346 0.28462997 0.0078431377
-25.644815 20.900784 -2.3138988 0.094117649
-21.880529 19.687757 -2.4032843 0.023529412
-46.354034 34.150604 1.6747211 0.062745102
-6.2701836 5.6418014 0.14711884 0.094117649
-28.432442 20.94718 -2.2638705 0.062745102
-26.816694 26.611893 -2.2007537 0.015686275
-7.317565 5.9638782 0.5496344 0
-6.6729751 6.0042253 0.36559629 0
-6.2298698 5.6055346 -0.43931225 0.23529412
-9.6111259 8.6479168 1.0552822 0
-26.635805 26.432377 -1.310943 0.019607844
-8.9894285 8.0885124 2.2046368 0
-3.6314631 3.2917142 -2.2855756 0.0039215689
-6.2270255 5.6444111 -0.24470173 0.15294118
-6.0133677 4.9377589 -2.1782706 0.035294119
-8.8374958 8.0106602 -2.3857327 0.0039215689
-26.652145 26.643169 -0.43926477 0.011764706
-12.221508 10.035435 -2.4604797 0.011764706
-15.28185 13.852069 -2.6256618 0.035294119
-47.445259 35.223568 0.34252706 0.039215688
-6.2443781 5.6601386 -0.049091689 0.13333334
-17.565512 14.423543 -2.4485707 0.039215688
-47.869194 39.306698 1.4403546 0.043137256
-26.671963 26.66297 0.43851915 0.0078431377
-25.580372 21.004763 -2.3150117 0.054901961
-21.828903 19.786564 -2.4055598 0.015686275
-47.18523 35.03051 1.7093852 0.062745102
-6.2613153 5.675488 0.14739853 0.090196081
-31.419548 23.326029 -2.5085003 0.023529412
-26.603188 26.59425 -2.1912129 0.015686275
-26.488337 21.750282 1.9955189 0.0078431377
-46.02623 41.719887 2.5299351 0.10588235
-6.2152023 5.6336961 -0.43973038 0.20784314
-13.121032 11.893383 1.4454353 0
-26.623566 26.614611 -1.3151293 0.019607844
-5.2277312 4.7385979 1.2863452 0
-3.6178486 3.301295 -2.2838848 0.0039215689
-89.271614 66.736 -1.9472558 0.24705882
-6.2230411 5.6785049 -0.24528363 0.13725491
-5.9672723 4.9331303 -2.1674869 0.039215688
-8.8340616 8.0610733 -2.3920085 0.0039215689
-26.470608 26.637783 -0.43772519 0.011764706
-12.191207 10.078427 -2.4610944 0.0039215689
-6.1758323 5.6354361 -1.0642962 0.0078431377
-46.501629 34.762806 0.33654648 0.039215688
-6.2433023 5.6969919 -0.049231332 0.12156863
-17.54517 14.50452 -2.4524264 0.039215688
-17.7197 17.831629 -2.3470025 0.047058824
-47.58448 39.33783 1.4357066 0.043137256
-26.495995 26.663319 0.43707851 0.0078431377
-25.50135 21.081852 -2.3141739 0.06666667
-46.972721 35.114967 1.7058973 0.062745102
-6.2601852 5.7123952 0.14781722 0.090196081
-26.438854 26.605848 -2.1849315 0.015686275
-26.533016 21.934689 2.0043545 0.0078431377
-45.605598 37.701935 -2.75721 0.027450981
-6.2141895 5.6704302 -0.4409866 0.19607843
-6.0596905 4.5299921 -0.3083362 0
-3.6089725 3.3163569 -2.2855754 0.0078431377
-88.801704 66.869186 -1.9420831 0.24705882
-6.2267337 5.7218356 -0.24621479 0.13725491
-5.9322562 4.9391432 -2.1610169 0.050980393
-8.7914286 8.0785923 -2.3880856 0.0039215689
-25.790989 21.473267 -0.00049755769 0.023529412
-26.290369 26.641766 -0.43627879 0.011764706
-12.17114 10.133565 -2.4641688 0.0078431377
-46.530182 35.038002 0.33763739 0.039215688
-6.2351584 5.7295761 -0.049324341 0.11764706
-17.476097 14.550408 -2.4498553 0.047058824
-17.654552 17.890543 -2.3466301 0.039215688
-26.73056 22.255537 0.80885482 0.0078431377
-26.293192 26.644615 0.43526581 0.0078431377
-25.32028 21.081381 -2.3044047 0.023529412
-6.2028389 5.6998825 -0.687801 0.062745102
-47.130943 35.490376 1.716133 0.062745102
-6.251987 5.7450371 0.14809646 0.094117649
-27.943666 21.042067 -2.2423701 0.062745102
-26.258869 26.609865 -2.1777194 0.015686275
-7.1270761 5.9339213 -0.43211934 0
-6.2061234 5.7028985 -0.44182399 0.19607843
-26.278929 26.630182 -1.3070271 0.019607844
-7.32796 6.733748 1.814364 0
-3.6000345 3.3313961 -2.2872655 0.0039215689
-2.0457389 1.5516961 -0.044839844 0
-6.221396 5.7571139 -0.2467967 0.16078432
-5.8972688 4.9449697 -2.1545463 0.039215688
-8.7746906 8.1198864 -2.3912234 0.0039215689
-26.096434 26.630531 -0.43459928 0.011764706
-12.129635 10.170909 -2.4629385 0.0039215689
-6.1654634 5.7053642 -1.0693473 0.031372551
-102.28661 77.584511 0.744165 0.10980392
-6.235671 5.7703223 -0.049487274 0.18039216
-17.419102 14.606211 -2.4489977 0.047058824
-17.564117 17.923613 -2.342911 0.027450981
-26.23904 22.001839 0.7963019 0.0078431377
-26.132839 26.667673 0.43415073 0.0078431377
-25.127289 21.069643 -2.2935197 0.062745102
-47.500534 36.029202 1.7341607 0.062745102
-6.2671185 5.7994204 0.14893365 0.17647059
-31.514809 23.904039 -2.5356224 0.023529412
-26.08477 26.618649 -2.1709723 0.015686275
-3.7575605 3.150769 0.28552178 0
-45.384144 38.05534 -2.759814 0.027450981
-6.1979055 5.7353787 -0.44266137 0.19607843
-10.11237 8.4793644 1.6201906 0
-28.620428 26.484554 3.1827374 0.050980393
-26.101873 26.636095 -1.3028363 0.019607844
-8.9411526 7.4972668 3.1263733 0
-3.5936882 3.3488851 -2.2906463 0.0039215689
-88.885681 67.909988 -1.9542361 0.24705882
-6.2217383 5.7978768 -0.24761142 0.17254902
-5.8770289 4.9630404 -2.1534677 0.05882353
-8.7520323 8.1558151 -2.392792 0.0039215689
-7.0228763 5.9306641 -0.00012268023 0.0039215689
-25.925213 26.641203 -0.43329281 0.011764706
-12.112177 10.228489 -2.4666281 0.0039215689
-6.1687336 5.7484918 -1.073388 0.086274512
-102.3203 78.174225 0.7463935 0.10980392
-6.221344 5.7975082 -0.049533665 0.10980392
-17.331551 14.636136 -2.443856 0.047058824
-17.504225 17.987671 -2.3432822 0.039215688
-48.202606 40.706036 1.467142 0.043137256
-25.950331 26.667004 0.43266365 0.0078431377
-25.081028 21.180399 -2.2960308 0.039215688
-158.78433 121.31355 5.8123245 0.24705882
-6.2234302 5.7994494 0.1483759 0.06666667
-28.379728 21.68255 -2.2894528 0.019607844
-25.899794 26.615103 -2.163295 0.015686275
-32.343979 27.313799 -1.9726194 0.015686275
-6.2070713 5.7842116 -0.4447552 0.17254902
-7.3952088 6.2450805 1.1883398 0
-28.416973 26.481014 3.1703732 0.031372551
-25.908371 26.623907 -1.2978076 0.019607844
-73.512169 62.079441 -2.2403934 0.10196079
-3.5740464 3.3539677 -2.2855749 0.0039215689
-6.1839676 5.8031435 -0.24691266 0.098039217
-5.8508658 4.976038 -2.1502326 0.031372551
-48.15852 40.957664 -0.00094881561 0.10980392
-25.759789 26.656752 -0.43207955 0.011764706
-12.08242 10.275827 -2.4678576 0.0039215689
-6.1370559 5.759129 -1.0713673 0.074509807
-6.1923184 5.8109784 -0.049463518 0.10196079
-17.256119 14.675934 -2.4404275 0.047058824
-17.435793 18.042933 -2.3425376 0.027450981
-48.209484 41.000996 1.4717001 0.043137256
-25.78204 26.679766 0.43140903 0.0078431377
-24.794168 21.086861 -2.276494 0.050980393
-6.1660662 5.7863493 -0.69040447 0.10980392
-6.2031479 5.8211384 0.14837612 0.098039217
-27.339001 21.038961 -2.2114048 0.019607844
-25.73181 26.627819 -2.1570134 0.015686275
-28.473696 26.720203 1.5902754 0.050980393
-32.21191 27.395472 -1.9703841 0.015686275
-6.1751914 5.7949104 -0.44391733 0.10196079
-28.228428 26.490025 3.159636 0.031372551
-25.740273 26.636568 -1.2940358 0.019607844
-11.636575 9.8966265 -0.35567632 0
-3.5596821 3.3639328 -2.283884 0.0039215689
-6.1898279 5.8494101 -0.24796024 0.12941177
-5.8393116 5.0014424 -2.1523888 0.015686275
-7.1088967 6.0888343 -0.00012480415 0.0039215689
-25.580734 26.657047 -0.43063316 0.011764706
-12.070493 10.338511 -2.4727769 0.0039215689
-6.1197996 5.7832427 -1.0718722 0.15686275
-26.672823 20.674923 0.19563244 0.0078431377
-6.2272329 5.884757 -0.049906135 0.10588235
-17.18062 14.715381 -2.4369996 0.039215688
-47.971916 41.088383 1.4688189 0.043137256
-25.594595 26.671478 0.42982891 0.0078431377
-24.690105 21.147324 -2.2737021 0.050980393
-6.1661143 5.8270054 -0.69268286 0.13333334
-2.1615548 1.6754872 0.079567187 0
-6.2554612 5.9114294 0.15012009 0.078431375
-27.211758 21.092691 -2.2070539 0.039215688
-25.547461 26.622395 -2.1493361 0.015686275
-27.967764 26.429632 1.5671631 0.074509807
-6.436594 5.5130038 -0.39488137 0
-6.186861 5.8466091 -0.44622055 0.13725491
-6.633779 5.6818814 1.072335 0
-17.65225 16.681421 1.9823457 0.011764706
-25.569637 26.645494 -1.2901244 0.015686275
-5.0309491 4.7542491 1.2619542 0
-3.550545 3.3788366 -2.2855747 0.0039215689
-16.048929 12.529942 -0.35569969 0.0078431377
-6.2186122 5.9178371 -0.24993916 0.13333334
-5.8218188 5.0217938 -2.1523888 0.019607844
-6.0549469 5.7621031 -1.6718102 0.054901961
-49.031483 42.293507 -0.00096911273 0.11372549
-25.407515 26.662203 -0.42928001 0.011764706
-12.052291 10.396069 -2.4764664 0.0039215689
-6.1398191 5.8428631 -1.0789437 0.05882353
-102.25592 79.834633 0.75198954 0.10980392
-6.2327328 5.9312735 -0.050115664 0.10980392
-17.099039 14.749286 -2.4327147 0.047058824
-17.639112 18.510199 -2.3871562 0.050980393
-47.955391 41.365276 1.472726 0.043137256
-25.421326 26.676683 0.42848131 0.0078431377
-24.53154 21.160398 -2.2658873 0.039215688
-6.1919456 5.8924656 -0.69789088 0.80784315
-8.2129822 6.412149 0.30309561 0
-6.2579665 5.9552841 0.15067834 0.078431375
-27.156851 21.202286 -2.2085886 0.019607844
-25.371737 26.62468 -2.1423564 0.015686275
-17.675436 16.820518 0.99372679 0.05882353
-45.710686 39.429089 -2.812871 0.035294119
-6.2040343 5.9039669 -0.44894257 0.12941177
-7.2903256 6.288466 1.1820041 0
-27.857979 26.510548 3.1388128 0.015686275
-25.382713 26.636187 -1.285375 0.015686275
-2.8467233 2.4555106 1.0072845 0
-12.075386 11.491304 3.0389957 0.0039215689
-3.5393207 3.3905921 -2.2855747 0.0039215689
-6.3167815 4.965529 -0.14035434 0
-6.2191639 5.9577875 -0.25075391 0.11764706
-5.808042 5.0435987 -2.1534669 0.023529412
-48.28994 41.93396 -0.00095548911 0.10980392
-25.228216 26.650455 -0.42774042 0.011764706
-12.020734 10.438571 -2.4770811 0.0039215689
-6.1691194 5.9098554 -1.0875309 0.043137256
-26.751604 21.029032 0.19725685 0.0078431377
-6.2419133 5.9795794 -0.050348513 0.10588235
-17.026009 14.785047 -2.4292865 0.047058824
-17.547516 18.536776 -2.3830652 0.050980393
-48.237644 41.888535 1.4856534 0.043137256
-25.252977 26.6766 0.42713365 0.0078431377
-24.283476 21.087273 -2.2494204 0.023529412
-6.183887 5.9239984 -0.6991927 0.81176472
-26.44841 20.790691 0.97856605 0.019607844
-6.2641768 6.0009036 0.1513063 0.086274512
-31.184963 24.514053 -2.542783 0.023529412
-25.222912 26.644871 -2.137238 0.015686275
-17.639759 16.898394 0.99486679 0.023529412
-45.579681 39.580452 -2.8128695 0.035294119
-6.2074981 5.9466143 -0.45061761 0.10980392
-27.669147 26.506254 3.1274247 0.031372551
-2.2686248 1.7833325 -0.11758938 0
-25.222792 26.644733 -1.2817429 0.015686275
-4.4635019 3.875993 1.5839008 0
-7.5190063 7.2029786 1.8983034 0
-48.334221 41.972424 -1.4905419 0.050980393
-3.5268691 3.4035425 -2.2855744 0.0039215689
-26.783585 21.213476 -0.59689599 0.023529412
-6.2145472 5.9972019 -0.25145218 0.10980392
-5.7953143 5.0699258 -2.1556237 0.023529412
-48.156979 42.129116 -0.00095425814 0.10980392
-25.070108 26.678627 -0.42671362 0.011764706
-11.994289 10.49297 -2.4795403 0.0039215689
-6.170258 5.9544716 -1.0915716 0.0078431377
-26.291805 20.823963 0.19442901 0.0078431377
-6.2372236 6.0190845 -0.050488107 0.10196079
-16.941771 14.821169 -2.4250014 0.047058824
-17.48218 18.603874 -2.3834364 0.039215688
-48.351646 42.2994 1.4939312 0.043137256
-25.059166 26.666969 0.4255071 0.0078431377
-24.18199 21.155121 -2.2471867 0.039215688
-26.340685 20.862671 0.97740382 0.019607844
-25.037571 26.644024 -2.1297932 0.015686275
-6.7984114 5.9474382 0.52592272 0
-27.70672 26.737709 1.568143 0.023529412
-45.584656 39.878796 -2.8221776 0.035294119
-6.2086544 5.991518 -0.45229256 0.10196079
-10.76925 9.4212303 1.7566693 0
-27.471399 26.510601 3.1160369 0.06666667
-25.040092 26.646696 -1.2774124 0.015686275
-48.186066 42.154572 -1.4907264 0.050980393
-3.5155642 3.4152186 -2.2855742 0.0039215689
-26.869442 21.426847 -0.60038888 0.023529412
-6.2089663 6.0317063 -0.2520341 0.10980392
-5.7900343 5.0992975 -2.1599367 0.031372551
-8.6145267 8.3686142 -2.4022045 0.0039215689
-6.3128419 5.5597138 -0.00010951092 0.0039215689
-24.899624 26.673893 -0.42531389 0.011764706
-11.977226 10.548357 -2.4832299 0.0039215689
-14.407054 13.995774 -2.5569582 0.023529412
-27.06699 21.584372 0.20068984 0.0078431377
-6.2287073 6.0508819 -0.050581109 0.094117649
-16.859703 14.848351 -2.4202878 0.047058824
-17.409521 18.650093 -2.3819482 0.027450981
-24.896912 26.670973 0.42425245 0.0078431377
-23.869158 21.021572 -2.2245798 0.011764706
-26.31513 20.9848 0.97903275 0.019607844
-6.224999 6.047276 0.15137652 0.86274511
-26.540726 21.164728 -2.1760883 0.019607844
-24.872787 26.645166 -2.1232789 0.015686275
-27.514708 26.729179 1.5622841 0.047058824
-6.2370315 5.4929514 -0.38724697 0
-6.2002139 6.0232058 -0.45312995 0.090196081
-27.294699 26.515434 3.1059504 0.047058824
-24.869764 26.641914 -1.2732217 0.015686275
-3.5010295 3.4249344 -2.2838836 0.0039215689
-26.214502 21.054691 -0.58739203 0.023529412
-6.2050214 6.0701184 -0.25273237 0.094117649
-5.7693172 5.1169224 -2.1588583 0.027450981
-8.5936728 8.4068613 -2.4045577 0.0039215689
-24.724789 26.672649 -0.42391416 0.011764706
-11.952162 10.600594 -2.4856894 0.0039215689
-14.352439 14.04043 -2.5559478 0.023529412
-6.2189846 6.083776 -0.050674099 0.082352944
-16.783966 14.886002 -2.4168596 0.047058824
-17.566332 18.95026 -2.4124379 0.027450981
-24.7384 26.687319 0.4231374 0.0078431377
-23.822498 21.128595 -2.2270908 0.050980393
-21.051893 20.594234 -2.4045749 0.0078431377
-26.606443 21.369471 0.99264067 0.019607844
-6.2181463 6.0829525 0.15172553 0.78823531
-30.506392 24.501818 -2.508235 0.023529412
-24.690041 26.635185 -2.1156018 0.015686275
-27.315527 26.721653 1.5562629 0.047058824
-6.193428 6.0587788 -0.45417675 0.086274512
-27.10508 26.51576 3.0948882 0.06666667
-24.692364 26.637682 -1.2688913 0.015686275
-3.4824953 3.4067678 0.88818073 0
-3.4936163 3.4428322 -2.2872643 0.0039215689
-26.14337 21.155664 -0.58752799 0.023529412
-6.2026663 6.1124663 -0.25354666 0.070588239
-5.7390332 5.127768 -2.1545444 0.047058824
-8.5795631 8.4548225 -2.4092641 0.0039215689
-24.561857 26.692459 -0.42279208 0.011764706
-11.922066 10.652231 -2.4875329 0.0039215689
-14.272615 14.065092 -2.5508945 0.031372551
-27.201008 22.011517 0.2028507 0.0078431377
-16.717426 14.936823 -2.4151435 0.047058824
-17.545296 19.067274 -2.4191289 0.027450981
-6.2712007 5.6032305 0.19558097 0.10196079
-24.559166 26.689522 0.42174533 0.0078431377
-23.70026 21.175892 -2.2229013 0.023529412
-26.115515 21.133137 -2.1535652 0.019607844
-24.513832 26.640289 -2.1088529 0.015686275
-27.134848 26.740242 1.551546 0.074509807
-6.1882501 6.0982618 -0.4554325 0.05882353
-26.919678 26.528185 3.0848041 0.047058824
-6.1236629 4.9553742 -0.32103938 0
-24.529598 26.657412 -1.2655364 0.015686275
-6.2383924 5.5739198 -0.19477387 0.14509805
-3.4744596 3.4467392 -2.2821925 0.0039215689
-5.7334538 5.1570754 -2.1588576 0.019607844
-8.5486937 8.4804659 -2.408479 0.0078431377
-6.2513003 5.6228418 -0.00010834658 0.12941177
-24.416534 26.711763 -0.421812 0.011764706
-11.907248 10.710211 -2.491837 0.0039215689
-14.203361 14.089988 -2.5468531 0.035294119
-26.755743 21.79842 0.20006908 0.0078431377
-16.667805 14.992179 -2.415143 0.047058824
-17.50078 19.145929 -2.421731 0.027450981
-6.2674508 5.6373668 0.19604613 0.094117649
-24.394962 26.68815 0.4204441 0.0078431377
-23.413342 21.05957 -2.2025275 0.023529412
-21.006664 20.838976 -2.4159644 0.035294119
-2.265965 1.8461235 0.085033782 0
-26.017443 21.196934 -2.1512616 0.019607844
-24.446909 26.745014 -2.1107125 0.015686275
-6.5524726 5.8937316 0.51313692 0
-26.960905 26.745636 1.546664 0.074509807
-6.2237282 5.5980449 -0.39003861 0.26666668
-26.735327 26.521845 3.0737414 0.082352944
-24.414089 26.709099 -1.2641389 0.054901961
-6.2406864 5.613297 -0.19542548 0.14117648
-3.4701018 3.466532 -2.2872641 0.0039215689
-5.7039986 5.1667123 -2.1545439 0.023529412
-8.5245914 8.5157967 -2.4100478 0.0039215689
-6.243495 5.6553688 -0.00010837756 0.12941177
-24.32584 26.799791 -0.42185757 0.011764706
-11.87858 10.759667 -2.4936817 0.0039215689
-14.128828 14.11424 -2.5423062 0.050980393
-48.399071 39.713531 0.36293086 0.054901961
-26.679781 26.652185 -0.21971254 0.011764706
-16.585897 15.023565 -2.4108582 0.047058824
-17.436522 19.209848 -2.422102 0.027450981
-6.2655191 5.6753163 0.1966043 0.094117649
-24.234453 26.699099 0.41928253 0.0078431377
-23.351521 21.15188 -2.2036428 0.023529412
-20.93944 20.917805 -2.4166145 0.035294119
-26.671755 21.885324 1.0035781 0.019607844
-26.667692 26.640102 0.65742236 0.015686275
-25.69025 21.079983 -2.1302776 0.019607844
-24.310465 26.782875 -2.1069899 0.015686275
-26.785387 26.757664 1.5419446 0.023529412
-6.2248802 5.6385112 -0.39134169 0.26666668
-26.549517 26.522022 3.0630043 0.06666667
-24.309969 26.782318 -1.2635792 0.015686275
-6.2388377 5.6511526 -0.19598393 0.14117648
-3.4528689 3.4734819 -2.2838829 0.0039215689
-6.7639141 5.5897059 -0.15327866 0
-26.358717 26.515942 -1.0886302 0.023529412
-5.6887741 5.189188 -2.155622 0.023529412
-8.4975796 8.5482845 -2.4108319 0.0039215689
-6.2384911 5.6906066 -0.00010846602 0.12941177
-24.138416 26.780554 -0.42022476 0.011764706
-11.864309 10.822376 -2.498601 0.0039215689
-14.054296 14.138145 -2.5377595 0.031372551
-48.553066 40.124302 0.36513498 0.054901961
-26.490704 26.648706 -0.2189191 0.011764706
-6.1761527 5.6337514 -0.90057915 0.0078431377
-17.372026 19.273554 -2.4224732 0.027450981
-6.2633967 5.7133226 0.19716246 0.090196081
-24.060774 26.694401 0.41788837 0.0078431377
-23.763964 21.67697 -2.2496912 0.039215688
-20.919695 21.044493 -2.4227986 0.035294119
-26.875662 22.21007 1.0141623 0.019607844
-26.495588 26.65361 0.65547037 0.031372551
-25.591892 21.149185 -2.1282299 0.019607844
-24.123257 26.763754 -2.0988474 0.015686275
-5.2632246 4.8009863 0.41479135 0
-26.593201 26.751793 1.5362487 0.074509807
-6.2228718 5.6763625 -0.39245859 0.24705882
-26.288666 26.44548 -1.9547511 0.019607844
-26.375263 26.532541 3.0535688 0.06666667
-24.133364 26.774956 -1.2592489 0.015686275
-6.2397537 5.6917605 -0.1966355 0.12941177
-3.4381752 3.4829345 -2.282192 0.0039215689
-26.32217 26.664705 -1.0909575 0.011764706
-5.6592779 5.1985922 -2.1513085 0.047058824
-8.4759521 8.5862703 -2.4131851 0.0039215689
-6.2421551 5.7339983 -0.00010873127 0.12941177
-23.980761 26.793129 -0.41910475 0.011764706
-13.98813 14.170179 -2.5347281 0.043137256
-48.48341 40.352406 0.3656697 0.054901961
-26.31883 26.661314 -0.21826547 0.011764706
-6.1476622 5.6472073 -0.89929378 0.019607844
-17.309948 19.340014 -2.4232159 0.027450981
-6.2581387 5.7486787 0.19762762 0.086274512
-23.884745 26.685843 0.41644773 0.0078431377
-23.658762 21.732803 -2.2468996 0.023529412
-20.826498 21.097534 -2.4205191 0.0078431377
-26.724211 22.242369 1.0113719 0.019607844
-26.312473 26.654865 0.65323937 0.015686275
-25.272453 21.034107 -2.1077576 0.019607844
-23.939131 26.746635 -2.0909371 0.015686275
-6.0022211 5.5135922 0.47454315 0
-26.4098 26.753445 1.5310409 0.074509807
-6.217732 5.7115679 -0.39338931 0.24705882
-26.271954 26.613846 -1.9604042 0.019607844
-26.201256 26.542173 3.0441334 0.082352944
-23.975761 26.787554 -1.255896 0.015686275
-11.810064 11.963708 3.0648282 0.0039215689
-6.2286816 5.7216239 -0.19691463 0.13725491
-3.428535 3.4975028 -2.2838826 0.0039215689
-26.150566 26.676468 -1.0876968 0.011764706
-5.6439252 5.2209287 -2.1523864 0.019607844
-8.4459295 8.6158009 -2.4131849 0.0039215689
-6.2397199 5.7720475 -0.00010887401 0.14901961
-23.81004 26.789967 -0.41775164 0.011764706
-13.916362 14.196247 -2.5306866 0.043137256
-48.222713 40.421173 0.36476687 0.054901961
-26.127607 26.65304 -0.21744873 0.011764706
-6.1687856 5.706439 -0.90529174 0.027450981
-17.244984 19.403292 -2.4235868 0.027450981
-6.2615194 5.7922111 0.19837178 0.15294118
-23.719711 26.688324 0.41519308 0.0078431377
-23.486097 21.725828 -2.237689 0.078431375
-23.083086 23.547319 -2.6923242 0.027450981
-48.546333 40.692429 1.8425769 0.090196081
-26.132483 26.658003 0.6510781 0.015686275
-23.797876 26.776304 -2.0867493 0.015686275
-26.229525 26.756987 1.5259961 0.070588239
-6.2124233 5.7468009 -0.39432001 0.26666668
-26.131363 26.656889 -1.9568433 0.019607844
-26.013559 26.536665 3.0330706 0.082352944
-6.778368 5.681756 -0.3604579 0
-23.799793 26.77845 -1.2515656 0.015686275
-6.2292223 5.7623391 -0.19756623 0.16862746
-3.4137766 3.5068517 -2.2821918 0.0039215689
-25.981985 26.690237 -1.0845524 0.011764706
-5.620029 5.2353477 -2.1502297 0.023529412
-8.4322195 8.6620951 -2.4178917 0.0039215689
-6.2283139 5.8019733 -0.00010883529 0.1882353
-23.63698 26.782955 -0.41635197 0.011764706
-6.1513667 5.7303071 -1.3080205 0.050980393
-13.852883 14.230523 -2.5281603 0.047058824
-48.08744 40.594425 0.3648147 0.054901961
-25.953497 26.660963 -0.21677181 0.011764706
-17.185055 19.47233 -2.4247017 0.027450981
-6.2383361 5.8113074 0.19827902 0.074509807
-23.570826 26.707985 0.41421753 0.0078431377
-6.1926947 5.7687988 -0.59192199 0.015686275
-22.992405 23.619181 -2.6913466 0.039215688
-47.948769 40.477352 1.8252496 0.090196081
-25.958366 26.665956 0.64905638 0.015686275
-23.635561 26.78137 -2.0807002 0.015686275
-26.055119 26.765333 1.5212768 0.070588239
-6.2157149 5.7902408 -0.39580929 0.21960784
-25.954565 26.662079 -1.9505601 0.019607844
-25.848471 26.553036 3.0246112 0.098039217
-23.642687 26.789433 -1.2482129 0.015686275
-6.2149205 5.7894993 -0.19775221 0.086274512
-3.4015148 3.5187469 -2.2821915 0.0039215689
-25.794178 26.683029 -1.0805931 0.011764706
-5.6045289 5.2575684 -2.1513078 0.023529412
-8.4046574 8.6942968 -2.4186759 0.0039215689
-6.1934371 5.8099957 -0.00010831872 0.11372549
-18.632229 21.261223 -0.32949662 0.0039215689
-13.797609 14.273087 -2.5271494 0.043137256
-48.506168 41.23875 0.36908251 0.054901961
-25.782434 26.670872 -0.21611822 0.011764706
-6.1520004 5.7711334 -0.90871888 0.06666667
-17.111731 19.526211 -2.4239571 0.027450981
-6.2209287 5.8357835 0.19837223 0.082352944
-23.408916 26.711891 0.41300941 0.0078431377
-22.909819 23.699295 -2.6913457 0.082352944
-47.624405 40.489082 1.8182728 0.090196081
-25.776178 26.664391 0.64682543 0.015686275
-24.813587 21.095921 -2.087796 0.019607844
-23.394554 26.695536 -2.067673 0.015686275
-25.867086 26.758419 1.5157437 0.070588239
-6.1838088 5.8009667 -0.39506432 0.11372549
-25.783602 26.672098 -1.9446958 0.019607844
-25.666956 26.55138 3.0141995 0.062745102
-23.43047 26.736507 -1.2419273 0.015686275
-6.1859245 5.8029504 -0.19747265 0.11372549
-3.3848054 3.5247781 -2.2788105 0.0039215689
-25.639086 26.699207 -1.077798 0.011764706
-5.5898638 5.2787704 -2.152386 0.023529412
-8.3893642 8.7362652 -2.4225984 0.0039215689
-6.2177587 5.8716969 -0.00010899993 0.1254902
-23.228279 26.683775 -0.4123404 0.011764706
-6.1007252 5.7611909 -1.3055602 0.13725491
-13.747455 14.315903 -2.526644 0.043137256
-47.44838 40.611286 0.36205828 0.054901961
-25.602423 26.661016 -0.21534812 0.023529412
-6.121263 5.780581 -0.90700489 0.094117649
-17.046883 19.582846 -2.4239564 0.027450981
-6.2596908 5.9112935 0.2002323 0.090196081
-23.262434 26.723001 0.41198727 0.0078431377
-6.1503835 5.8080778 -0.5916425 0.094117649
-22.811773 23.755011 -2.6890662 0.098039217
-47.632645 40.768986 1.8237404 0.090196081
-25.601738 26.660297 0.64466411 0.015686275
-24.69194 21.133965 -2.0834448 0.019607844
-23.221994 26.67658 -2.0602281 0.015686275
-27.970263 26.413517 2.2398925 0.05882353
-25.700697 26.763336 1.5111872 0.070588239
-6.1877775 5.8433886 -0.39655358 0.18039216
-25.625839 26.685425 -1.9394597 0.015686275
-17.677134 16.693256 2.9849687 0.0039215689
-25.487642 26.541456 3.0034623 0.062745102
-6.8318467 5.8474107 -0.36648422 0
-23.239313 26.696463 -1.2364796 0.015686275
-6.24224 5.8948174 -0.19989336 0.17254902
-3.374984 3.5391943 -2.2805011 0.0039215689
-25.462959 26.701729 -1.0743043 0.011764706
-5.5658221 5.2929401 -2.150229 0.019607844
-8.3669395 8.7740097 -2.4249516 0.0039215689
-6.2407055 5.9347105 -0.00010966553 0.10980392
-23.080074 26.701149 -0.41136029 0.011764706
-6.1034923 5.8042388 -1.3104796 0.090196081
-13.672756 14.337955 -2.5220969 0.031372551
-47.482067 40.928127 0.3634046 0.054901961
-25.420874 26.657587 -0.21460131 0.011764706
-6.1385136 5.8375392 -0.91257447 0.043137256
-16.96801 19.630178 -2.4224684 0.027450981
-6.2564077 5.9496403 0.20079049 0.082352944
-18.008438 20.833801 0.3202275 0.0039215689
-22.703959 23.808521 -2.6861358 0.070588239
-2.4288926 2.0936296 0.09329173 0
-25.425726 26.662666 0.64257258 0.015686275
-24.400326 21.032372 -2.0650203 0.019607844
-23.045181 26.660803 -2.0527835 0.015686275
-25.52438 26.766106 1.5063051 0.070588239
-6.2078805 5.9034996 -0.39915991 0.18039216
-25.438816 26.67642 -1.9323391 0.015686275
-17.633146 16.768534 2.9874065 0.0039215689
-25.326065 26.558126 2.9953287 0.062745102
-48.745193 42.016933 -2.6228328 0.14901961
-23.072792 26.692736 -1.2325683 0.015686275
-6.6552601 6.3289137 2.4607334 0
-6.224524 5.9193249 -0.19998623 0.12156863
-3.3682139 3.5556319 -2.2838819 0.0039215689
-25.275272 26.681532 -1.0701122 0.011764706
-5.5482383 5.3113699 -2.1502287 0.023529412
-8.3404932 8.8045588 -2.4257357 0.0039215689
-6.2296581 5.9636736 -0.00010962792 0.098039217
-22.905411 26.677401 -0.40982077 0.011764706
-6.1441669 5.8818464 -1.3233938 0.035294119
-13.611486 14.368818 -2.5195711 0.035294119
-48.228226 41.850868 0.37017664 0.054901961
-25.263554 26.669151 -0.21401766 0.011764706
-6.1564674 5.8936176 -0.91814411 0.027450981
-16.902815 19.68634 -2.4224677 0.027450981
-6.2510843 5.9841828 0.20125566 0.070588239
-22.918451 26.692579 0.4091059 0.0078431377
-17.568228 16.818155 -1.7010046 0.031372551
-19.998281 21.110958 -2.3742909 0.023529412
-47.933842 41.595406 1.8460732 0.090196081
-25.257397 26.662643 0.64055073 0.015686275
-24.291245 21.079165 -2.0616927 0.019607844
-22.894203 26.664371 -2.0471997 0.015686275
-25.35301 26.763565 1.5014229 0.098039217
-6.2055864 5.9406338 -0.40027681 0.14509805
-25.259548 26.664942 -1.9254279 0.015686275
-11.371284 10.885756 1.932633 0
-25.185753 26.586983 2.9891469 0.047058824
-22.913832 26.68722 -1.2287967 0.015686275
-6.2308574 5.9648237 -0.20082404 0.11372549
-3.3551593 3.5679531 -2.2838817 0.0039215689
-48.170341 42.111156 -1.1177636 0.16862746
-25.103357 26.695347 -1.0669677 0.011764706
-5.5398245 5.3423653 -2.1545422 0.039215688
-8.3135405 8.8407831 -2.4273043 0.0039215689
-6.2250338 6.0031261 -0.00010974253 0.078431375
-22.752998 26.697248 -0.4088406 0.011764706
-6.1282568 5.9098129 -1.3246235 0.027450981
-13.564167 14.424391 -2.5205805 0.035294119
-47.788418 41.777256 0.36797547 0.054901961
-25.083433 26.674149 -0.21331738 0.011764706
-6.1634521 5.943749 -0.92242837 0.011764706
-16.83313 19.751192 -2.4228384 0.027450981
-22.765982 26.712471 0.40813041 0.0078431377
-48.187443 42.126072 1.8617755 0.094117649
-25.085529 26.676369 0.63866854 0.015686275
-24.120657 21.086611 -2.0537593 0.019607844
-22.736748 26.678204 -2.0418487 0.015686275
-17.640305 17.011467 1.4268528 0.031372551
-25.180824 26.777697 1.4970292 0.070588239
-6.2067795 5.9855266 -0.40176603 0.12941177
-25.090502 26.681686 -1.9199823 0.015686275
-25.093601 26.684921 2.9897988 0.047058824
-48.209938 42.145782 -2.6097987 0.14901961
-22.756222 26.701042 -1.2255833 0.015686275
-6.2204666 5.998724 -0.20119624 0.10196079
-3.3408346 3.5764093 -2.2821908 0.0039215689
-24.949188 26.708323 -1.0641706 0.011764706
-5.5193152 5.3580232 -2.1534631 0.035294119
-8.2895327 8.8740349 -2.4288723 0.0039215689
-6.2223129 6.0404525 -0.00010945824 0.10588235
-17.904058 21.149405 -0.32296428 0.0039215689
-13.489173 14.440293 -2.5155277 0.035294119
-24.904734 26.660723 -0.21254525 0.011764706
-15.942776 15.476849 -2.3937132 0.047058824
-16.759821 19.797785 -2.4217212 0.019607844
-6.2378478 6.055531 0.2021865 0.86274511
-22.612665 26.711496 0.40697029 0.0078431377
-26.073925 25.311907 -2.541604 0.011764706
-19.698011 21.086908 -2.3560591 0.039215688
-24.904102 26.66004 0.63630009 0.015686275
-23.88279 21.018797 -2.0394263 0.019607844
-22.575907 26.66811 -2.0353327 0.015686275
-17.652561 17.136625 1.4324352 0.019607844
-25.007309 26.770512 1.4919864 0.070588239
-6.2012315 6.0199914 -0.40269631 0.12941177
-24.909166 26.665489 -1.9128594 0.015686275
-24.983198 26.74468 2.9871986 0.10980392
-22.608147 26.706181 -1.2223686 0.015686275
-9.1144867 9.7570963 2.434221 0
-6.2148871 6.0332456 -0.20166117 0.10196079
-3.3307948 3.5907085 -2.2838814 0.0039215689
-24.766066 26.698523 -1.0603276 0.011764706
-5.4950681 5.3718724 -2.1513064 0.019607844
-8.2851782 8.9316759 -2.4367173 0.0039215689
-6.2269301 6.0873027 -0.00010975903 0.098039217
-18.203293 21.655731 -0.32972327 0.0039215689
-11.573742 11.314253 -2.518275 0.0039215689
-13.433283 14.481478 -2.5145168 0.035294119
-24.743504 26.674189 -0.2119616 0.011764706
-15.860209 15.504607 -2.3894281 0.047058824
-16.70854 19.877512 -2.4243231 0.027450981
-6.2395463 6.0996332 0.20293069 0.8509804
-25.902657 25.321886 -2.5335095 0.011764706
-19.599878 21.129242 -2.3531284 0.039215688
-6.2747269 5.5612497 0.24390346 0.094117649
-24.745605 26.676445 0.63462698 0.015686275
-23.809269 21.102043 -2.0394256 0.019607844
-27.364075 26.750484 2.2280426 0.082352944
-24.829443 26.766813 1.4869415 0.070588239
-6.1944652 6.0555696 -0.40362704 0.11764706
-24.819187 26.755737 2.978739 0.078431375
-10.375649 11.1852 2.7814524 0
-6.2138042 6.0744729 -0.20231271 0.090196081
-3.3053348 3.5895574 -2.2754285 0.0039215689
-24.58951 26.70381 -1.0569503 0.011764706
-5.4753437 5.3919754 -2.1513062 0.019607844
-8.2523899 8.9619799 -2.436717 0.0039215689
-11.540646 11.364912 -2.5201194 0.0039215689
-13.377434 14.527693 -2.5140111 0.035294119
-6.2478914 5.578485 0.048572984 0.14117648
-24.575136 26.688189 -0.21135457 0.011764706
-15.772111 15.531934 -2.3847146 0.054901961
-16.630478 19.932497 -2.4235785 0.039215688
-18.187876 21.799082 0.33013946 0.011764706
-25.758505 25.366249 -2.5284851 0.011764706
-19.452099 21.124678 -2.3446641 0.031372551
-6.2841277 5.6108375 0.24506667 0.074509807
-24.563692 26.675751 0.63246578 0.015686275
-23.597778 21.069519 -2.0279098 0.019607844
-22.228445 26.641941 -2.0211413 0.015686275
-27.16058 26.746922 2.2194412 0.070588239
-24.655376 26.775309 1.482385 0.070588239
-6.1921592 6.0978556 -0.40493006 0.074509807
-24.558075 26.669682 -1.9005027 0.015686275
-24.645348 26.7644 2.969629 0.078431375
-6.2517562 5.5819397 -0.34156039 0.15294118
-22.280731 26.704597 -1.2149649 0.074509807
-3.3074625 3.6171255 -2.2855718 0.0039215689
-6.2305079 5.6021757 -0.14635861 0.16470589
-24.428694 26.715715 -1.054039 0.011764706
-5.4510183 5.4056306 -2.1491494 0.023529412
-8.2316427 9.0023108 -2.4398546 0.0039215689
-22.133068 26.71664 -0.40435919 0.05882353
-11.512131 11.416261 -2.522579 0.0039215689
-13.334672 14.583086 -2.5155261 0.035294119
-6.2551503 5.6243305 0.048781876 0.12941177
-24.398148 26.682301 -0.21063109 0.011764706
-15.69803 15.567292 -2.3817151 0.054901961
-16.553175 19.981228 -2.4224625 0.027450981
-22.15094 26.738203 0.40376452 0.0078431377
-19.329813 21.139492 -2.338804 0.039215688
-6.2823434 5.6487794 0.2457647 0.054901961
-24.400253 26.684595 0.63065326 0.015686275
-23.43504 21.071695 -2.0202324 0.015686275
-22.081812 26.654799 -2.0162551 0.015686275
-26.970644 26.745966 2.2115374 0.070588239
-24.486244 26.778624 1.4778284 0.094117649
-24.416311 26.702185 -1.8967323 0.015686275
-8.8067989 8.7334194 1.5227163 0
-24.489893 26.782597 2.9621458 0.078431375
-6.2441206 5.6144176 -0.34221175 0.14117648
-22.14147 26.726795 -1.21245 0.054901961
-8.014287 8.7645473 2.16519 0
-26.71936 26.496807 -0.87615573 0.011764706
-3.2899423 3.623281 -2.2821903 0
-6.2227731 5.6346288 -0.14663792 0.1882353
-5.4348412 5.4273472 -2.1502273 0.019607844
-8.2028055 9.0338926 -2.440639 0.0039215689
-26.730156 26.693216 -0.00053220039 0.023529412
-21.986315 26.728868 -0.40337905 0.05882353
-11.469413 11.453585 -2.5219636 0.0039215689
-13.262347 14.606044 -2.5114841 0.035294119
-6.2591991 5.6676097 0.048967581 0.12941177
-24.229572 26.684389 -0.20997752 0.011764706
-15.635151 15.613564 -2.380429 0.047058824
-16.478268 20.032738 -2.4217179 0.027450981
-17.337095 17.313128 0.56979406 0.0039215689
-21.991407 26.73505 0.40255636 0.0078431377
-25.538433 25.503166 -2.524297 0.011764706
-19.253225 21.203888 -2.3384778 0.039215688
-6.2744417 5.6814098 0.24623013 0.035294119
-24.231682 26.686703 0.62870121 0.015686275
-23.402767 21.190884 -2.0238142 0.019607844
-21.927752 26.657698 -2.0106714 0.015686275
-26.783873 26.746832 2.2038658 0.082352944
-24.317394 26.781088 1.4732718 0.070588239
-26.602222 26.565477 -1.7517749 0.0078431377
-24.341751 26.807955 -1.8981972 0.015686275
-6.3715048 6.3626819 1.1054854 0
-24.315855 26.779377 2.9523847 0.078431375
-6.2422605 5.6522751 -0.34318888 0.15294118
-21.966778 26.705132 -1.20798 0.015686275
-10.560197 11.630059 2.8639572 0
-26.496542 26.459932 -0.87187159 0.035294119
-3.2754817 3.6314783 -2.2804999 0
-6.2277002 5.6767845 -0.14719667 0.16862746
-24.195404 26.824963 -1.0518249 0.011764706
-5.4249644 5.4535313 -2.1534622 0.019607844
-8.193821 9.0843439 -2.4469147 0.0039215689
-17.374533 17.465965 -0.00034029409 0.0078431377
-21.814051 26.699413 -0.40183961 0.05882353
-11.439733 11.499957 -2.523808 0.0039215689
-13.195238 14.629315 -2.5079479 0.035294119
-6.2551522 5.7018065 0.049083721 0.12941177
-24.063261 26.678448 -0.2093007 0.011764706
-15.563659 15.645586 -2.3774292 0.047058824
-16.411749 20.087267 -2.4217172 0.039215688
-26.527134 26.666723 0.87472349 0.0078431377
-17.646114 21.598036 0.32432842 0.0039215689
-25.436842 25.570736 -2.5226214 0.011764706
-19.22019 21.309057 -2.3430343 0.015686275
-6.2673879 5.7129579 0.24669552 0.027450981
-24.078768 26.695631 0.62702817 0.015686275
-23.771936 21.66905 -2.0619409 0.019607844
-21.783653 26.662233 -2.0055532 0.015686275
-26.610548 26.750566 2.1968918 0.070588239
-24.148149 26.772541 1.4683897 0.094117649
-26.409725 26.548729 -1.7448852 0.019607844
-24.175135 26.802502 -1.8921236 0.015686275
-24.154825 26.779924 2.9435999 0.078431375
-6.2471128 5.6944814 -0.34449178 0.15294118
-11.420032 11.480078 4.338625 0.0039215689
-5.1158409 5.671802 1.3925296 0
-26.30995 26.44842 -0.86861175 0.086274512
-3.2621486 3.64346 -2.2804997 0.0039215689
-6.2245255 5.7158041 -0.14761566 0.17647059
-24.022234 26.830059 -1.0485641 0.011764706
-5.3968182 5.4651575 -2.1502268 0.019607844
-8.1657 9.1201601 -2.4484832 0.0039215689
-26.371706 26.705561 -0.00052663026 0.023529412
-21.675732 26.729485 -0.40109253 0.082352944
-11.405836 11.550251 -2.5256524 0.0039215689
-13.128292 14.662802 -2.5054216 0.039215688
-6.2518878 5.7409286 0.049223069 0.12156863
-23.898609 26.691973 -0.20871699 0.011764706
-15.478261 15.674231 -2.3731441 0.047058824
-16.343027 20.153477 -2.4224601 0.027450981
-26.336483 26.669882 0.87165576 0.0078431377
-21.708494 26.769876 0.40079117 0.0078431377
-25.326118 25.646765 -2.520946 0.011764706
-21.843842 24.397066 -2.6737559 0.082352944
-6.2640753 5.7521181 0.24739355 0.019607844
-23.903387 26.697298 0.62500644 0.015686275
-29.731567 27.301685 -2.5875373 0.043137256
-21.612841 26.651957 -1.9988061 0.015686275
-26.419725 26.754164 2.1892207 0.070588239
-23.991201 26.795364 1.4648099 0.094117649
-26.281347 26.614079 -1.7428361 0.019607844
-24.00745 26.813557 -1.886678 0.015686275
-5.3366084 5.404151 0.93245184 0
-23.987362 26.791056 2.9351406 0.078431375
-6.2409172 5.7308578 -0.34530601 0.15686275
-21.66398 26.715008 -1.2015537 0.035294119
-26.30274 26.635733 -0.87159026 0.011764706
-3.2470028 3.6521146 -2.2788091 0.0039215689
-6.2250919 5.7565031 -0.14810453 0.2
-23.848743 26.8241 -1.0450704 0.011764706
-5.3750134 5.4812117 -2.1491485 0.023529412
-8.1572733 9.1749887 -2.4555438 0.0039215689
-26.188713 26.706057 -0.00052375835 0.023529412
-21.51959 26.727095 -0.39992595 0.082352944
-11.379286 11.604101 -2.5287266 0.0039215689
-13.074396 14.705569 -2.504916 0.035294119
-6.2494316 5.7790089 0.049362399 0.20392157
-23.730881 26.691523 -0.20806342 0.011764706
-15.395612 15.699766 -2.3688591 0.054901961
-16.262592 20.197989 -2.4209716 0.027450981
-26.162041 26.678848 0.86895996 0.0078431377
-21.564754 26.783175 0.39986208 0.0078431377
-25.242035 25.740707 -2.5215032 0.011764706
-21.66584 24.368881 -2.6623619 0.11372549
-6.2733154 5.8010936 0.24855679 0.0078431377
-23.722363 26.681932 0.62270564 0.015686275
-23.545929 21.77356 -2.0557978 0.019607844
-21.469595 26.66502 -1.9941528 0.015686275
-26.242304 26.760681 2.1822467 0.082352944
-23.817863 26.789335 1.4599278 0.094117649
-26.123949 26.640034 -1.7385529 0.0078431377
-23.834093 26.807632 -1.8803949 0.015686275
-23.824831 26.797153 2.9266815 0.078431375
-6.2355475 5.7661738 -0.34612024 0.22745098
-21.522968 26.7313 -1.1988991 0.12941177
-26.128414 26.644577 -0.86888903 0.011764706
-3.2414324 3.6715798 -2.2838805 0.0039215689
-6.210814 5.783649 -0.14824407 0.12941177
-23.688808 26.832256 -1.042159 0.011764706
-5.3585348 5.5026994 -2.1502264 0.023529412
-8.1148138 9.1916466 -2.4524052 0.0039215689
-26.014402 26.714203 -0.00052106008 0.023529412
-21.376213 26.739565 -0.39899248 0.05882353
-11.344227 11.649416 -2.5299561 0.0039215689
-13.004601 14.730298 -2.5013795 0.039215688
-6.2175126 5.7898855 0.049269862 0.090196081
-23.56344 26.690239 -0.20740984 0.011764706
-15.287997 15.699275 -2.360718 0.047058824
-16.196962 20.260855 -2.4217145 0.027450981
-25.973896 26.672596 0.86579913 0.0078431377
-17.520069 21.915892 0.32628453 0.0039215689
-25.126972 25.802931 -2.5189905 0.011764706
-17.863649 16.635031 0.71004695 0.050980393
-23.568203 26.695623 0.62110233 0.015686275
-21.32402 26.674301 -1.9892669 0.015686275
-26.062368 26.763435 2.1750402 0.082352944
-23.650137 26.788418 1.455371 0.094117649
-25.952745 26.650908 -1.7333388 0.0078431377
-23.67428 26.815805 -1.8751589 0.015686275
-23.66782 26.808428 2.9188728 0.078431375
-6.2066083 5.7797341 -0.34563139 0.082352944
-21.362133 26.721964 -1.1951276 0.074509807
-25.951551 26.649672 -0.86609465 0.011764706
-3.2262056 3.6801472 -2.2821896 0.0039215689
-6.1818333 5.7970877 -0.14803424 0.14117648
-23.508017 26.815571 -1.038316 0.011764706
-5.3339367 5.5158343 -2.1480696 0.023529412
-8.0930185 9.2317171 -2.455543 0.0039215689
-25.829226 26.709967 -0.00051813084 0.023529412
-21.218088 26.732574 -0.39777926 0.070588239
-11.317228 11.703154 -2.5330305 0.0039215689
-6.2060161 5.8197637 0.049339637 0.11764706
-23.412115 26.706163 -0.2068961 0.011764706
-15.208219 15.72682 -2.3568616 0.047058824
-16.145943 20.34223 -2.4246883 0.039215688
-25.800011 26.679745 0.86310327 0.0078431377
