# .PCD v0.7 - Point Cloud Data file format
VERSION 0.7
FIELDS x y z intensity
SIZE 4 4 4 4
TYPE F F F F
COUNT 1 1 1 1
WIDTH 1090
HEIGHT 1
VIEWPOINT 0 0 0 1 0 0 0
POINTS 1090
DATA ascii
25.235868 -16.172796 0.53750461 0.054901961
15.978007 -11.3259 -1.1205615 0.027450981
21.403648 -12.273035 1.4415518 0.027450981
27.196262 -17.438389 1.3282692 0.062745102
30.672279 -17.634108 4.3447123 0.011764706
55.405685 -35.650826 5.4032354 0.062745102
16.950014 -12.022973 -0.70850182 0.039215688
21.151373 -12.126302 6.5049114 0.0039215689
29.565063 -18.967108 6.3968081 0.011764706
24.581205 -14.111455 -0.63991433 0.086274512
4.3670149 -2.7192147 -2.3229692 0.0039215689
27.292118 -14.072783 -0.51611906 0.10980392
20.081039 -12.938502 -0.67711568 0.10588235
7.296833 -4.1449313 -2.2994428 0.0039215689
8.8526535 -5.6363831 -2.0617452 0.047058824
26.32032 -15.233253 0.017077325 0.13333334
20.326796 -14.546112 -0.27491099 0.043137256
11.214581 -6.4285145 -1.9787607 0.047058824
13.683705 -8.7782183 -2.0402458 0.0078431377
29.233786 -15.080736 0.20844792 0.050980393
23.475634 -15.146084 -0.14560246 0.047058824
16.093323 -9.2723036 -1.9729133 0.015686275
16.134722 -11.518653 -1.8251455 0.035294119
20.316833 -14.538857 0.30345774 0.050980393
17.19976 -11.064809 -1.6452194 0.027450981
25.044636 -16.166386 0.5345614 0.074509807
23.517746 -12.113398 -1.670204 0.0078431377
15.982445 -11.408607 -1.1235502 0.027450981
31.12241 -18.032038 2.1057174 0.078431375
27.031071 -17.458147 1.3229988 0.019607844
19.951067 -11.520818 -1.0527529 0.11372549
17.758476 -11.428095 -1.0865766 0.015686275
22.90683 -13.243043 3.2444284 0.0039215689
19.681507 -12.678337 1.9120651 0.0039215689
21.541832 -11.087404 -0.96691698 0.023529412
16.978107 -12.127654 -0.71138042 0.039215688
20.717196 -11.966228 6.3825073 0.0039215689
24.399534 -14.113739 -0.63635892 0.082352944
4.3665948 -2.7397583 -2.3280327 0.0039215689
27.090471 -14.087546 -0.51319414 0.15294118
20.089258 -13.04294 -0.67893273 0.070588239
7.2789979 -4.167779 -2.2983627 0.015686275
8.823081 -5.6601529 -2.0593944 0.047058824
26.022125 -15.18052 0.016934134 0.094117649
20.334112 -14.65869 -0.27570164 0.054901961
11.205704 -6.4749866 -1.9812057 0.043137256
13.636383 -8.8144083 -2.0377254 0.0078431377
29.028589 -15.102264 0.20737259 0.16078432
23.312214 -15.154943 -0.14489883 0.062745102
16.078001 -9.3378525 -1.9750358 0.0039215689
16.007456 -11.510989 -1.8151627 0.031372551
27.897318 -16.28223 0.7660957 0.050980393
20.340343 -14.663166 0.30458751 0.062745102
16.964287 -10.995201 -1.6261414 0.043137256
31.393272 -16.340319 1.0448633 0.043137256
24.901073 -16.196072 0.53269911 0.082352944
21.636368 -11.231827 -1.5382928 0.015686275
15.968354 -11.482474 -1.1253872 0.035294119
30.959425 -18.081259 2.0989258 0.031372551
17.507984 -11.351429 -1.073521 0.031372551
23.312265 -13.587749 3.309078 0.0039215689
25.114534 -13.053008 -1.1307596 0.015686275
19.71571 -14.208826 -0.82948852 0.074509807
21.847723 -12.726682 6.7476888 0.0039215689
25.288513 -16.449341 5.4900389 0.035294119
24.305296 -14.171844 -0.63516492 0.086274512
4.3509531 -2.7503405 -2.3246541 0.0039215689
26.952713 -14.134689 -0.51148677 0.10980392
20.083643 -13.13878 -0.6802935 0.06666667
7.2577753 -4.1885881 -2.2962065 0.0039215689
8.7770824 -5.6729774 -2.0531325 0.047058824
25.848515 -15.199272 0.016870324 0.074509807
20.369923 -14.792776 -0.27689117 0.043137256
11.176232 -6.509387 -1.9799743 0.050980393
13.602221 -8.8591213 -2.0372167 0.011764706
28.696268 -15.055298 0.20538113 0.090196081
23.185732 -15.187091 -0.14442655 0.05882353
16.06584 -9.4054327 -1.9775842 0.0078431377
15.925415 -11.535542 -1.8103535 0.054901961
27.571938 -16.219917 0.75867951 0.070588239
20.369682 -14.792545 0.3058148 0.035294119
19.349304 -11.350118 -1.5448409 0.035294119
16.892534 -11.031735 -1.622902 0.035294119
22.012789 -11.525788 0.73226398 0.015686275
24.800997 -16.253601 0.53177333 0.082352944
21.445236 -11.226479 -1.5273726 0.0078431377
15.786455 -11.433634 -1.1152488 0.047058824
21.763996 -12.779844 1.4749229 0.039215688
26.648384 -17.473373 1.3101472 0.086274512
19.323513 -11.334762 -1.02349 0.023529412
20.098347 -13.148559 -1.23692 0.027450981
20.387598 -13.339153 1.9904007 0.0039215689
21.326067 -11.163445 -0.96062505 0.015686275
19.59828 -14.227291 -0.82659787 0.06666667
24.166468 -14.20188 7.4853048 0.0039215689
25.227646 -16.53471 5.4893298 0.011764706
24.162777 -14.200932 -0.63269949 0.074509807
4.3383069 -2.7628558 -2.3229637 0.0039215689
26.786715 -14.166002 -0.50923878 0.062745102
20.097576 -13.248028 -0.68233913 0.062745102
7.2497268 -4.2172003 -2.2983551 0.0039215689
8.7310982 -5.6855493 -2.0468705 0.054901961
25.750652 -15.262108 0.016855022 0.074509807
20.369642 -14.901155 -0.27759343 0.050980393
11.170411 -6.5578446 -1.983032 0.047058824
13.56791 -8.9037018 -2.0367081 0.0078431377
23.376053 -12.349524 0.16744292 0.039215688
23.022682 -15.194169 -0.14372349 0.047058824
16.046574 -9.4689665 -1.9792807 0.0078431377
15.83058 -11.550202 -1.8040665 0.043137256
21.867002 -12.943438 0.60197181 0.015686275
20.375837 -14.905676 0.30670023 0.050980393
19.169094 -11.333076 -1.5334816 0.039215688
17.345181 -11.416852 -1.6707315 0.050980393
24.567635 -16.222013 0.52796519 0.078431375
15.75287 -11.492767 -1.1157042 0.027450981
30.458719 -18.072565 2.0733683 0.078431375
17.154041 -11.289371 0.84218591 0.031372551
19.249516 -11.381016 -1.0216408 0.031372551
17.215464 -11.33047 -1.0602514 0.043137256
21.145857 -11.162025 -0.95418644 0.031372551
19.484173 -14.247482 -0.82384479 0.06666667
26.538174 -15.731029 8.2426329 0.011764706
20.311571 -13.389782 4.4220524 0.011764706
24.040955 -14.241495 -0.63077933 0.062745102
4.3376718 -2.7833941 -2.3280272 0.0039215689
20.114307 -13.35976 -0.68449897 0.050980393
7.2316604 -4.2398481 -2.2972753 0.0039215689
8.7046804 -5.7109771 -2.0453024 0.047058824
25.563551 -15.270825 0.016781708 0.050980393
20.349598 -14.995395 -0.27803007 0.054901961
11.18132 -6.6165323 -1.9891535 0.047058824
13.52686 -8.9437351 -2.0351939 0.011764706
22.886438 -15.218115 -0.14318871 0.035294119
16.013422 -9.5242758 -1.9792725 0.0078431377
15.70707 -11.542949 -1.794454 0.082352944
20.344925 -12.130406 0.56092018 0.0078431377
18.237532 -13.42463 0.27497047 0.019607844
19.129414 -11.399276 -1.5334717 0.035294119
16.977371 -11.256891 -1.6387255 0.027450981
24.358044 -16.20459 0.52466106 0.05882353
21.13423 -11.249974 -1.5106061 0.023529412
15.674205 -11.518444 -1.1129357 0.047058824
20.120913 -11.995484 1.3683581 0.011764706
17.127802 -11.357439 0.84285337 0.023529412
19.0693 -11.363025 -1.0140907 0.031372551
17.126034 -11.356483 -1.0571376 0.035294119
25.138432 -16.727524 2.4698343 0.027450981
23.409575 -12.471851 -1.0592299 0.035294119
19.399033 -14.288523 -0.82232785 0.047058824
23.860886 -14.246333 -0.62731528 0.082352944
4.3189144 -2.7917826 -2.3229604 0.0039215689
23.258249 -12.494444 -0.44328296 0.086274512
20.100679 -13.451628 -0.68563181 0.05882353
7.2201099 -4.266417 -2.2983479 0.0039215689
8.6879435 -5.7428784 -2.0460813 0.054901961
25.34934 -15.261829 0.016690267 0.062745102
20.30353 -15.070489 -0.27811238 0.043137256
11.131116 -6.6384773 -1.984246 0.047058824
13.492269 -8.9880342 -2.0346856 0.015686275
27.970751 -15.046379 0.20133707 0.082352944
20.148323 -13.483743 -0.12616731 0.10196079
15.966473 -9.5712175 -1.9775594 0.0039215689
15.622054 -11.563628 -1.7892758 0.062745102
20.431334 -15.166178 0.30915424 0.011764706
18.963263 -11.388768 -1.5232199 0.039215688
24.109108 -16.159039 0.52049202 0.078431375
22.663908 -12.172783 -1.6239697 0.0078431377
15.375021 -11.378509 -1.0942767 0.035294119
21.646038 -13.015485 1.4761306 0.039215688
25.139189 -16.85474 1.2441517 0.019607844
18.950937 -11.381216 -1.0098511 0.031372551
16.930704 -11.310461 -1.0473967 0.043137256
20.839222 -12.525914 2.9800587 0.015686275
20.164196 -13.494214 1.9822338 0.0039215689
23.379951 -12.560459 -1.0598583 0.035294119
19.272247 -14.29798 -0.81902581 0.047058824
23.691338 -14.256308 -0.62412411 0.070588239
4.3091431 -2.8061943 -2.3229587 0.0039215689
25.847115 -14.012518 -0.49397776 0.062745102
20.123018 -13.568306 -0.68802011 0.05882353
7.2051735 -4.290947 -2.2983444 0.0039215689
8.6645994 -5.7703152 -2.0452952 0.047058824
25.186701 -15.282815 0.016631842 0.050980393
20.177364 -15.085212 -0.27708733 0.050980393
11.107876 -6.6766448 -1.9842404 0.047058824
13.470653 -9.0411243 -2.0361886 0.015686275
27.784655 -15.070432 0.20038681 0.15294118
20.144117 -13.582601 -0.12643215 0.094117649
15.939754 -9.6303959 -1.9784038 0.0039215689
15.476676 -11.538271 -1.7770768 0.035294119
18.059082 -10.925594 0.4994871 0.031372551
18.831469 -11.39805 -1.5157367 0.035294119
16.957701 -11.414227 -1.6445297 0.05882353
28.053867 -15.217316 0.94193041 0.11764706
24.009571 -16.2132 0.51956505 0.05882353
20.858973 -11.288809 -1.4963772 0.015686275
15.287394 -11.395383 -1.0908177 0.035294119
18.812227 -11.386213 -1.0045085 0.031372551
17.02652 -11.460993 -1.055881 0.062745102
21.875881 -13.258441 3.1362789 0.0039215689
20.834879 -11.275558 -0.94531345 0.023529412
19.126488 -14.292285 -0.81489998 0.039215688
27.39045 -16.62874 8.5632381 0.011764706
20.772011 -14.009376 4.5552201 0.023529412
23.624369 -14.327845 -0.623658 0.039215688
4.2993212 -2.8205724 -2.322957 0.0039215689
25.563311 -13.972766 -0.48943266 0.086274512
20.17116 -13.703394 -0.69132149 0.047058824
7.1901512 -4.3154249 -2.2983408 0.0039215689
8.6411695 -5.7976608 -2.0445096 0.05882353
21.884321 -13.368332 0.014519928 0.090196081
20.041786 -15.091981 -0.2759296 0.043137256
11.091232 -6.7188787 -1.9854605 0.043137256
27.665302 -15.130029 0.1999197 0.19215687
20.179052 -13.708742 -0.12694915 0.078431375
15.899265 -9.6811581 -1.9775436 0.0078431377
15.347521 -11.524096 -1.7667255 0.086274512
18.017424 -10.985826 0.49940076 0.035294119
17.723385 -13.329768 0.269274 0.031372551
18.716824 -11.41702 -1.5096377 0.027450981
16.536324 -11.211163 -1.6070296 0.043137256
23.741724 -16.15152 0.51496291 0.050980393
22.476967 -12.27358 -1.6165875 0.035294119
15.190294 -11.404534 -1.0866679 0.031372551
15.890524 -10.768076 0.78691363 0.023529412
18.629484 -11.363135 -0.99677551 0.031372551
16.887568 -11.451941 -1.0496612 0.050980393
16.239088 -11.006988 1.6004815 0.019607844
24.352531 -13.306202 -1.1085016 0.023529412
18.965086 -14.27365 -0.81008768 0.054901961
27.601927 -16.889776 8.6483221 0.023529412
22.014877 -13.448853 -0.58204782 0.043137256
4.2804995 -2.8287325 -2.3178902 0.0039215689
25.458433 -14.030208 -0.488336 0.086274512
20.172548 -13.807167 -0.69302529 0.043137256
7.171771 -4.3378186 -2.297261 0.0039215689
8.63379 -5.8360615 -2.0476353 0.054901961
21.82053 -13.433448 0.014519505 0.054901961
19.934992 -15.119868 -0.2751708 0.054901961
11.081143 -6.7652488 -1.9879059 0.035294119
13.413737 -9.1381664 -2.0371835 0.031372551
27.542374 -15.187032 0.19942686 0.16470589
20.200186 -13.826198 -0.12738222 0.062745102
15.882271 -9.7464437 -1.9796668 0.0078431377
15.285063 -11.560002 -1.7641346 0.054901961
17.924608 -11.014259 0.49788505 0.035294119
17.670391 -13.386044 0.26918134 0.043137256
18.510744 -11.378491 -1.4960651 0.035294119
16.667665 -11.386012 -1.6238303 0.05882353
28.016859 -15.450326 0.94433463 0.11764706
23.57003 -16.154093 0.51245022 0.050980393
22.350222 -12.304814 -1.6104872 0.015686275
15.324783 -11.590359 -1.0993298 0.023529412
29.33807 -18.101084 2.0180368 0.06666667
15.875854 -10.838739 0.78807539 0.035294119
20.052767 -12.335933 -1.0760266 0.047058824
16.86721 -11.523799 -1.0508972 0.031372551
16.134962 -11.017648 1.5939338 0.015686275
24.204597 -13.334222 -1.1038293 0.023529412
18.864361 -14.300236 -0.80788487 0.054901961
20.539064 -12.636835 6.434463 0.0039215689
23.49992 -16.105137 5.1835241 0.0039215689
20.078897 -12.352081 -0.53153849 0.031372551
4.2795272 -2.8492248 -2.3229537 0.0039215689
25.342989 -14.081228 -0.48703679 0.074509807
20.186581 -13.92025 -0.69518566 0.039215688
7.1631165 -4.3662663 -2.2994101 0.0039215689
8.6037054 -5.8587933 -2.0452852 0.05882353
24.723495 -15.354947 0.01647033 0.05882353
19.812407 -15.134984 -0.27419072 0.054901961
11.023952 -6.7822709 -1.9817735 0.05882353
13.371986 -9.1774845 -2.0356703 0.035294119
27.436834 -15.253132 0.19906099 0.16470589
20.217461 -13.941679 -0.12779441 0.094117649
15.851521 -9.8032846 -1.9800853 0.0078431377
15.18469 -11.566429 -1.7571094 0.074509807
17.858929 -11.059145 0.49713144 0.035294119
17.645723 -13.4641 0.26952809 0.047058824
17.885714 -11.076175 -1.4481697 0.035294119
16.559097 -11.395648 -1.6170366 0.043137256
29.508322 -16.4125 0.99687552 0.082352944
23.398603 -16.155664 0.50993717 0.070588239
20.366898 -11.296052 -1.4692023 0.0078431377
15.20201 -11.579734 -1.0933378 0.019607844
29.108833 -18.098944 2.0065465 0.06666667
15.782154 -10.854635 0.78527504 0.035294119
18.082266 -11.199109 -0.97137976 0.019607844
16.656387 -11.463297 -1.0401218 0.035294119
19.780571 -12.261351 2.8518004 0.0039215689
15.919708 -10.950284 1.576244 0.019607844
20.325054 -11.27254 -0.92728692 0.031372551
18.732014 -14.30188 -0.80430895 0.047058824
4.2636175 -2.8593354 -2.3195753 0.0039215689
25.203119 -14.117857 -0.48526469 0.074509807
20.21316 -14.042784 -0.69780266 0.031372551
7.1510897 -4.3926525 -2.3004827 0.0039215689
8.5928373 -5.8949008 -2.0476289 0.043137256
24.402454 -15.271947 0.016305795 0.05882353
19.753136 -15.1985 -0.27409679 0.054901961
10.973462 -6.803196 -1.9768667 0.043137256
13.339869 -9.2234592 -2.0356653 0.035294119
27.264978 -15.281329 0.19821119 0.13333334
20.240717 -14.062045 -0.12824872 0.050980393
15.13793 -11.613832 -1.7563664 0.06666667
17.793154 -11.10371 0.49637768 0.039215688
17.529121 -13.470994 0.26845855 0.031372551
18.319473 -11.435905 -1.4869131 0.035294119
16.47678 -11.422978 -1.6128286 0.047058824
29.335941 -16.449919 0.99297965 0.1254902
23.279844 -16.192974 0.50857681 0.050980393
15.259262 -11.708023 -1.1004729 0.015686275
28.930635 -18.12738 1.9985781 0.06666667
15.757253 -10.918196 0.78594136 0.019607844
17.884212 -11.161334 -0.96272808 0.031372551
16.62281 -11.525311 -1.0405297 0.043137256
64.089455 -40.299362 9.3196678 0.05882353
15.819364 -10.961663 1.5700238 0.031372551
23.89859 -13.381761 -1.0940033 0.015686275
16.32675 -12.537147 -0.70185351 0.039215688
20.638794 -14.340665 4.5696459 0.011764706
20.022612 -12.509864 -0.53233671 0.086274512
4.2737966 -2.8819244 -2.326194 0.0039215689
25.109762 -14.17555 -0.48346844 0.074509807
20.240824 -14.16114 -0.6995154 0.039215688
7.137538 -4.4128304 -2.2981071 0.0078431377
8.5356627 -5.8925529 -2.0363958 0.054901961
24.289682 -15.31358 0.017049663 0.082352944
19.610514 -15.190382 -0.27203199 0.062745102
11.011328 -6.8747807 -1.9863191 0.047058824
13.319118 -9.2716732 -2.035722 0.035294119
27.139706 -15.330387 0.19847216 0.22352941
20.261793 -14.175889 -0.1279633 0.062745102
15.774195 -9.9018297 -1.977439 0.019607844
15.014591 -11.594853 -1.7451239 0.023529412
15.927715 -12.309079 0.24479799 0.011764706
18.159725 -11.417889 -1.4758083 0.039215688
16.438555 -11.475254 -1.6116294 0.047058824
29.071051 -16.429108 0.98653585 0.082352944
23.11377 -16.190506 0.50676495 0.05882353
21.950827 -12.378436 -1.5894891 0.0078431377
15.23913 -11.770469 -1.1008596 0.019607844
28.82814 -18.197723 1.9962291 0.074509807
24.168659 -16.935621 1.2136542 0.019607844
20.085861 -12.64199 -1.0838166 0.031372551
23.811338 -13.436904 -1.0910136 0.023529412
16.234449 -12.549131 -0.69881105 0.031372551
23.662643 -16.577702 5.2570314 0.0039215689
20.054556 -12.622015 -0.53350413 0.17254902
4.260757 -2.894047 -2.3245044 0.0039215689
24.980331 -14.216671 -0.48190123 0.074509807
20.269447 -14.286675 -0.70224345 0.090196081
7.115602 -4.4328861 -2.2959514 0.0078431377
8.5022583 -5.912539 -2.0332642 0.047058824
24.111448 -15.31778 0.016974939 0.05882353
19.535372 -15.240741 -0.27171731 0.050980393
10.950647 -6.8890486 -1.9795752 0.070588239
13.286673 -9.3174343 -2.035717 0.031372551
26.933359 -15.336789 0.19736338 0.14117648
20.280622 -14.294564 -0.12839396 0.074509807
15.679248 -9.9175444 -1.9697622 0.031372551
14.895816 -11.584888 -1.7358845 0.031372551
25.815342 -16.408964 0.72619808 0.050980393
15.840667 -12.329273 0.24411717 0.031372551
18.02231 -11.418119 -1.4677755 0.047058824
16.346426 -11.494903 -1.6064533 0.078431375
28.815834 -16.416424 0.97978836 0.10196079
19.691135 -13.874985 0.4322176 0.039215688
14.799603 -11.509021 -1.0716225 0.019607844
24.141953 -17.042385 1.2153156 0.0078431377
16.380957 -11.519413 -1.0292022 0.023529412
24.062346 -16.985598 2.4094398 0.011764706
23.684547 -13.473528 -1.0873077 0.023529412
16.115185 -12.545668 -0.69551331 0.054901961
20.534599 -13.026018 6.4880681 0.015686275
22.29986 -15.731013 4.9640813 0.0039215689
20.064255 -12.725777 -0.53494561 0.094117649
4.248188 -2.9054055 -2.3228145 0.0039215689
24.870722 -14.262767 -0.48067245 0.094117649
20.286957 -14.399756 -0.70451599 0.070588239
7.1073375 -4.4599934 -2.2981002 0.0078431377
8.4730387 -5.9332032 -2.0309145 0.054901961
23.912624 -15.3016 0.016882883 0.070588239
19.42519 -15.257567 -0.27087283 0.043137256
11.010779 -6.9782567 -1.9948847 0.039215688
13.252476 -9.35849 -2.0352097 0.031372551
26.77153 -15.361328 0.19656025 0.10196079
20.317635 -14.421679 -0.1289295 0.047058824
15.58946 -9.932189 -1.9625121 0.035294119
14.794914 -11.58407 -1.7284926 0.031372551
21.053066 -13.456676 0.59255707 0.015686275
16.009623 -12.547654 0.24740052 0.031372551
17.910582 -11.429589 -1.4616801 0.047058824
16.249886 -11.506601 -1.6006317 0.047058824
28.622766 -16.431219 0.97505724 0.14117648
20.334167 -14.433464 0.44752601 0.039215688
14.751971 -11.54995 -1.0709282 0.023529412
17.020033 -10.854683 1.1783403 0.070588239
16.092653 -11.393852 -1.0132588 0.019607844
13.909996 -8.8481255 2.0144076 0.078431375
15.665239 -11.087255 1.5656488 0.0039215689
14.942945 -11.701432 -0.64597344 0.027450981
25.490471 -16.31842 8.0858927 0.011764706
22.356298 -15.882172 4.9885631 0.0039215689
20.075706 -12.82629 -0.53638756 0.094117649
4.2409606 -2.9216633 -2.3245013 0.0039215689
24.786224 -14.328684 -0.47998309 0.074509807
20.252777 -14.481509 -0.70507842 0.086274512
7.0852656 -4.4798994 -2.2959447 0.0078431377
8.4554567 -5.9643641 -2.0316935 0.047058824
23.768513 -15.325438 0.016830988 0.070588239
19.268696 -15.242208 -0.26940975 0.054901961
10.992982 -7.0202823 -1.9961046 0.035294119
13.210073 -9.3970461 -2.0336962 0.035294119
26.593327 -15.381516 0.1956553 0.20392157
20.335272 -14.541008 -0.12936039 0.06666667
15.501341 -9.9511833 -1.9556878 0.035294119
14.707715 -11.597672 -1.7229478 0.031372551
16.006344 -12.635249 0.24804097 0.035294119
17.358698 -11.158587 -1.4193388 0.023529412
16.10618 -11.487894 -1.5902865 0.019607844
28.451233 -16.463936 0.97115731 0.12156863
19.928623 -11.498466 -1.4502728 0.062745102
14.720922 -11.608176 -1.071615 0.0039215689
16.975336 -10.909001 1.1778786 0.039215688
24.388298 -17.46702 1.2338352 0.0078431377
16.124035 -11.500723 -1.0178063 0.011764706
13.975543 -8.958703 2.0286191 0.054901961
19.914505 -11.490151 -0.9163391 0.070588239
14.789578 -11.663008 -0.64102978 0.023529412
14.022138 -9.9827776 3.1206782 0.0039215689
20.111273 -12.947927 -0.53855485 0.090196081
4.2160735 -2.9251091 -2.3160582 0.0039215689
24.667082 -14.373935 -0.47861916 0.074509807
19.299929 -13.895301 -0.67326665 0.023529412
7.0792522 -4.5102625 -2.2991698 0.0039215689
8.4472752 -6.0023975 -2.0348191 0.047058824
23.617838 -15.344076 0.016774109 0.070588239
19.10943 -15.223438 -0.26790273 0.043137256
10.96841 -7.0579367 -1.9960994 0.023529412
13.177191 -9.4424276 -2.0336914 0.035294119
26.463593 -15.429014 0.195108 0.19215687
20.345854 -14.655935 -0.12974964 0.062745102
15.426588 -9.978404 -1.9505676 0.062745102
25.183384 -16.369545 0.7130692 0.047058824
16.015106 -12.733003 0.24887706 0.0078431377
17.10935 -11.080678 -1.4018997 0.039215688
16.111122 -11.576204 -1.5948039 0.019607844
28.334976 -16.528055 0.96915597 0.14117648
20.352575 -14.660766 0.45021167 0.06666667
16.883707 -10.932512 1.1741283 0.043137256
16.178892 -11.62524 0.81738484 0.015686275
16.141939 -11.598558 -1.021526 0.011764706
15.539086 -11.159838 1.5607431 0.015686275
19.63648 -11.419252 -0.9052527 0.031372551
14.755002 -11.718901 -0.6413005 0.011764706
13.92992 -9.9893427 3.1077271 0.0039215689
20.09606 -13.037098 -0.53936172 0.13725491
24.475653 -14.375738 -0.47583836 0.070588239
7.0602493 -4.5321474 -2.2980905 0.0078431377
8.4136124 -6.0218973 -2.0316875 0.06666667
23.480669 -15.370663 0.016726337 0.082352944
18.99402 -15.239004 -0.26701447 0.062745102
10.890921 -7.0606637 -1.9862933 0.035294119
13.140949 -9.4853458 -2.0331838 0.035294119
26.330402 -15.473753 0.19453479 0.18431373
20.375231 -14.785292 -0.13026428 0.035294119
15.341871 -9.9986506 -1.9441699 0.047058824
14.518094 -11.610936 -1.7100114 0.043137256
25.029301 -16.392796 0.71031433 0.062745102
16.910711 -11.034139 -1.3886111 0.05882353
15.941968 -11.537445 -1.5818744 0.047058824
28.184214 -16.571196 0.9659676 0.12156863
20.391603 -14.797228 0.45223996 0.054901961
19.3223 -11.324796 -1.4114634 0.047058824
16.822107 -10.975312 1.1724919 0.062745102
15.448285 -11.175509 0.78203845 0.0039215689
19.899637 -13.006498 2.9137204 0.015686275
15.545051 -11.246325 1.5653381 0.0039215689
19.321362 -11.324154 -0.89240128 0.015686275
14.633257 -11.704212 -0.63772929 0.039215688
21.036524 -13.756431 6.708066 0.011764706
20.113836 -13.148351 -0.54107571 0.06666667
4.207222 -2.9617333 -2.3228085 0.0039215689
24.342897 -14.411225 -0.47420514 0.090196081
19.871603 -14.522206 -0.69696325 0.05882353
7.0411787 -4.5539556 -2.2970111 0.0078431377
8.3736029 -6.0365791 -2.0269916 0.062745102
23.267002 -15.345531 0.016624181 0.078431375
18.919022 -15.286836 -0.26670074 0.082352944
10.859626 -7.0935841 -1.9850631 0.047058824
13.120531 -9.5399113 -2.0351906 0.031372551
26.059837 -15.43576 0.19293825 0.15294118
20.384642 -14.900784 -0.13065381 0.035294119
15.263825 -10.022835 -1.9386241 0.031372551
14.46205 -11.648274 -1.7081609 0.035294119
24.882023 -16.419601 0.70774984 0.078431375
19.938122 -16.11879 0.31227282 0.035294119
17.201029 -11.31121 -1.4159946 0.023529412
15.869517 -11.568672 -1.5786377 0.031372551
27.975122 -16.57865 0.96076095 0.05882353
20.394529 -14.908021 0.45347419 0.074509807
19.200382 -11.342401 -1.4053683 0.031372551
16.590702 -13.386065 -1.2198375 0.0078431377
25.235497 -16.65456 1.7696273 0.039215688
17.220558 -11.324137 -0.94023216 0.027450981
15.244192 -11.10711 -0.96894276 0.019607844
19.784687 -13.029047 2.9034433 0.015686275
19.213072 -11.349893 -0.88918036 0.031372551
14.387928 -11.587688 -0.62866968 0.023529412
19.955814 -13.142406 6.3750229 0.0039215689
20.251795 -14.802268 4.561029 0.015686275
20.111101 -13.246598 -0.54224557 0.10980392
4.1968575 -2.9757249 -2.3228071 0.0039215689
24.227325 -14.456264 -0.47290954 0.070588239
19.756613 -14.543097 -0.6946767 0.05882353
7.0252395 -4.5778308 -2.297008 0.0078431377
8.3335915 -6.0510526 -2.0222962 0.062745102
23.163446 -15.39258 0.016599366 0.06666667
18.785217 -15.286061 -0.26554784 0.050980393
10.8545 -7.1439767 -1.9887338 0.043137256
13.083966 -9.5826082 -2.0346832 0.023529412
25.920105 -15.474412 0.19231324 0.12156863
20.415962 -15.033219 -0.13118958 0.031372551
15.205618 -10.059879 -1.935635 0.047058824
14.378231 -11.662595 -1.7029861 0.023529412
24.671743 -16.40328 0.70337242 0.05882353
19.751978 -16.080925 0.31022146 0.086274512
16.743765 -11.090599 -1.3811253 0.027450981
15.761846 -11.573369 -1.5718474 0.047058824
20.177389 -12.019927 0.6926524 0.043137256
20.42902 -15.042871 0.45543006 0.074509807
19.02042 -11.324312 -1.3949641 0.015686275
20.201511 -13.407454 1.4172794 0.0078431377
15.119706 -11.095757 0.76916349 0.0039215689
15.012978 -11.016582 -0.95651901 0.011764706
25.022266 -16.637798 3.6881342 0.0078431377
14.410375 -10.568355 1.4571675 0.019607844
19.05689 -11.346167 -0.88371283 0.027450981
14.264016 -11.568615 -0.62496161 0.027450981
24.219728 -16.099451 7.7684617 0.0039215689
20.275772 -14.92854 4.578311 0.011764706
20.147789 -13.371702 -0.54450399 0.078431375
4.1777372 -2.9831598 -2.3177407 0.0039215689
24.142515 -14.519339 -0.47222155 0.05882353
19.657717 -14.575348 -0.6929602 0.043137256
7.0092168 -4.6016498 -2.2970049 0.0039215689
8.3155575 -6.0817809 -2.0230756 0.05882353
22.957079 -15.369703 0.016501281 0.06666667
15.349228 -12.549811 -0.21703529 0.015686275
10.868806 -7.2076912 -1.9960797 0.050980393
13.053613 -9.6299248 -2.0351818 0.027450981
25.780416 -15.512281 0.19168788 0.050980393
17.728355 -13.13047 -0.11400326 0.019607844
15.104485 -10.067706 -1.9271073 0.043137256
14.150309 -11.55708 -1.6804496 0.015686275
24.504963 -16.414785 0.70023495 0.05882353
19.649513 -16.110836 0.30949152 0.039215688
16.665264 -11.12151 -1.377798 0.035294119
15.507535 -11.467524 -1.5501951 0.05882353
21.817423 -13.109463 0.75106055 0.039215688
20.437204 -15.158966 0.45680836 0.054901961
18.946638 -11.369266 -1.3924187 0.054901961
14.217761 -11.612898 -1.049271 0.023529412
16.975506 -11.330934 -0.93102831 0.06666667
15.546773 -11.496855 -0.99356216 0.023529412
56.272942 -37.864254 8.3492289 0.054901961
13.591598 -10.032475 1.3768556 0.027450981
14.158888 -11.564118 -0.62207705 0.027450981
21.880177 -16.239122 4.9569383 0.0039215689
20.130812 -13.461417 -0.54531133 0.10588235
4.1701932 -2.9992325 -2.3194277 0.0039215689
23.938112 -14.509007 -0.46917209 0.05882353
19.498186 -14.561337 -0.68907821 0.050980393
6.9899254 -4.6232452 -2.2959259 0.0078431377
8.2723541 -6.0935593 -2.0175979 0.05882353
20.197979 -13.608608 0.014583163 0.043137256
10.833776 -7.2382402 -1.9942373 0.039215688
13.007243 -9.6651964 -2.0331664 0.023529412
21.896595 -13.261387 0.16299908 0.035294119
20.441435 -15.272799 -0.13203192 0.015686275
14.967308 -10.05034 -1.9138933 0.062745102
14.122114 -11.615932 -1.6819243 0.015686275
24.341709 -16.427572 0.69719249 0.027450981
19.457998 -16.065939 0.30734178 0.035294119
15.3942 -11.465688 -1.5427588 0.047058824
20.444824 -15.275302 0.45818651 0.039215688
20.068386 -12.144467 -1.4788524 0.023529412
14.082064 -11.582493 -1.0421326 0.019607844
16.495543 -11.089638 1.1603065 0.011764706
15.092917 -11.238208 0.77181661 0.031372551
16.932545 -11.387198 -0.93083715 0.06666667
15.452331 -11.509485 -0.99003869 0.023529412
13.664698 -10.16081 1.388006 0.011764706
18.816919 -11.379635 -0.87614882 0.011764706
14.03861 -11.546227 -0.61850655 0.023529412
22.944073 -15.475898 7.3908134 0.023529412
22.413904 -16.760193 5.0922699 0.0039215689
20.16305 -13.584916 -0.54747927 0.090196081
4.1510372 -3.0065131 -2.3143616 0.0039215689
22.000734 -13.429887 -0.43177876 0.039215688
19.4154 -14.604446 -0.68793213 0.062745102
6.9737444 -4.6469402 -2.295923 0.0039215689
8.2291698 -6.1051097 -2.0121202 0.050980393
15.144853 -12.557562 -0.21535033 0.023529412
10.78562 -7.2596931 -1.9899448 0.047058824
12.95447 -9.6954613 -2.0301461 0.023529412
16.008772 -12.015986 -0.1033262 0.011764706
14.932135 -10.101849 -1.9138869 0.043137256
13.874091 -11.490287 -1.6568022 0.015686275
24.086311 -16.37612 0.69147831 0.043137256
19.377295 -16.112511 0.30695406 0.05882353
16.630001 -11.26556 -1.3813803 0.043137256
15.350909 -11.516267 -1.5424309 0.050980393
22.004526 -13.432041 0.76081705 0.047058824
20.470987 -15.406392 0.45999765 0.054901961
20.05986 -12.234702 -1.4813766 0.023529412
13.940637 -11.546146 -1.0345341 0.019607844
26.864706 -18.280378 1.9026312 0.074509807
15.050412 -11.287734 0.77165622 0.019607844
16.892689 -11.44556 -0.93082994 0.054901961
15.335724 -11.504678 -0.98506653 0.027450981
24.944883 -16.964245 3.7028615 0.019607844
13.645013 -10.219836 1.3896495 0.0078431377
18.657974 -11.371215 -0.87052149 0.050980393
13.900262 -11.51221 -0.61411297 0.0039215689
22.966373 -15.607646 7.4157248 0.0039215689
34.689766 -26.209343 7.9261785 0.027450981
20.184772 -13.702021 -0.54937524 0.086274512
4.1433959 -3.0225132 -2.3160486 0.0039215689
21.923134 -13.486947 -0.43115997 0.078431375
19.323025 -14.639866 -0.68644428 0.047058824
6.9543109 -4.6683903 -2.2948442 0.0039215689
8.2015762 -6.1283536 -2.0105534 0.05882353
20.141975 -13.775216 0.014628599 0.094117649
15.711669 -13.126313 -0.22418286 0.047058824
10.750454 -7.2898846 -1.9881027 0.047058824
12.942603 -9.7568274 -2.0336611 0.015686275
21.966602 -13.513839 0.16425028 0.039215688
14.837873 -10.112555 -1.9062121 0.047058824
13.806529 -11.514822 -1.6534752 0.023529412
23.910536 -16.377621 0.68805361 0.043137256
19.302607 -16.163883 0.30666405 0.047058824
16.482218 -11.248038 -1.3722433 0.039215688
15.307449 -11.566683 -1.5421031 0.027450981
17.738367 -10.889282 0.61340457 0.023529412
18.368666 -11.28081 -1.3581666 0.019607844
16.497869 -13.791418 -1.2306384 0.031372551
16.033278 -10.937707 1.1328356 0.019607844
15.153733 -11.448833 0.77909505 0.023529412
16.612612 -11.33803 -0.91740781 0.019607844
15.190785 -11.477347 -0.97823173 0.039215688
14.177301 -9.6558962 2.0972428 0.027450981
13.615581 -10.271579 1.3903093 0
18.533268 -11.382906 -0.86649936 0.027450981
22.730543 -15.561937 7.3565936 0.0039215689
22.79315 -17.295153 5.2067342 0.0039215689
20.199339 -13.814898 -0.55108994 0.05882353
4.1440301 -3.038496 -2.3176012 0.0078431377
23.498096 -14.572441 -0.46251819 0.050980393
15.9297 -12.123868 -0.56529021 0.011764706
6.94946 -4.6941814 -2.2956944 0.0039215689
8.185338 -6.1538982 -2.0094914 0.05882353
20.210335 -13.920224 0.015385398 0.078431375
15.652661 -13.162289 -0.22330225 0.027450981
10.729998 -7.3244748 -1.9871352 0.054901961
12.910464 -9.7964859 -2.032207 0.023529412
25.020161 -15.524485 0.18839261 0.050980393
16.230505 -12.355712 -0.1047162 0.043137256
14.814026 -10.165954 -1.9061437 0.043137256
23.73995 -16.375895 0.685323 0.043137256
19.126379 -16.121605 0.30530906 0.050980393
16.650925 -11.443922 -1.3885629 0.05882353
15.246822 -11.597531 -1.5386634 0.023529412
20.535826 -15.67462 0.46447825 0.047058824
18.401739 -11.384499 -1.3623915 0.027450981
13.813222 -11.595271 -1.0298855 0.023529412
15.191525 -11.554686 0.78325939 0.047058824
16.695984 -11.475212 -0.92328089 0.10588235
15.158879 -11.529683 -0.97770303 0.019607844
18.427126 -11.4003 -0.86237621 0.050980393
14.052979 -11.799503 -0.6237523 0.027450981
22.665108 -15.627218 7.3511314 0.0039215689
22.709557 -17.349901 5.200335 0.0039215689
20.234716 -13.937262 -0.55249608 0.10980392
4.1305342 -3.0500138 -2.3159118 0.0039215689
23.355734 -14.596085 -0.46068671 0.10980392
15.912546 -12.198316 -0.5661962 0.027450981
6.9330316 -4.7177062 -2.2956915 0.0078431377
8.1483135 -6.1696982 -2.0055785 0.070588239
20.207472 -14.02213 0.015428795 0.086274512
15.081457 -12.765574 -0.21567638 0.019607844
10.697891 -7.3566432 -1.9859058 0.054901961
12.851113 -9.8213177 -2.0281823 0.027450981
24.857536 -15.542764 0.18758386 0.05882353
15.656497 -11.999458 -0.10122386 0.027450981
14.850098 -10.267123 -1.9155077 0.035294119
13.773363 -11.643351 -1.6577718 0.035294119
23.613873 -16.409761 0.68332726 0.023529412
19.051769 -16.171944 0.30501834 0.047058824
16.454029 -11.39133 -1.3752809 0.035294119
15.203095 -11.647532 -1.5383356 0.023529412
17.585575 -10.958242 0.6110127 0.074509807
20.522045 -15.777392 0.46542466 0.039215688
20.09761 -12.54223 -1.4926211 0.015686275
15.757807 -13.345913 -1.1805713 0.0078431377
15.853559 -10.97012 1.125387 0.039215688
15.151093 -11.606943 0.78326416 0.031372551
16.662367 -11.537306 -0.92364091 0.05882353
15.153245 -11.608774 -0.97997373 0.015686275
13.088875 -10.005629 1.3425791 0.019607844
18.272263 -11.391379 -0.85691327 0.050980393
14.017772 -11.85299 -0.62402385 0.035294119
20.267805 -14.06449 -0.55475187 0.062745102
4.1284313 -3.0704107 -2.3209753 0.0078431377
23.233749 -14.631781 -0.45925969 0.050980393
15.765931 -12.171797 -0.56243354 0.031372551
6.9070811 -4.7345057 -2.2924609 0.0078431377
8.1483574 -6.2143164 -2.0110502 0.050980393
20.230284 -14.14264 0.015491848 0.086274512
13.52053 -11.507309 -0.19359842 0.015686275
10.66246 -7.3863955 -1.9840637 0.05882353
12.785494 -9.8409653 -2.0231521 0.023529412
17.844826 -11.208014 0.13462907 0.027450981
19.909019 -15.412015 -0.12950961 0.035294119
14.950619 -10.414551 -1.9333904 0.043137256
13.669348 -11.63597 -1.6500145 0.062745102
23.376787 -16.364519 0.6780833 0.039215688
18.877171 -16.135662 0.30310819 0.035294119
16.306601 -11.37203 -1.3661475 0.050980393
16.757727 -12.947567 -1.7024019 0.043137256
17.564085 -11.029581 0.61161619 0.023529412
17.489805 -13.519932 0.39710674 0.015686275
17.907368 -11.247972 -1.3312055 0.019607844
15.873878 -11.066153 1.1296241 0.05882353
15.110481 -11.65906 0.78326887 0.023529412
16.582821 -11.567035 -0.92142999 0.035294119
15.040257 -11.604294 -0.97521132 0.023529412
13.009901 -10.016174 1.3379918 0.019607844
18.198648 -11.432955 -0.85529971 0.062745102
13.903713 -11.83842 -0.62073094 0.015686275
20.270849 -14.171357 -0.55619246 0.094117649
4.1102166 -3.0760014 -2.3159096 0.0078431377
20.074699 -12.712583 -0.39701191 0.078431375
15.677342 -12.181065 -0.56060731 0.027450981
6.8921719 -4.7555475 -2.2924583 0.011764706
8.1164637 -6.2295446 -2.00792 0.06666667
20.273773 -14.26807 0.015566318 0.043137256
13.626165 -11.672449 -0.19566724 0.011764706
10.61987 -7.4054794 -1.9803851 0.054901961
12.770104 -9.8927202 -2.0256619 0.011764706
24.390003 -15.473151 0.1848332 0.047058824
19.807068 -15.431794 -0.1291514 0.06666667
14.914583 -10.458529 -1.9329587 0.043137256
13.602667 -11.652087 -1.6463194 0.035294119
18.690557 -16.076153 0.30090314 0.039215688
16.166712 -11.348582 -1.3572917 0.050980393
16.638647 -12.937864 -1.6943231 0.027450981
17.357576 -10.974189 0.60556495 0.094117649
18.006449 -11.389593 -1.3413323 0.019607844
15.839028 -11.115336 1.1296301 0.05882353
15.108318 -11.733036 0.78509146 0.023529412
16.419386 -11.528151 -0.9142614 0.035294119
14.915835 -11.58167 -0.96941537 0.027450981
13.861828 -9.7096596 2.068826 0.054901961
18.075104 -11.433438 -0.85112125 0.050980393
13.763883 -11.792221 -0.61606753 0.023529412
24.662518 -17.387007 8.0619612 0.011764706
21.908201 -17.085283 5.0549297 0.0039215689
20.294674 -14.282996 -0.55808699 0.10196079
4.1051369 -3.0941308 -2.3192847 0.0078431377
20.053732 -12.797048 -0.39747292 0.05882353
15.540732 -12.160491 -0.55718672 0.027450981
6.8723979 -4.776628 -2.2913799 0.0039215689
8.0977421 -6.2595701 -2.0086997 0.062745102
20.282377 -14.379972 0.015619234 0.10588235
10.59074 -7.4394984 -1.979768 0.039215688
12.754152 -9.9513235 -2.0286736 0.011764706
19.746807 -15.495167 -0.12910411 0.10196079
14.877984 -10.509822 -1.9329525 0.043137256
13.466024 -11.614828 -1.6345 0.015686275
15.325208 -10.829823 0.44472313 0.031372551
18.580164 -16.093168 0.30002299 0.035294119
16.221083 -11.47162 -1.3653051 0.027450981
17.238504 -10.982018 0.60272229 0.023529412
15.741914 -12.319919 0.35886845 0.039215688
17.939743 -11.434371 -1.3392959 0.019607844
13.473844 -11.621646 -1.0160725 0.031372551
15.790388 -11.162884 1.1289314 0.062745102
15.086056 -11.799898 0.78608781 0.0078431377
16.297831 -11.526529 -0.90966356 0.035294119
14.856533 -11.618073 -0.96816993 0.027450981
13.663236 -9.6394072 2.0438449 0.054901961
17.863762 -11.385315 -0.84293276 0.062745102
20.335722 -14.418242 -0.56061471 0.06666667
4.0881023 -3.1038892 -2.3159072 0.0039215689
20.053635 -12.900235 -0.39840508 0.14117648
14.815021 -11.672607 -0.53235871 0.027450981
6.8454728 -4.7942805 -2.2881491 0.0078431377
8.0778103 -6.2909174 -2.0094795 0.05882353
20.297647 -14.502637 0.015679853 0.05882353
13.4703 -11.704712 -0.19460535 0.0078431377
10.547376 -7.4659595 -1.9767015 0.043137256
12.748598 -10.022033 -2.0336962 0.023529412
24.10425 -15.53251 0.18352236 0.078431375
19.668003 -15.549227 -0.12895297 0.050980393
14.84259 -10.565871 -1.9333724 0.043137256
15.327561 -10.915607 0.44597149 0.019607844
18.494053 -16.13661 0.29958442 0.043137256
18.269205 -13.03886 -1.5439514 0.011764706
14.109663 -11.109229 -1.4417493 0.031372551
17.151199 -11.013891 0.60106814 0.050980393
15.809142 -12.466659 0.36147606 0.047058824
15.940398 -11.357821 1.1428049 0.05882353
15.123889 -11.91923 0.79039061 0.031372551
16.385075 -11.678985 -0.91700262 0.027450981
14.770155 -11.636804 -0.96526957 0.023529412
13.746917 -9.7746477 2.0619786 0.050980393
17.795099 -11.432552 -0.84164023 0.062745102
13.556233 -11.78054 -0.61044216 0.035294119
21.921791 -15.673978 7.195528 0.011764706
20.331381 -14.527048 -0.56196475 0.090196081
4.0885434 -3.126529 -2.322659 0.0078431377
20.068707 -13.008896 -0.39960727 0.11372549
14.824025 -11.763652 -0.53417647 0.015686275
6.8380437 -4.8242388 -2.2913744 0.011764706
8.0435743 -6.3085351 -2.0063493 0.050980393
20.314837 -14.622097 0.015739929 0.050980393
10.508462 -7.4927301 -1.9742476 0.043137256
12.660973 -10.023479 -2.0251482 0.027450981
23.889259 -15.510674 0.18230063 0.06666667
19.551271 -15.566937 -0.12853253 0.05882353
14.808834 -10.619253 -1.9337926 0.023529412
13.352792 -11.682995 -1.6308032 0.035294119
20.383526 -14.67197 0.59644067 0.027450981
14.909278 -13.065732 0.24168654 0.015686275
14.06148 -11.150214 -1.4407766 0.019607844
17.085886 -11.05547 0.60012621 0.023529412
15.69697 -12.465912 0.35988969 0.035294119
13.253005 -11.594318 -1.0054859 0.019607844
16.320515 -11.717949 1.1733654 0.031372551
15.032362 -11.931167 0.78774953 0.023529412
16.231087 -11.653166 -0.91056848 0.023529412
14.664082 -11.635003 -0.96092165 0.023529412
13.780135 -9.8709002 2.0722725 0.070588239
13.715404 -10.871555 1.4272076 0.019607844
17.711613 -11.465433 -0.83954638 0.050980393
13.506061 -11.819121 -0.61002886 0.023529412
25.069685 -20.006332 5.8403926 0.011764706
20.280542 -14.597229 -0.5619567 0.14901961
4.0578833 -3.124095 -2.3108406 0.0078431377
20.059893 -13.102394 -0.40033814 0.11372549
14.767338 -11.802038 -0.53360325 0.011764706
6.8180537 -4.8450971 -2.2902958 0.011764706
8.0245523 -6.3383393 -2.0071292 0.062745102
20.334665 -14.744213 0.01580235 0.035294119
13.483642 -11.882406 -0.19601153 0.019607844
10.472675 -7.5216537 -1.9724061 0.047058824
12.604325 -10.049419 -2.0216267 0.031372551
23.661358 -15.478711 0.18097565 0.098039217
19.378719 -15.538695 -0.12773877 0.05882353
14.768466 -10.667826 -1.9333609 0.035294119
13.288182 -11.707585 -1.6278472 0.035294119
20.377348 -14.77541 0.59778595 0.05882353
14.935115 -13.180999 0.24286619 0.023529412
15.821174 -11.438747 -1.3415023 0.050980393
14.521185 -11.602649 -1.492771 0.019607844
15.727932 -12.580358 0.36162913 0.027450981
17.027317 -11.1015 -1.2792187 0.043137256
13.215427 -11.642469 -1.0057141 0.023529412
15.870376 -11.474508 1.1435224 0.05882353
15.18624 -12.141382 0.7981689 0.047058824
16.035572 -11.595721 -0.90174723 0.023529412
14.589238 -11.657752 -0.95864236 0.035294119
13.732779 -9.9088602 2.0703182 0.070588239
13.045513 -10.406668 1.3603102 0.019607844
17.574738 -11.462646 -0.83488679 0.050980393
13.434926 -11.838836 -0.60865617 0.015686275
23.363901 -16.961931 7.712306 0.019607844
20.106867 -14.57744 -0.5585072 0.13333334
4.0609999 -3.1489997 -2.3192804 0.0078431377
20.090633 -13.222565 -0.40187725 0.078431375
14.750828 -11.873034 -0.53451043 0.015686275
6.7917991 -4.8612995 -2.2870655 0.011764706
8.0084553 -6.3705668 -2.0086911 0.074509807
13.554997 -12.030436 -0.19768411 0.011764706
10.42727 -7.5433788 -1.9687275 0.043137256
12.5415 -10.07007 -2.0171003 0.035294119
23.560553 -15.529507 0.18062732 0.098039217
19.246881 -15.542316 -0.12721506 0.074509807
14.782345 -10.756387 -1.94017 0.031372551
13.131831 -11.649218 -1.6134435 0.035294119
20.377132 -14.883734 0.59932226 0.05882353
14.770151 -13.125259 0.2409053 0.027450981
15.867845 -11.557164 -1.3489633 0.027450981
14.384841 -11.574414 -1.4827552 0.019607844
15.854333 -12.77356 0.36560997 0.015686275
16.981813 -11.155746 -1.2787037 0.027450981
15.99088 -11.647665 1.1552801 0.031372551
15.165435 -12.211305 0.79933006 0.023529412
15.924255 -11.598732 -0.89770103 0.023529412
14.458703 -11.634657 -0.95264006 0.027450981
13.694903 -9.9536791 2.069833 0.070588239
13.818298 -11.111836 1.4462357 0.027450981
17.421455 -11.447985 -0.82942575 0.043137256
13.449945 -11.9358 -0.61125922 0.0039215689
23.236143 -16.992241 7.689486 0.05882353
14.900213 -11.994658 3.4718301 0.023529412
20.046202 -14.63971 -0.55822796 0.086274512
4.0527844 -3.1647542 -2.3209679 0.0039215689
20.110806 -13.336431 -0.40321448 0.070588239
6.7778797 -4.8865714 -2.2881389 0.015686275
7.9679861 -6.3828344 -2.0039971 0.06666667
17.816935 -13.090188 0.013949527 0.047058824
10.397701 -7.5766687 -1.9681113 0.035294119
12.478682 -10.090404 -2.0125737 0.035294119
23.379913 -15.526357 0.1796616 0.06666667
19.127617 -15.555366 -0.12677455 0.074509807
14.760668 -10.819079 -1.9422942 0.035294119
12.905254 -11.52567 -1.5901772 0.031372551
20.434172 -15.035171 0.60257792 0.035294119
14.810141 -13.253978 0.24233 0.035294119
15.756942 -11.559414 -1.3428733 0.015686275
14.24579 -11.542841 -1.4724169 0.019607844
19.968719 -13.241093 0.70745069 0.011764706
16.436838 -13.343641 0.38029218 0.015686275
16.680763 -11.038729 -1.2586793 0.023529412
15.90525 -11.669369 1.1519954 0.05882353
13.949471 -11.299128 0.7365104 0.023529412
15.784248 -11.57966 -0.89200228 0.023529412
14.384056 -11.656452 -0.95036113 0.035294119
13.669627 -10.007831 2.0713081 0.074509807
15.534863 -12.602177 1.6331688 0.0078431377
17.10578 -11.323393 -0.81610692 0.035294119
13.159505 -11.756329 -0.59974176 0.0039215689
14.958554 -12.128348 3.4955914 0.023529412
19.959667 -14.682654 -0.55722427 0.090196081
4.0366793 -3.1728826 -2.3175905 0.0039215689
20.099621 -13.424752 -0.40387887 0.086274512
15.304235 -12.496917 -0.55795962 0.027450981
6.7523847 -4.9014263 -2.284909 0.0078431377
7.9407301 -6.4035501 -2.0024312 0.070588239
16.216976 -11.983802 0.012747861 0.027450981
13.345799 -12.005061 -0.19578665 0.0078431377
10.366189 -7.6057019 -1.9668828 0.035294119
23.238766 -15.542733 0.17897788 0.082352944
19.045109 -15.592544 -0.12656271 0.05882353
14.810685 -10.931641 -1.953789 0.023529412
12.987533 -11.677863 -1.6053164 0.023529412
20.42902 -15.135729 0.60392249 0.039215688
14.668649 -13.213336 0.2407122 0.023529412
15.973602 -13.050908 -1.6581199 0.043137256
19.835207 -13.246195 0.70425135 0.011764706
13.841279 -11.286229 0.32042524 0.0039215689
12.935621 -11.630429 -0.99328667 0.035294119
15.808914 -11.678322 1.1477703 0.062745102
13.893446 -11.32937 0.73552155 0.031372551
15.04194 -11.104581 -0.85159564 0.035294119
14.274537 -11.644846 -0.94560039 0.035294119
13.61093 -10.033414 2.0673933 0.05882353
13.616408 -11.100069 1.4327961 0.019607844
17.058197 -11.372683 -0.81561816 0.10196079
19.872442 -14.719345 -0.55613065 0.074509807
4.0222383 -3.1845942 -2.3159013 0.0078431377
20.116423 -13.542572 -0.40521592 0.094117649
14.859088 -12.219336 -0.54315364 0.023529412
6.7312989 -4.9230824 -2.2838306 0.015686275
7.9292583 -6.4419198 -2.0055573 0.062745102
16.883747 -15.349149 -0.24940471 0.011764706
10.34771 -7.650044 -1.9687164 0.035294119
12.359167 -10.135206 -2.0045264 0.047058824
23.135336 -15.595572 0.17862926 0.10196079
18.892588 -15.582102 -0.12591493 0.086274512
14.786399 -10.997084 -1.9559132 0.035294119
12.921198 -11.703073 -1.6023608 0.043137256
20.456419 -15.272365 0.60641402 0.062745102
14.484725 -13.141693 0.23845646 0.023529412
15.350874 -11.422668 -1.3146545 0.054901961
13.806574 -11.341897 -1.434623 0.031372551
24.739122 -16.686171 0.88226634 0.062745102
16.794743 -11.28371 -1.2733591 0.05882353
12.851764 -11.639168 -0.99006468 0.015686275
14.780828 -10.992579 1.0751493 0.019607844
13.888659 -11.410192 0.73750883 0.023529412
15.46055 -11.505326 -0.87803435 0.070588239
14.188802 -11.660535 -0.94270104 0.027450981
13.523342 -10.044257 2.0595589 0.039215688
15.789437 -12.994839 1.6699063 0.023529412
16.996565 -11.420901 -0.81464767 0.05882353
13.053575 -11.824852 -0.59864241 0.015686275
16.949627 -12.627525 5.6349096 0.0039215689
17.533005 -14.448318 4.1291404 0.011764706
19.709799 -14.709484 -0.55304396 0.090196081
4.0249753 -3.2025723 -2.3191411 0.0078431377
20.172911 -13.677644 -0.40649575 0.062745102
14.607157 -12.087917 -0.53454089 0.027450981
6.7315879 -4.9528527 -2.2868321 0.015686275
7.9060044 -6.461307 -2.0029311 0.05882353
15.951083 -11.955392 0.01316017 0.035294119
13.170952 -12.009124 -0.19383375 0.0078431377
10.335524 -7.6902337 -1.9695872 0.035294119
12.298551 -10.149567 -1.9985553 0.054901961
23.022945 -15.630403 0.17888476 0.027450981
18.785 -15.595871 -0.12481692 0.043137256
14.81319 -11.091299 -1.9630667 0.043137256
12.833006 -11.696015 -1.5948598 0.043137256
20.49077 -15.403503 0.60951638 0.027450981
13.428933 -12.248165 0.22193676 0.011764706
15.328687 -11.482783 -1.3149531 0.047058824
15.833082 -13.117358 -1.651729 0.05882353
16.430897 -11.113733 -1.2472227 0.027450981
12.766566 -11.634434 -0.98544163 0.0078431377
14.715587 -11.016844 1.0730731 0.027450981
13.820219 -11.427069 0.73602408 0.043137256
15.412621 -11.546491 -0.87658215 0.047058824
14.052234 -11.621997 -0.93516028 0.027450981
13.701871 -10.246757 2.0918789 0.054901961
13.673045 -11.303444 1.447067 0.019607844
17.014282 -11.513409 -0.81648719 0.070588239
13.035104 -11.883256 -0.59883547 0.011764706
19.599663 -14.726772 -0.5504598 0.078431375
4.0110025 -3.2135265 -2.3174522 0.0039215689
20.177704 -13.7836 -0.40756178 0.082352944
14.595402 -12.163918 -0.53567505 0.011764706
6.695899 -4.9615397 -2.2803748 0.015686275
7.8774114 -6.4830651 -2.0013657 0.062745102
15.902895 -12.005405 0.013160684 0.027450981
13.111403 -12.037923 -0.19356892 0.0039215689
10.330592 -7.7423439 -1.9738699 0.035294119
12.232745 -10.166075 -1.9935278 0.043137256
20.226229 -13.817021 0.15738039 0.074509807
18.602165 -15.552139 -0.12394594 0.047058824
14.77754 -11.144622 -1.9634871 0.031372551
12.757154 -11.707397 -1.5904287 0.054901961
20.494038 -15.517941 0.61124545 0.023529412
15.323369 -11.56216 -1.3179883 0.023529412
15.775021 -13.161515 -1.6504341 0.035294119
16.519484 -11.25804 0.589912 0.054901961
16.520123 -11.258736 -1.2570916 0.027450981
14.191551 -13.045869 -1.1008708 0.0078431377
14.677034 -11.067413 1.0730784 0.023529412
13.633759 -11.350641 0.72808617 0.0078431377
15.318269 -11.55821 -0.87345666 0.050980393
13.999376 -11.659926 -0.93433017 0.027450981
13.634482 -10.269672 2.0869832 0.054901961
14.546714 -12.12261 1.5454887 0.0078431377
16.954252 -11.558374 -0.81551754 0.035294119
15.881265 -14.622588 -0.73417032 0.054901961
16.385246 -13.677178 3.8770432 0.035294119
19.459204 -14.726329 -0.54792011 0.086274512
3.9975624 -3.223762 -2.3157635 0.0078431377
20.207407 -13.90225 -0.40909895 0.082352944
14.561067 -12.21674 -0.53589952 0.015686275
6.6733031 -4.9783168 -2.2782211 0.015686275
7.8469067 -6.5008264 -1.9990184 0.074509807
15.837641 -12.037854 0.013145157 0.019607844
10.311122 -7.7806869 -1.9750911 0.035294119
12.205008 -10.211034 -1.9945302 0.047058824
20.20985 -13.903874 0.15762192 0.15294118
14.671184 -11.139469 -1.9541147 0.031372551
12.654392 -11.688948 -1.5823061 0.082352944
20.51532 -15.641253 0.61345237 0.039215688
13.301517 -12.296788 0.22120121 0.019607844
17.387131 -13.231659 -1.5018098 0.035294119
13.894626 -11.649433 -1.4551049 0.023529412
16.429527 -11.275549 0.58801627 0.047058824
19.583124 -16.492134 0.46107045 0.098039217
16.554802 -11.362895 -1.262656 0.027450981
15.269743 -11.600263 1.1198786 0.039215688
13.632557 -11.426188 0.73007435 0.0078431377
15.181724 -11.532657 -0.86776221 0.043137256
13.866337 -11.625316 -0.92791849 0.023529412
13.644374 -10.348059 2.0938485 0.094117649
16.951923 -11.638934 -0.81727278 0.035294119
14.375815 -13.305957 -0.6656794 0.05882353
15.715876 -11.943525 5.2587905 0.031372551
16.270878 -13.672087 3.8604853 0.047058824
15.786107 -11.998201 -0.44443667 0.039215688
3.9917908 -3.241683 -2.3191388 0.0078431377
20.266851 -14.04769 -0.41130802 0.074509807
13.868745 -11.709824 -0.51155418 0.0039215689
6.6497984 -4.9961233 -2.2760675 0.011764706
7.8182096 -6.522337 -1.9974529 0.047058824
15.773399 -12.075169 0.013132338 0.039215688
13.89505 -12.944559 -0.20666242 0.0078431377
10.290143 -7.820745 -1.9763123 0.035294119
12.166277 -10.250259 -1.994025 0.027450981
20.243095 -14.030973 0.15827708 0.086274512
18.456392 -15.643127 -0.1236699 0.035294119
14.600788 -11.165499 -1.9498518 0.031372551
