# .PCD v0.7 - Point Cloud Data file format
VERSION 0.7
FIELDS x y z intensity
SIZE 4 4 4 4
TYPE F F F F
COUNT 1 1 1 1
WIDTH 1124
HEIGHT 1
VIEWPOINT 0 0 0 1 0 0 0
POINTS 1124
DATA ascii
-34.180687 9.4660711 -2.2727659 0.019607844
-36.766006 16.276827 -2.3412418 0.027450981
-145.64006 48.108337 8.9337931 0.078431375
-154.31186 59.480915 6.7391806 0.24705882
-44.564735 14.720816 -2.1858215 0.015686275
-2.3854082 0.91947716 -0.13396452 0
-49.170895 13.617483 -2.078263 0.05882353
-51.763611 22.91647 -1.9763294 0.047058824
-61.239967 20.229038 -1.5002036 0.050980393
-4.6110635 1.7959051 -2.3074589 0.047058824
-69.995575 19.648026 -1.2684051 0.18039216
-57.796852 22.510391 -1.8045764 0.062745102
-7.7303858 2.5835104 -2.2816231 0.0039215689
-10.668657 4.1551814 -2.2897704 0
-147.18594 49.189548 0.0013331461 0.24705882
-3.0345299 1.3561152 -0.038671412 0
-13.678831 4.5714812 -2.2436886 0.0039215689
-16.952806 6.6026959 -2.3156033 0.031372551
-155.55171 60.583389 -0.96872628 0.16862746
-19.632881 6.5613246 -2.2295895 0.015686275
-24.114687 10.776748 -2.4653823 0.0078431377
-32.115311 10.732954 -2.3675284 0.011764706
-28.036533 10.919522 -2.4559681 0.011764706
-34.255043 9.6155338 -2.2799273 0.019607844
-36.690735 16.396919 -2.3400784 0.027450981
-44.429703 14.848424 -2.1817265 0.015686275
-42.157341 16.41921 -2.3706295 0.039215688
-7.0978942 2.3721073 0.91895229 0
-49.146145 13.79552 -2.0792387 0.05882353
-52.000828 23.238922 -1.9884701 0.047058824
-61.320683 20.493385 -1.5039228 0.050980393
-4.6013932 1.8106627 -2.3057683 0.027450981
-69.776543 19.84956 -1.2656817 0.17647059
-60.151199 23.6695 -1.8806521 0.06666667
-7.7249699 2.6117127 -2.282701 0.0039215689
-10.675986 4.2010145 -2.2944767 0
-148.03265 50.047646 0.001346346 0.24705882
-155.78419 70.272614 -1.9880157 0.082352944
-13.67028 4.6217337 -2.2449181 0.0039215689
-54.635349 15.542289 0.33060426 0.039215688
-155.84924 61.326664 -0.97190237 0.16862746
-19.707815 6.6629348 -2.240726 0.0078431377
-24.076921 10.86086 -2.4653819 0.0078431377
-133.99232 60.442516 1.7126484 0.062745102
-32.10033 10.852662 -2.3692019 0.011764706
-27.990828 11.014403 -2.4553165 0.011764706
-34.336456 9.7678175 -2.2876005 0.019607844
-36.676956 16.5446 -2.3428676 0.027450981
-145.59572 49.223682 8.9519434 0.078431375
-44.457092 15.030299 -2.1856332 0.015686275
-42.077469 16.557493 -2.3693728 0.039215688
-7.5272746 2.9619751 0.66041958 0
-49.193794 13.99433 -2.0833073 0.05882353
-52.134384 23.517281 -1.9967029 0.047058824
-10.751096 4.2305384 2.1066043 0
-61.566986 20.814896 -1.5117346 0.050980393
-4.6051512 1.8307313 -2.3108394 0.027450981
-69.126549 19.925739 -1.2551436 0.17647059
-60.733284 24.143717 -1.901473 0.06666667
-10.661257 4.2382555 -2.2944765 0
-149.07954 50.982143 0.0013614597 0.24705882
-101.67773 46.293575 -1.2995988 0.031372551
-16.97267 6.7472739 -2.3246932 0.0039215689
-55.314865 15.944511 0.33505243 0.039215688
-155.85352 61.957489 -0.97326785 0.16862746
-19.699486 6.7368345 -2.2424388 0.0078431377
-24.096855 10.971242 -2.471329 0.0078431377
-132.68845 60.412651 1.698671 0.062745102
-32.062252 10.964647 -2.3692009 0.011764706
-27.98555 11.125298 -2.4582448 0.011764706
-34.45174 9.9307327 -2.2975752 0.019607844
-36.608078 16.667564 -2.3421693 0.027450981
-44.385448 15.178926 -2.1847017 0.015686275
-42.056534 16.719028 -2.3714647 0.039215688
-49.140804 14.164856 -2.083143 0.05882353
-52.106548 23.723969 -1.998795 0.047058824
-12.400573 4.2407131 3.5117636 0
-63.597729 21.749126 -1.5634509 0.054901961
-4.5883198 1.8435419 -2.305768 0.011764706
-55.344555 16.173 -1.005971 0.098039217
-4.5893192 1.843928 -0.14390256 0
-7.7024441 2.665663 -2.2816224 0.0039215689
-10.638374 4.274375 -2.2929072 0
-149.98413 51.906239 0.0013756319 0.24705882
-101.35112 46.594074 -1.2975956 0.027450981
-13.618182 4.7129707 -2.2418427 0.090196081
-16.936783 6.8049941 -2.3231776 0.0039215689
-55.279091 16.153862 0.33519369 0.039215688
-155.99655 62.677395 -0.97558498 0.16862746
-19.682182 6.8115888 -2.2432952 0.0078431377
-24.085434 11.072792 -2.4743023 0.0078431377
-147.67612 51.107464 3.6376624 0.074509807
-8.2566414 3.7958174 0.1058719 0
-32.029392 11.08469 -2.3697579 0.011764706
-28.00008 11.250084 -2.4631252 0.011764706
-55.172192 16.122612 1.6732951 0.062745102
-34.487915 10.078205 -2.3024347 0.019607844
-36.579403 16.816631 -2.3442612 0.027450981
-44.337074 15.34411 -2.1850724 0.015686275
-42.043159 16.89241 -2.3741846 0.039215688
-8.4566727 2.9266596 1.0988446 0
-49.103901 14.349344 -2.0837929 0.05882353
-52.179066 23.988251 -2.0049345 0.047058824
-63.547829 21.992527 -1.5641932 0.054901961
-4.6090555 1.8696492 -2.3192916 0.0039215689
-68.782501 20.347704 -1.2514418 0.17647059
-75.876358 30.778778 -2.3822448 0.15294118
-7.6862903 2.6886468 -2.2794657 0.0078431377
-10.635045 4.3140535 -2.2952602 0
-150.85704 52.769157 0.0013890328 0.24705882
-13.60248 4.7581048 -2.2418425 0.035294119
-16.958246 6.8790207 -2.3292377 0.0039215689
-55.190697 16.326874 0.33498561 0.039215688
-156.01022 63.284576 -0.97697389 0.16862746
-19.68952 6.8873253 -2.2467215 0.0078431377
-24.091938 11.172708 -2.4787626 0.0078431377
-130.45284 60.497803 1.675423 0.062745102
-32.07156 11.218512 -2.3756161 0.011764706
-27.973703 11.347371 -2.4641008 0.011764706
-55.302456 16.359926 1.6788834 0.062745102
-3.5139415 1.039517 -0.23482874 0
-36.537922 16.944559 -2.3451903 0.027450981
-44.410416 15.53459 -2.1912124 0.015686275
-41.972107 17.025734 -2.3733466 0.039215688
-9.878706 4.0072265 0.87036377 0
-49.040722 14.507567 -2.0831404 0.05882353
-52.23703 24.225058 -2.0102365 0.050980393
-8.208333 3.3296452 1.6151103 0
-65.22599 22.815784 -1.6073519 0.054901961
-4.5790191 1.8761052 -2.3074582 0.0039215689
-71.366013 21.383177 -1.2997947 0.18039216
-75.428085 30.903992 -2.371541 0.15294118
-7.6804891 2.7167451 -2.2805436 0.0078431377
-10.601774 4.3437157 -2.291338 0.0078431377
-152.45563 53.926361 0.0014095368 0.24705882
-134.30548 62.855068 -1.7249389 0.082352944
-16.95249 6.9456964 -2.3317623 0.0039215689
-55.232998 16.549278 0.33559245 0.039215688
-155.99937 63.915215 -0.97829312 0.16862746
-19.70285 6.969275 -2.2510045 0.0078431377
-24.099688 11.278684 -2.4835944 0.0078431377
-7.166801 2.5350258 0.17695218 0
-129.15408 60.444191 1.6614455 0.062745102
-32.107441 11.357008 -2.3811951 0.011764706
-27.989258 11.467621 -2.4689815 0.011764706
-3.4087601 1.0213526 0.10358487 0
-34.682362 10.391779 -2.3200827 0.019607844
-36.496635 17.080463 -2.3463519 0.027450981
-11.33901 4.645752 0.49933821 0
-44.378517 15.697513 -2.1923275 0.015686275
-41.934601 17.181227 -2.3746011 0.039215688
-7.5884805 3.1091039 0.66953421 0
-52.144917 24.403866 -2.0099561 0.050980393
-66.224182 23.424719 -1.6339532 0.054901961
-4.5791416 1.8948514 -2.3108392 0.0039215689
-70.942665 21.526501 -1.2934432 0.18039216
-7.6564507 2.7383521 -2.2762303 0.0078431377
-10.586546 4.3806996 -2.2913377 0
-153.5809 54.92836 0.0014256856 0.24705882
-132.67474 62.657402 -1.7067904 0.082352944
-13.609866 4.8675966 -2.2486055 0.0078431377
-16.961138 7.0184898 -2.3363075 0.0039215689
-156.034 64.56646 -0.97991413 0.16862746
-19.715851 7.0514078 -2.2552874 0.0078431377
-24.078173 11.371248 -2.4854527 0.0078431377
-128.21895 60.553082 1.6521281 0.062745102
-32.108925 11.483805 -2.384263 0.011764706
-27.978525 11.577455 -2.4715841 0.011764706
-7.3613067 2.233675 0.22393829 0
-34.71463 10.533652 -2.3246861 0.019607844
-36.418736 17.19924 -2.3451886 0.027450981
-44.436321 15.892708 -2.1979094 0.015686275
-41.870674 17.325987 -2.3743908 0.039215688
-48.804382 14.808977 -2.07744 0.05882353
-52.106396 24.607943 -2.0117693 0.050980393
-7.999444 3.3101363 1.5785174 0
-66.292618 23.709629 -1.6376722 0.054901961
-4.569488 1.9086276 -2.3091483 0.0039215689
-78.020309 23.956924 -1.4239222 0.24705882
-7.6545744 2.7663436 -2.2783868 0.0039215689
-10.575581 4.4172912 -2.2921219 0
-154.15028 55.709225 0.001436506 0.24705882
-134.81342 64.215012 -1.7370298 0.082352944
-13.615954 4.9207592 -2.2522943 0.011764706
-16.956079 7.0823388 -2.3388321 0.0039215689
-19.737242 7.1329651 -2.2604275 0.0078431377
-24.087076 11.473292 -2.4902849 0.0078431377
-7.0775695 3.3712213 0.091332793 0
-32.153229 11.620049 -2.3904002 0.011764706
-5.4334836 2.2694938 -0.4806549 0
-34.713852 10.659249 -2.3269873 0.019607844
-36.408371 17.342232 -2.3482106 0.027450981
-6.7931304 2.837399 -0.38576078 0
-48.678593 14.947263 -2.0741825 0.05882353
-49.241936 23.455177 -1.9041672 0.047058824
-66.830406 24.15222 -1.6529255 0.054901961
-4.5661378 1.9259766 -2.3108389 0.0039215689
-77.817802 24.192333 -1.421757 0.24705882
-7.6376338 2.7904043 -2.2762301 0.0039215689
-10.574553 4.4602799 -2.2952592 0.0039215689
-155.08202 56.658806 0.0014510808 0.24705882
-130.68422 62.80883 -1.6866385 0.082352944
-13.632106 4.9804683 -2.257828 0.011764706
-16.949533 7.1491981 -2.3413568 0.0039215689
-6.8485498 2.1291032 0.041736543 0
-157.08722 66.258194 -0.98933029 0.16862746
-19.738369 7.2113757 -2.2634251 0.0078431377
-24.104311 11.584912 -2.496232 0.0078431377
-126.00494 60.559872 1.6288794 0.062745102
-32.213665 11.769193 -2.3979318 0.011764706
-28.009272 11.814112 -2.4813457 0.011764706
-8.4913483 2.6398218 0.25885749 0
-3.7317972 1.1601565 -0.25043193 0
-36.326008 17.458845 -2.3468146 0.027450981
-44.308342 16.18795 -2.1969764 0.015686275
-41.324833 17.430511 -2.3501093 0.039215688
-10.446983 4.4064493 0.92569888 0
-48.526886 15.086257 -2.0699487 0.05882353
-10.467644 4.4151559 2.0714483 0
-66.910965 24.445755 -1.6570165 0.054901961
-4.5590487 1.9426982 -2.3108387 0.0039215689
-78.022346 24.569868 -1.4271275 0.24705882
-7.634583 2.8210475 -2.2783866 0.0078431377
-10.565351 4.50208 -2.296828 0.0039215689
-155.24852 57.365437 0.0014588087 0.24705882
-13.617468 5.0317655 -2.2584426 0.011764706
-16.959721 7.2268243 -2.3464069 0.0039215689
-147.77531 46.535625 0.90176272 0.10980392
-157.52409 67.123543 -0.99362028 0.16862746
-19.767761 7.3043432 -2.26985 0.0078431377
-24.093943 11.688821 -2.499577 0.0078431377
-124.91488 60.600521 1.6176513 0.062745102
-32.308804 11.938347 -2.4082537 0.011764706
-28.083151 11.966697 -2.4917583 0.011764706
-7.0678949 3.0117409 0.13416752 0
-34.682377 10.921773 -2.330055 0.019607844
-36.333637 17.62672 -2.3514643 0.027450981
-44.349911 16.387621 -2.2019997 0.015686275
-41.705322 17.77132 -2.3754344 0.039215688
-48.383591 15.236393 -2.0662031 0.05882353
-48.907387 23.726677 -1.897745 0.047058824
-4.5592418 1.9606706 -2.3142195 0.0039215689
-75.110588 32.300568 -2.3787441 0.15294118
-7.6107512 2.8409612 -2.2740731 0.0078431377
-10.528744 4.5277948 -2.2921209 0.0039215689
-155.43216 58.019833 0.0014661393 0.24705882
-49.002186 23.97373 -0.6345796 0.035294119
-13.60441 5.0782781 -2.259057 0.011764706
-16.97576 7.3002696 -2.3519616 0.0039215689
-147.43346 46.965919 0.90062571 0.10980392
-157.76729 67.84623 -0.99656439 0.16862746
-19.769514 7.3795919 -2.2728479 0.0078431377
-24.115864 11.79841 -2.5058961 0.0078431377
-123.78271 60.559177 1.6055841 0.062745102
-32.38866 12.090076 -2.4171808 0.011764706
-28.13121 12.097559 -2.4995677 0.011764706
-34.649776 11.037937 -2.3303099 0.019607844
-36.239117 17.729561 -2.349138 0.027450981
-22.663519 8.4598417 1.4090322 0.0039215689
-6.8548265 2.9478455 0.30406335 0
-44.269119 16.52482 -2.200696 0.015686275
-41.638821 17.906366 -2.3750148 0.039215688
-11.258327 4.8415217 1.000563 0
-48.264259 15.374922 -2.0632718 0.11764706
-48.498081 23.727106 -1.8849044 0.047058824
-73.512192 27.440695 -1.8251879 0.05882353
-4.5556955 1.9780163 -2.3159099 0.0039215689
-75.100082 32.607128 -2.3819993 0.15294118
-7.6043925 2.8688688 -2.275151 0.0078431377
-10.530865 4.5723271 -2.2960429 0.0078431377
-155.67406 58.730026 0.0014743475 0.24705882
-48.84288 24.107445 -0.63360137 0.035294119
-13.590299 5.1271281 -2.2596714 0.011764706
-16.979294 7.3721204 -2.3560016 0.0039215689
-147.26862 47.48024 0.90062964 0.10980392
-47.1763 20.483107 -0.2984511 0.039215688
-19.792007 7.4668021 -2.2784159 0.0078431377
-24.131678 11.910718 -2.5118434 0.0078431377
-122.72411 60.573082 1.5945888 0.062745102
-32.417194 12.229815 -2.4224808 0.011764706
-28.198521 12.243309 -2.5093298 0.011764706
-158.42897 68.786995 3.0163851 0.10980392
-34.755409 11.205359 -2.3400295 0.019607844
-35.937092 17.737528 -2.3335583 0.027450981
-44.241081 16.690525 -2.2021837 0.015686275
-41.590721 18.057961 -2.3758509 0.039215688
-8.2061176 3.5629432 0.73040283 0
-48.09618 15.5065 -2.0583866 0.05882353
-48.264404 23.821932 -1.8790418 0.047058824
-11.33662 4.2768588 3.2467268 0
-17.491993 7.5946856 3.4770546 0.0039215689
-100.94602 38.083191 -2.5096047 0.10196079
-4.5487638 1.9939064 -2.3159096 0.0039215689
-75.428909 33.063301 -2.3960729 0.15294118
-7.6015301 2.8981395 -2.2773073 0.011764706
-10.504064 4.6043353 -2.2936893 0.0078431377
-156.17827 59.543823 0.0014850964 0.24705882
-13.579708 5.1773524 -2.260901 0.011764706
-16.975262 7.4409022 -2.3590314 0.0039215689
-147.34915 48.074661 0.90214682 0.10980392
-46.822426 20.524006 -0.29666272 0.039215688
-19.773254 7.5386767 -2.2792721 0.0078431377
-24.11491 12.007306 -2.5144451 0.0078431377
-121.74929 60.621372 1.5846653 0.062745102
-32.52718 12.401179 -2.4339182 0.011764706
-28.217686 12.368874 -2.5148611 0.011764706
-34.727467 11.330323 -2.3407958 0.019607844
-36.196678 18.023054 -2.3544843 0.027450981
-44.231087 16.863356 -2.2046015 0.015686275
-41.527435 18.203028 -2.37585 0.039215688
-47.961967 15.64826 -2.0549662 0.05882353
-48.052132 23.926117 -1.8740164 0.047058824
-101.0703 38.533619 -2.5160203 0.10196079
-4.5417757 2.009774 -2.3159096 0.0039215689
-101.04259 44.711887 -3.2146504 0.15686275
-7.5949612 2.9260433 -2.2783856 0.011764706
-156.67863 60.361885 0.0014958634 0.24705882
-48.301674 24.26115 -0.6287604 0.035294119
-13.572614 5.2289886 -2.2627451 0.011764706
-5.7295523 2.5353606 -0.79745936 0
-147.20322 48.596275 0.9022904 0.10980392
-158.3723 70.080566 -1.0049552 0.16862746
-19.765373 7.6148067 -2.2814136 0.0078431377
-24.190296 12.150409 -2.5267117 0.0078431377
-120.73274 60.64209 1.5741825 0.062745102
-32.513474 12.52613 -2.4361496 0.011764706
-28.23996 12.496344 -2.5207181 0.011764706
-34.771091 11.479015 -2.3464222 0.019607844
-36.315525 18.240713 -2.3663418 0.027450981
-44.153301 17.010481 -2.20367 0.015686275
-41.492859 18.360819 -2.3775232 0.039215688
-6.471189 2.8635292 0.57774609 0
-47.834942 15.791792 -2.0518723 0.054901961
-48.032616 24.126015 -1.8765275 0.047058824
-101.03217 38.923595 -2.5184362 0.10196079
-4.5248022 2.0211797 -2.3108382 0.011764706
-5.8304315 1.947399 -0.10725167 0
-9.4551945 4.2235026 -0.30128905 0
-7.5739322 2.9483452 -2.2751505 0.011764706
-156.877 61.068043 0.0015037752 0.24705882
-48.316593 24.480225 -0.63006204 0.035294119
-13.565328 5.2806358 -2.2645895 0.011764706
-16.944635 7.5689449 -2.3620608 0.0039215689
-149.40767 49.903084 0.91686904 0.10980392
-158.6088 70.848312 -1.0080152 0.16862746
-19.775734 7.6981816 -2.2856965 0.0078431377
-24.208126 12.265374 -2.5330307 0.0078431377
-119.71753 60.656414 1.5636995 0.062745102
-32.573669 12.680078 -2.4439604 0.011764706
-28.232569 12.611105 -2.5239716 0.011764706
-17.429296 7.7854161 0.33337143 0.0039215689
-34.874687 11.648378 -2.3561416 0.019607844
-36.105587 18.293373 -2.3568079 0.027450981
-44.138336 17.181894 -2.2059021 0.015686275
-41.428513 18.505545 -2.3775222 0.039215688
-18.883501 7.3508244 2.4882591 0.0039215689
-11.91765 5.3234372 1.0656632 0
-47.741619 15.946011 -2.0502429 0.054901961
-47.983765 24.3116 -1.8779219 0.047058824
-9.1056967 3.5445845 2.6182938 0
-101.02612 39.326797 -2.5216892 0.10196079
-4.5309391 2.0429213 -2.3175998 0.0039215689
-7.5671802 2.9761732 -2.2762287 0.011764706
-10.440969 4.7076316 -2.2905507 0.070588239
-157.09099 61.783604 0.0015118691 0.24705882
-48.383999 24.726992 -0.6320616 0.035294119
-13.565207 5.335186 -2.2676637 0.011764706
-16.954287 7.6443524 -2.3671107 0.0039215689
-149.58499 50.543362 0.91903824 0.10980392
-158.72519 71.56591 -1.0103325 0.16862746
-19.782055 7.7802615 -2.2895513 0.0078431377
-24.236095 12.386045 -2.5404651 0.0078431377
-49.078499 25.081909 0.64217895 0.023529412
-32.625759 12.831669 -2.4512134 0.011764706
-28.213818 12.721043 -2.5262489 0.011764706
-34.909458 11.795593 -2.3612566 0.019607844
-36.041515 18.419287 -2.356807 0.027450981
-44.078098 17.335852 -2.2059009 0.015686275
-41.334538 18.6369 -2.3758469 0.039215688
-6.6836419 3.0135102 0.5985781 0
-47.670525 16.107435 -2.0495903 0.054901961
-47.788265 24.422543 -1.8735945 0.047058824
-7.4042668 3.3384187 1.4809376 0
-101.0892 39.758221 -2.5267098 0.10196079
-4.5138812 2.05422 -2.3125284 0.0039215689
-101.49899 34.690788 -1.8713698 0.24705882
-7.5567446 3.0025694 -2.2762284 0.011764706
-10.410192 4.7375493 -2.2874129 0.070588239
-157.00818 62.384758 0.001517115 0.24705882
-48.016521 24.750956 -0.62838489 0.035294119
-13.531808 5.376667 -2.2652037 0.011764706
-16.938335 7.7084179 -2.3686254 0.0039215689
-150.17599 51.327812 0.92376846 0.10980392
-158.83482 72.283546 -1.0126264 0.16862746
-19.751078 7.8477983 -2.2891223 0.0078431377
-24.235193 12.492467 -2.5449252 0.0078431377
-48.944424 25.22925 0.64157426 0.023529412
-32.695728 12.991154 -2.459861 0.011764706
-28.172871 12.8211 -2.5265737 0.011764706
-148.12865 50.628033 4.5571632 0.24705882
-34.992718 11.959981 -2.3696971 0.019607844
-44.039597 17.498461 -2.2070165 0.015686275
-41.26923 18.781071 -2.3758459 0.039215688
-47.530804 16.245298 -2.0460076 0.054901961
-47.731148 24.603861 -1.87471 0.047058824
-11.135418 5.0675578 2.2307379 0
-4.5099778 2.0714772 -2.3142188 0.0039215689
-101.66832 35.145485 -1.87674 0.24705882
-7.5533667 3.0317993 -2.2783849 0.011764706
-157.17178 63.085911 0.0015247735 0.24705882
-47.8908 24.898121 -0.62787205 0.035294119
-13.523959 5.428287 -2.2670481 0.011764706
-16.922142 7.7724662 -2.3701403 0.0039215689
-155.71191 53.827663 0.95897555 0.10980392
-159.3085 73.171448 -1.0172647 0.16862746
-19.734631 7.9211392 -2.2904067 0.0078431377
-24.20204 12.582501 -2.5460401 0.0078431377
-116.70166 60.672432 1.5325304 0.062745102
-32.698318 13.124529 -2.4634874 0.011764706
-28.178663 12.942661 -2.5311289 0.011764706
-147.77341 51.083401 4.5516963 0.24705882
-35.184662 12.162915 -2.3855553 0.019607844
-35.865982 18.646507 -2.3537824 0.027450981
-44.007908 17.66399 -2.2085042 0.015686275
-41.181641 18.915012 -2.3745892 0.039215688
-14.505941 6.6626644 1.3032755 0
-47.439812 16.399364 -2.0445414 0.054901961
-47.818764 24.860678 -1.8815472 0.047058824
-11.882915 5.4578838 2.3842859 0
-4.4961414 2.0841579 -2.3108377 0.0039215689
-101.54126 35.498848 -1.8766675 0.24705882
-7.5427389 3.0581474 -2.2783847 0.015686275
-10.430243 4.8348551 -2.2991791 0.011764706
-47.743382 25.033567 -0.62708008 0.074509807
-13.50493 5.4754615 -2.2670479 0.011764706
-16.916508 7.8415017 -2.3731701 0.0039215689
-156.27826 54.634884 0.9636361 0.10980392
-19.743721 8.004921 -2.2946901 0.0078431377
-24.203827 12.690948 -2.5508721 0.0078431377
-115.8055 60.720955 1.5235386 0.062745102
-32.578346 13.208602 -2.4579067 0.011764706
-28.147783 13.047652 -2.5324299 0.011764706
-11.741857 4.1049495 0.36210391 0
-159.92679 74.132523 3.0785055 0.10980392
-35.213589 12.310689 -2.3904145 0.019607844
-35.846653 18.795698 -2.3568046 0.027450981
-43.94228 17.816 -2.2083168 0.015686275
-41.082745 19.043531 -2.3727043 0.039215688
-12.888503 5.2255092 1.7077521 0
-47.367188 16.559586 -2.043889 0.054901961
-47.689213 25.005173 -1.8798714 0.047058824
-9.3129416 3.7758448 -0.23375729 0
-4.4986901 2.1044483 -2.3159089 0.0039215689
-3.3332901 1.1783907 -0.061688092 0
-7.5656009 3.5390987 -0.2430093 0
-7.5213237 3.0800786 -2.2751496 0.011764706
-10.399091 4.8645854 -2.2960408 0.0078431377
-156.86081 64.236206 0.0015338226 0.24705882
-47.701664 25.224375 -0.62768376 0.035294119
-13.496706 5.5270629 -2.2688918 0.011764706
-16.899815 7.9055476 -2.3746848 0.0039215689
-156.59944 55.361385 0.96680653 0.10980392
-19.737741 8.0828342 -2.2972596 0.0078431377
-24.20867 12.801423 -2.5560758 0.0078431377
-114.77605 60.692921 1.5127758 0.062745102
-32.443417 13.285949 -2.45121 0.011764706
-28.127344 13.157652 -2.5347071 0.011764706
-158.79762 74.283623 3.0617461 0.10980392
-35.260727 12.465467 -2.3965528 0.019607844
-35.780827 18.920713 -2.3568039 0.027450981
-15.601887 6.3891339 0.98199779 0
-43.97226 18.007135 -2.2129679 0.015686275
-41.084766 19.218981 -2.3766801 0.039215688
-5.4155397 2.2177155 0.71858764 0
-47.278946 16.714174 -2.0425854 0.054901961
-47.67585 25.210732 -1.8828011 0.047058824
-4.4953356 2.1201162 -2.3175993 0.0039215689
-139.20956 49.706215 -2.5788732 0.24705882
-7.511611 3.1036909 -2.2751493 0.015686275
-10.383759 4.8972287 -2.2960405 0.011764706
-11.88171 4.9093285 0.00010980509 0
-48.07402 25.614847 -0.63363814 0.035294119
-13.482931 5.5709434 -2.2695065 0.011764706
-16.885666 7.963676 -2.3761995 0.0039215689
-156.85043 56.005043 0.96944112 0.10980392
-12.593454 5.9393568 -0.080801249 0
-19.752682 8.1615038 -2.301971 0.0078431377
-24.178877 12.883028 -2.5571904 0.0078431377
-113.86119 60.66761 1.5032244 0.062745102
-32.512157 13.433515 -2.459579 0.011764706
-28.136353 13.269754 -2.5392625 0.011764706
-158.25238 74.635376 3.0557425 0.10980392
-35.266506 12.592281 -2.3996215 0.019607844
-35.72121 19.033024 -2.3568032 0.027450981
-43.937637 18.154337 -2.2140834 0.015686275
-41.013348 19.342836 -2.3760514 0.039215688
-47.229969 16.863956 -2.042747 0.054901961
-47.642277 25.384813 -1.8846145 0.047058824
-8.3165922 3.4362631 2.4112329 0
-11.649101 5.4939623 2.3484111 0
-4.4879074 2.1357961 -2.3175991 0
-7.5042849 3.1313775 -2.2762275 0.015686275
-10.359516 4.9300771 -2.2944717 0.011764706
-117.20378 62.974918 -1.5476756 0.082352944
-13.463401 5.6179771 -2.2695062 0.011764706
-16.893589 8.0396242 -2.3812494 0.0039215689
-9.2213516 3.3289156 0.057058994 0
-19.760775 8.2457247 -2.3062541 0.0078431377
-24.154808 12.978666 -2.5594203 0.0078431377
-113.01099 60.722061 1.4947917 0.062745102
-32.398785 13.519271 -2.4545565 0.011764706
-27.963861 13.307933 -2.5278721 0.011764706
-158.66258 75.507027 3.068738 0.10980392
-35.244858 12.723448 -2.4011552 0.019607844
-35.654552 19.157606 -2.3568022 0.027450981
-159.96626 76.127419 7.2192302 0.24705882
-43.940369 18.335302 -2.217432 0.015686275
-40.941971 19.484177 -2.3758411 0.039215688
-8.1249132 3.866616 0.73463619 0
-47.197124 17.038229 -2.0438855 0.054901961
-47.609718 25.581245 -1.8868463 0.047058824
-51.191051 21.360836 -1.2902327 0.13725491
-4.4902291 2.1561568 -2.3226702 0
-73.783951 26.927589 -1.3703052 0.18431373
-49.418636 23.73012 -1.5949297 0.039215688
-7.4897594 3.1560578 -2.2751491 0.015686275
-10.352852 4.971303 -2.2968247 0.015686275
-158.62798 66.842834 0.001569149 0.24705882
-49.726223 26.942574 -0.65787566 0.035294119
-13.440066 5.6634045 -2.2688909 0.011764706
-16.876156 8.1036987 -2.3827643 0.0039215689
-157.33113 57.418255 0.9748742 0.10980392
-19.742865 8.3192844 -2.3075385 0.0078431377
-24.123365 13.070493 -2.5609069 0.0078431377
-112.1161 60.746529 1.4857533 0.062745102
-32.325653 13.621435 -2.4526029 0.011764706
-27.813017 13.355419 -2.518434 0.011764706
-158.75859 76.233536 3.0757265 0.10980392
-35.267731 12.871034 -2.4057589 0.019607844
-35.541817 19.257215 -2.3537786 0.027450981
-7.4627728 3.1446667 0.4716906 0
-159.69955 76.685349 7.2192335 0.24705882
-43.872417 18.487024 -2.2172449 0.015686275
-40.8377 19.609684 -2.3737473 0.039215688
-47.077297 17.180952 -2.0412796 0.054901961
-47.804829 25.901535 -1.8981496 0.047058824
-4.4794126 2.1702356 -2.3209798 0
-73.498146 27.114365 -1.3667446 0.18431373
-49.281528 23.876318 -1.5931839 0.039215688
-7.485786 3.1851969 -2.2773054 0.011764706
-10.335436 5.0074081 -2.2968245 0.019607844
-158.91267 67.616928 0.001578219 0.24705882
-49.565186 27.079544 -0.65699059 0.074509807
-13.42749 5.7133765 -2.2701204 0.011764706
-16.86562 8.1712036 -2.3852887 0.0039215689
-10.500077 3.8736029 0.06513869 0
-19.750301 8.4037161 -2.3118215 0.0078431377
-24.088079 13.160342 -2.5620215 0.0078431377
-32.237522 13.716998 -2.4495332 0.011764706
-27.809282 13.473276 -2.5223386 0.011764706
-7.9675097 2.939307 0.24722102 0
-158.46271 76.773247 3.0751712 0.10980392
-2.2245772 0.82067263 -0.15194948 0
-35.453358 19.369671 -2.3523829 0.027450981
-160.15025 77.590813 7.251811 0.24705882
-43.789234 18.632221 -2.2163131 0.015686275
-40.909199 19.820028 -2.3819089 0.039215688
-2.6997263 1.1487225 0.36026537 0
-46.979538 17.331333 -2.0396502 0.054901961
-47.987766 26.217741 -1.9090341 0.047058824
-5.8538938 2.836132 1.1860414 0
-4.4685535 2.184267 -2.3192894 0
-73.500488 27.407089 -1.368557 0.18431373
-7.4604654 3.2052264 -2.2729921 0.015686275
-10.324942 5.0469003 -2.298393 0.011764706
-158.85942 68.250175 0.0015839451 0.24705882
-114.07507 62.842052 -1.5149605 0.082352944
-13.418359 5.7648935 -2.2719646 0.015686275
-16.851255 8.2369986 -2.3873088 0.0039215689
-157.73975 58.818455 0.97993475 0.10980392
-127.73077 62.435482 -0.82497048 0.16862746
-19.742771 8.482028 -2.3143914 0.0078431377
-24.07688 13.263565 -2.5657384 0.0078431377
-49.670044 27.362389 0.6607368 0.054901961
-32.211437 13.838896 -2.4512062 0.011764706
-27.779993 13.579024 -2.5239651 0.011764706
-158.22252 77.339989 3.0757339 0.10980392
-35.266788 13.150399 -2.411896 0.019607844
-35.451988 19.529919 -2.3567998 0.027450981
-43.709244 18.778654 -2.2155678 0.015686275
-40.753639 19.92061 -2.3768849 0.039215688
-8.1126499 3.4853988 1.0842237 0
-46.896294 17.486843 -2.0386722 0.054901961
-48.07103 26.481537 -1.9160111 0.047058824
-4.4609013 2.199852 -2.3192892 0
-7.3202209 2.7587283 -0.13648532 0
-48.654633 23.993435 -1.578292 0.039215688
-7.4527664 3.2327819 -2.2740705 0.015686275
-10.303744 5.0811763 -2.2976084 0.011764706
-159.17068 69.04306 0.0015933515 0.24705882
-123.37965 68.530243 -1.6416925 0.082352944
-13.409033 5.8164163 -2.273809 0.019607844
-16.854427 8.3115644 -2.3918536 0.0039215689
-158.22217 59.628265 0.98422289 0.10980392
-127.10666 62.681057 -0.8223449 0.16862746
-19.749529 8.5667171 -2.3186741 0.0078431377
-24.051325 13.359132 -2.5679681 0.0078431377
-8.4232073 3.6537101 0.21372604 0
-49.497303 27.492878 0.65971261 0.027450981
-32.166599 13.95284 -2.4514844 0.011764706
-27.750299 13.684728 -2.5255916 0.011764706
-159.38637 78.599358 3.1036766 0.10980392
-5.0203104 1.8919761 -0.34379536 0
-35.271889 19.591501 -2.3493586 0.027450981
-43.621441 18.921576 -2.2144501 0.015686275
-40.708931 20.075113 -2.3783491 0.039215688
-7.4193749 3.658766 0.67539662 0
-46.84618 17.654665 -2.0391595 0.054901961
-47.052212 26.134783 -1.8790269 0.047058824
-47.002724 20.388258 -1.1917242 0.031372551
-4.453196 2.215409 -2.3192892 0
-48.448875 24.102562 -1.5743359 0.039215688
-7.4449658 3.2603207 -2.2751484 0.015686275
-10.285946 5.1171103 -2.2976081 0.011764706
-47.006252 20.585024 0.00046723132 0.050980393
-137.11618 76.787567 -1.8280225 0.082352944
-13.381407 5.8600125 -2.2725787 0.011764706
-16.857288 8.3862505 -2.3963988 0.0039215689
-158.44667 60.34531 0.98692775 0.10980392
-49.188396 24.470453 -0.31878936 0.039215688
-19.781437 8.6627207 -2.3259556 0.0078431377
-24.014973 13.448837 -2.569083 0.0078431377
-49.498753 27.7202 0.66101861 0.027450981
-32.099426 14.057028 -2.4500887 0.011764706
-27.748766 13.804588 -2.5298214 0.011764706
-159.46913 79.333351 3.1106651 0.10980392
-35.166656 13.393435 -2.4113824 0.019607844
-35.140579 19.679379 -2.3451724 0.027450981
-8.5987349 4.2777309 0.39136276 0
-43.591728 19.089746 -2.21631 0.015686275
-1.8168026 0.90383053 -0.10633466 0
-13.288979 6.6110487 1.2118142 0
-46.810421 17.828028 -2.040298 0.054901961
-48.955765 27.416132 -1.9588534 0.047058824
-4.4486752 2.2325671 -2.3209794 0
-142.80212 54.958599 -2.6694844 0.24705882
-48.246513 24.212364 -1.5704961 0.039215688
-7.4335389 3.2862906 -2.2751482 0.015686275
-10.26802 5.152986 -2.2976079 0.011764706
-159.77866 70.636185 0.0016121484 0.24705882
-111.56133 62.988972 -1.4902484 0.082352944
-13.360868 5.9066901 -2.2725785 0.011764706
-16.84564 8.4539442 -2.3989234 0.0039215689
-48.677246 24.428518 -0.3160263 0.082352944
-19.776537 8.742979 -2.3289537 0.0078431377
-23.967878 13.532589 -2.5690825 0.0078431377
-49.495724 27.945921 0.662278 0.027450981
-32.083008 14.183517 -2.4525988 0.011764706
-27.739605 13.921043 -2.5334003 0.011764706
-159.54509 80.067146 3.1175835 0.10980392
-35.056358 13.491744 -2.4070332 0.019607844
-35.158596 19.851011 -2.3509846 0.027450981
-12.603905 5.5720248 0.80267149 0
-162.79843 81.699806 7.4226732 0.24705882
-43.382298 19.178795 -2.2090516 0.015686275
-40.571358 20.360617 -2.3785565 0.039215688
-10.418815 5.2286406 0.95174313 0
-46.770279 17.999943 -2.0412736 0.054901961
-48.703114 27.498419 -1.9525723 0.047058824
-11.762351 5.1999912 -0.29914519 0
-4.4279175 2.2415333 -2.3142176 0
-2.7024105 1.0508889 -0.050593305 0
-48.579079 24.591915 -1.5841049 0.039215688
-7.4185047 3.3106492 -2.2740698 0.015686275
-10.263968 5.1958828 -2.3007452 0.011764706
-10.096252 4.5056243 9.5386829e-05 0.0039215689
-110.69423 63.009983 -1.4815924 0.082352944
-13.347389 5.9565153 -2.273808 0.015686275
-16.844353 8.5270338 -2.4029634 0.0039215689
-48.381126 24.491699 -0.31465587 0.039215688
-19.778584 8.8265467 -2.3328085 0.0078431377
-23.899725 13.60435 -2.5668514 0.0078431377
-157.31511 70.204536 4.0102048 0.074509807
-49.488247 28.16997 0.66349077 0.027450981
-32.026012 14.292172 -2.4520402 0.011764706
-27.697956 14.02139 -2.5340502 0.011764706
-157.8409 79.902855 3.0897176 0.10980392
-35.046253 13.628501 -2.4095902 0.019607844
-35.068264 19.961767 -2.3495889 0.027450981
-17.120737 7.6404138 1.0920177 0
-162.33397 82.177338 7.4145341 0.24705882
-43.457386 19.39362 -2.2163079 0.015686275
-40.582008 20.54361 -2.3833697 0.039215688
-48.305164 18.784513 -2.1111104 0.05882353
-48.62767 27.680124 -1.9534086 0.047058824
-4.4136095 2.2536774 -2.3108366 0.0039215689
-143.52797 56.39146 -2.6903396 0.24705882
-48.411041 24.719503 -1.5814283 0.039215688
-7.399879 3.333358 -2.2719131 0.011764706
-10.24577 5.2316766 -2.300745 0.011764706
-109.7798 62.997822 -1.472285 0.082352944
-13.337328 6.007937 -2.2756524 0.015686275
-16.839226 8.5984077 -2.4064982 0.0039215689
-47.988979 24.503984 -0.31265876 0.082352944
-19.787544 8.913496 -2.3375199 0.0078431377
-49.486752 28.398273 0.66479671 0.027450981
-31.975933 14.40387 -2.4520395 0.011764706
-27.623993 14.105291 -2.5317719 0.011764706
-160.19331 81.797371 3.1413393 0.10980392
-35.083927 13.784319 -2.4154727 0.019607844
-35.00877 20.090012 -2.3502855 0.027450981
-43.389435 19.545185 -2.2163069 0.015686275
-40.410442 20.634268 -2.3775079 0.039215688
-48.328583 18.988081 -2.1150165 0.05882353
-49.41143 28.355066 -1.9888554 0.047058824
-4.4186068 2.2757099 -2.3175981 0
-144.0737 57.187229 -2.7042909 0.24705882
-48.747452 25.106195 -1.5952698 0.039215688
-7.3952122 3.3623576 -2.2740695 0.011764706
-10.237906 5.2727971 -2.3030982 0.011764706
-133.61392 60.749561 0.0013628959 0.24705882
-108.91526 63.008102 -1.4636292 0.082352944
-13.330667 6.0610003 -2.2781115 0.011764706
-16.837328 8.671669 -2.410538 0.0039215689
-9.7628469 3.8751671 0.061135743 0
-47.999161 24.7208 -0.31328437 0.082352944
-19.76355 8.9858055 -2.338376 0.0078431377
-23.618011 13.663168 -2.5467768 0.019607844
-49.487724 28.628925 0.6661492 0.027450981
-31.878233 14.493927 -2.4484117 0.011764706
-27.553318 14.190679 -2.5298188 0.011764706
-10.588387 5.4532881 0.20800041 0
-34.979939 13.884611 -2.4116349 0.019607844
-34.948792 20.218088 -2.3509824 0.027450981
-12.443083 5.6574254 0.7961598 0
-162.46341 83.67276 7.4469519 0.24705882
-43.288204 19.681643 -2.2146311 0.015686275
-40.490871 20.853849 -2.3865075 0.039215688
-15.144736 7.7999167 1.3908384 0
-48.276863 19.162563 -2.1156664 0.05882353
-49.24987 28.491343 -1.9863423 0.047058824
-9.701066 4.9962826 1.9896572 0
-4.4106369 2.2911198 -2.3175981 0
-144.24438 57.838638 -2.7112644 0.24705882
-48.52824 25.208012 -1.5909648 0.039215688
-7.3869309 3.3897576 -2.2751474 0.011764706
-10.236842 5.317543 -2.3070202 0.011764706
-132.55762 60.828556 0.0013573979 0.24705882
-108.07619 63.027233 -1.4552989 0.082352944
-13.309429 6.1074963 -2.278111 0.011764706
-16.831604 8.7431946 -2.4140728 0.0039215689
-156.74934 62.852806 0.98305917 0.10980392
-48.047462 24.958265 -0.3141652 0.082352944
-19.771822 9.0729847 -2.3430874 0.0078431377
-23.442881 13.671293 -2.5330219 0.031372551
-49.473866 28.851868 0.66731542 0.027450981
-31.831072 14.606779 -2.4486899 0.011764706
-27.517771 14.294124 -2.5311198 0.011764706
-7.4741144 2.9969411 0.23441882 0
-8.4078703 4.3674674 0.16546309 0
-34.916435 14.000688 -2.4106109 0.019607844
-34.843513 20.319847 -2.3486567 0.027450981
-167.23506 86.870216 7.6795301 0.24705882
-43.226501 19.835958 -2.2150023 0.015686275
-40.346935 20.958235 -2.3823204 0.039215688
-48.191128 19.323528 -2.1148512 0.05882353
-49.022346 28.58857 -1.9811777 0.047058824
-4.3897667 2.2997735 -2.3108363 0
-144.41229 58.49197 -2.7182381 0.24705882
-47.968895 25.130487 -1.5754926 0.039215688
-7.3820424 3.4187613 -2.2773037 0.0078431377
-10.249485 5.369628 -2.3140798 0.011764706
-131.25557 60.786652 0.0013492922 0.24705882
-107.24866 63.04739 -1.4471084 0.082352944
-13.273681 6.1472778 -2.2756515 0.011764706
-16.832613 8.818471 -2.4186177 0.0039215689
-156.63651 63.443172 0.98373842 0.10980392
-48.034447 25.164822 -0.31465155 0.082352944
-19.750856 9.146965 -2.344372 0.0078431377
-23.278278 13.684424 -2.5203824 0.031372551
-161.33438 74.716614 4.1388702 0.074509807
-49.479736 29.08724 0.66876119 0.027450981
-31.776266 14.716134 -2.44841 0.011764706
-162.37106 85.064735 3.2013497 0.10980392
-34.845154 14.113499 -2.409075 0.019607844
-34.72073 20.411003 -2.3451681 0.027450981
-167.24234 87.616707 7.6938667 0.24705882
-43.127983 19.973305 -2.2135124 0.015686275
-40.312447 21.119347 -2.3846216 0.039215688
-48.182655 19.515648 -2.1174548 0.05882353
-49.425392 29.055311 -2.0015521 0.047058824
-14.61221 7.6551867 3.0078094 0.0039215689
-9.1333628 4.2298136 -0.23412625 0
-4.3757048 2.3109319 -2.3074553 0
-48.016106 25.358507 -1.5797955 0.039215688
-7.3671751 3.441592 -2.2762253 0.011764706
-10.235092 5.4054193 -2.3148642 0.011764706
-8.3570766 3.9040093 7.9349178e-05 0.0039215689
-106.43675 63.045967 -1.4389644 0.082352944
-13.271127 6.1996255 -2.2787254 0.015686275
-16.824331 8.8853598 -2.4216475 0.0039215689
-48.102818 25.404293 -0.31564847 0.039215688
-19.745638 9.2241936 -2.3473701 0.0078431377
-23.112839 13.690503 -2.5073712 0.019607844
-161.89729 75.630341 4.1597261 0.074509807
-49.482807 29.310276 0.67011368 0.027450981
-31.723675 14.819738 -2.4481306 0.011764706
-27.247091 14.389878 -2.5151732 0.011764706
-161.73444 85.415939 3.1943681 0.10980392
-34.779682 14.22142 -2.4077954 0.019607844
-34.628803 20.511782 -2.3435397 0.027450981
-43.068756 20.119596 -2.2138836 0.015686275
-40.122093 21.189486 -2.3775043 0.039215688
-11.894365 6.2817006 1.0982178 0
-48.184261 19.702551 -2.120384 0.05882353
-49.473228 29.304619 -2.0074124 0.047058824
-8.6086817 4.5464454 1.7751212 0
-4.3772111 2.3313036 -2.3125265 0
-47.874374 25.497757 -1.5780497 0.039215688
-7.351634 3.4656439 -2.275147 0.0078431377
-10.205776 5.4355803 -2.3125105 0.011764706
-129.06589 60.842884 0.0013368693 0.24705882
-49.696152 29.671465 -0.67326266 0.035294119
-13.260133 6.2509656 -2.2805698 0.011764706
-16.831739 8.9645481 -2.4272027 0.0039215689
-117.78225 62.730473 -0.77430022 0.16862746
-19.738503 9.3049307 -2.3503683 0.0078431377
-22.931549 13.691467 -2.492873 0.019607844
-161.00294 75.898285 4.1435323 0.074509807
-49.476353 29.540226 0.67141962 0.027450981
-31.657322 14.923574 -2.4470139 0.011764706
-27.031315 14.396812 -2.4998777 0.011764706
-12.280352 5.0715308 0.38678509 0
-161.08232 85.791939 3.187387 0.10980392
-34.715076 14.336636 -2.4067714 0.019607844
-34.56385 20.636621 -2.3440039 0.027450981
-9.0728846 4.8321881 0.41888896 0
-43.045254 20.291952 -2.2163019 0.015686275
-40.400459 21.517178 -2.3984342 0.039215688
-48.185379 19.899599 -2.1234758 0.05882353
-49.573147 29.598034 -2.0156453 0.050980393
-19.349348 10.305379 3.997261 0.0039215689
-4.3658533 2.3448534 -2.3108361 0
-51.241444 21.371357 -0.96859747 0.52941179
-47.91188 25.732822 -1.5822361 0.12156863
-7.353406 3.4979033 -2.27946 0.011764706
-10.183285 5.4693155 -2.3117256 0.011764706
-127.82328 60.803341 0.0013291379 0.24705882
-49.540871 29.813822 -0.67256379 0.035294119
-13.234663 6.2955165 -2.2799547 0.011764706
-16.824816 9.0363913 -2.4307375 0.0039215689
-116.57941 62.613197 -0.76782233 0.16862746
-19.720266 9.3806076 -2.3520808 0.0078431377
-22.784657 13.711878 -2.4820921 0.019607844
-6.8865047 3.2757897 0.17751589 0
-49.523727 29.803497 0.67347127 0.027450981
-31.554585 15.009989 -2.4431071 0.011764706
-5.556345 2.9842348 0.11014377 0
-34.627975 14.442361 -2.4042125 0.019607844
-33.690987 20.275331 -2.2895944 0.015686275
-14.928966 8.018136 0.69055307 0.0039215689
-43.003025 20.455814 -2.2177894 0.015686275
-40.296947 21.642952 -2.3967588 0.039215688
-49.479805 29.777082 -2.016063 0.050980393
-116.48211 55.408566 -3.000293 0.054901961
-48.06229 26.051882 -1.5904939 0.039215688
-7.3329759 3.5227761 -2.277303 0.011764706
-10.165658 5.5102458 -2.31251 0.011764706
-126.81728 60.923031 0.0013243258 0.24705882
-104.30206 63.316051 -1.4192777 0.082352944
-13.217517 6.3497109 -2.281184 0.011764706
-16.821388 9.1179447 -2.4352825 0.0039215689
-115.76141 62.747765 -0.76401329 0.16862746
-19.719952 9.4734812 -2.356364 0.0078431377
-22.653536 13.75173 -2.4735415 0.0078431377
-102.08649 61.971085 1.3915058 0.062745102
-31.489525 15.127585 -2.4425483 0.011764706
-26.122421 14.159512 -2.4253557 0.023529412
-49.773567 26.979452 0.98876971 0.043137256
-34.531803 14.55816 -2.4013977 0.019607844
-33.612885 20.404547 -2.2895937 0.015686275
-166.80571 90.415955 7.7318306 0.24705882
-42.985386 20.650202 -2.220952 0.015686275
-40.206524 21.793715 -2.3963392 0.039215688
-49.780811 26.983353 4.623024 0.047058824
-47.647842 20.087706 -2.1062174 0.05882353
-49.402695 29.98967 -2.0175972 0.050980393
-4.3716488 2.3874376 -2.3226688 0
-49.566341 27.068941 -1.6430711 0.039215688
-7.3218727 3.5457947 -2.2773027 0.011764706
-10.162066 5.5496726 -2.3156476 0.011764706
-125.66405 60.855621 0.0013168576 0.24705882
-106.32761 65.003624 -1.4496096 0.082352944
-13.218849 6.4015369 -2.284873 0.011764706
-16.820526 9.1859579 -2.4393225 0.0039215689
-19.718729 9.5492487 -2.3597903 0.0078431377
-22.589834 13.81036 -2.4713109 0.0078431377
-159.67746 77.327347 4.1300454 0.074509807
-102.11312 62.427078 1.3945371 0.062745102
-31.44544 15.22817 -2.4428267 0.011764706
-25.825884 14.103922 -2.4019251 0.023529412
-34.46019 14.65563 -2.3996065 0.019607844
-33.463448 20.457966 -2.2837803 0.015686275
-49.570755 27.071329 2.3016458 0.05882353
-42.94548 20.797323 -2.2222536 0.015686275
-40.144875 21.923738 -2.3967569 0.039215688
-47.293953 20.113714 -2.0933554 0.05882353
-49.246845 30.107183 -2.0150843 0.050980393
-8.1437407 4.4474082 1.6918902 0
-4.344234 2.3921921 -2.312526 0
-49.503063 27.259167 -1.6441169 0.039215688
-7.3198328 3.5764062 -2.2805374 0.0078431377
-10.139195 5.5832224 -2.314863 0.011764706
-124.60626 60.881283 0.0013108421 0.24705882
-106.37926 65.546463 -1.4534224 0.082352944
-13.203524 6.4511147 -2.2861023 0.011764706
-16.812685 9.2580185 -2.4428573 0.0039215689
-158.72896 68.161346 1.0055786 0.10980392
-49.533695 27.276024 -0.32810616 0.039215688
-19.706711 9.6285028 -2.3623602 0.0078431377
-22.517752 13.874513 -2.4687083 0.019607844
-159.30952 77.836906 4.1275353 0.074509807
-102.15337 62.942631 1.3980811 0.062745102
-31.392086 15.337852 -2.442826 0.011764706
-25.772997 14.192068 -2.4015987 0.035294119
-49.656601 27.343695 0.99002898 0.090196081
-34.412483 14.777413 -2.3998616 0.019607844
-33.306835 20.522293 -2.2779667 0.015686275
-49.619488 27.323248 2.3083243 0.05882353
-42.894157 20.957642 -2.2233691 0.015686275
-40.096088 22.079163 -2.3984306 0.039215688
-49.558846 27.289843 4.6191196 0.047058824
-47.043499 20.20142 -2.0853775 0.05882353
-10.274806 6.3309088 -0.42133248 0
-4.345366 2.4126213 -2.3175974 0
-151.01616 65.47464 -2.8715742 0.24705882
-51.512005 28.600185 -1.7141422 0.043137256
-7.300395 3.5985298 -2.2783811 0.0078431377
-10.109358 5.6128688 -2.3125093 0.011764706
-123.49962 60.875515 0.0013042376 0.24705882
-104.54942 64.923576 -1.4315075 0.082352944
-13.19865 6.5059018 -2.2891765 0.011764706
-16.80802 9.3320589 -2.446897 0.0039215689
-113.0745 62.780525 -0.75042892 0.16862746
-19.715786 9.7183342 -2.3674998 0.0078431377
-22.415049 13.919413 -2.46276 0.019607844
-160.18825 78.960068 4.1574216 0.074509807
-102.1505 63.433868 1.4010658 0.062745102
-31.28825 15.42264 -2.4389195 0.011764706
-25.702393 14.270336 -2.3996458 0.035294119
-49.567844 27.520746 0.99016982 0.043137256
-34.371677 14.90221 -2.4006281 0.019607844
-33.184109 20.606831 -2.2744782 0.015686275
-49.492367 27.47883 2.3068595 0.05882353
-42.863743 21.128441 -2.2256014 0.015686275
-40.018776 22.21899 -2.3984299 0.039215688
-49.564365 27.518791 4.6285601 0.047058824
-46.917694 20.341663 -2.0829346 0.05882353
-49.028515 24.167175 -1.2714221 0.035294119
-4.3400817 2.4295444 -2.3192878 0
-46.980999 26.299463 -1.566411 0.039215688
-7.2912397 3.6257045 -2.279459 0.0078431377
-10.089705 5.6481204 -2.3125093 0.011764706
-122.43398 60.882332 0.0012979957 0.24705882
-13.179401 6.5536909 -2.2897911 0.011764706
-16.803043 9.4061756 -2.450937 0.0039215689
-46.965187 26.290604 -0.3122991 0.039215688
-19.731604 9.811883 -2.3734963 0.0078431377
-22.342697 13.982778 -2.4601574 0.027450981
-159.91167 79.518723 4.1574249 0.074509807
-102.15223 63.930073 1.4041438 0.062745102
-31.194927 15.512211 -2.4358497 0.011764706
-25.544582 14.299592 -2.3895574 0.050980393
-49.604092 27.767826 0.99282515 0.043137256
-34.319454 15.022091 -2.4006271 0.019607844
-33.084904 20.705585 -2.2726173 0.015686275
-49.479847 27.698265 2.3107693 0.05882353
-42.879185 21.322403 -2.2302525 0.015686275
-39.940979 22.35854 -2.3984289 0.039215688
-49.565418 27.746153 4.6376753 0.047058824
-46.751213 20.463634 -2.0787008 0.05882353
-6.2724032 3.9254692 -0.25832868 0
-48.736191 24.23489 -1.2660263 0.035294119
-4.3284178 2.4428978 -2.3175972 0
-125.4165 55.418934 -2.3920898 0.24705882
-7.2854252 3.6545877 -2.2816155 0.0078431377
-10.076758 5.6871619 -2.3140776 0.011764706
-107.71352 67.934914 -1.4812837 0.082352944
-16.794296 9.478425 -2.4544718 0.0039215689
-46.880096 26.458319 -0.31234449 0.039215688
-19.754108 9.9092302 -2.3803492 0.0078431377
-22.239853 14.026688 -2.4542091 0.039215688
-102.17542 64.442017 1.4075481 0.062745102
-31.115622 15.608483 -2.4338961 0.011764706
-25.432014 14.353403 -2.3836992 0.047058824
-49.444172 27.90543 0.99156892 0.043137256
-34.259502 15.138569 -2.4001148 0.019607844
-32.958382 20.786861 -2.2688963 0.015686275
-49.476837 27.923857 2.3151679 0.05882353
-42.82592 21.482698 -2.2313676 0.015686275
-40.008793 22.580284 -2.4072187 0.039215688
-46.708736 20.639624 -2.0800021 0.05882353
-88.006844 55.505932 -3.6324136 0.24705882
-48.426109 24.291903 -1.2601652 0.035294119
-4.338769 2.4687488 -2.32774 0
-124.95932 55.739082 -2.387063 0.24705882
-105.40799 59.976574 -3.5283077 0.15686275
-7.2657495 3.6765184 -2.2794588 0.0078431377
-10.060254 5.7242422 -2.314862 0.011764706
-48.272003 24.425867 0.00051129871 0.054901961
-108.15083 68.739601 -1.4905864 0.082352944
-16.774902 9.5448399 -2.4564919 0.0039215689
-110.69347 62.983963 -0.73895693 0.16862746
-19.754883 9.9960814 -2.3846326 0.0078431377
-22.147057 14.076462 -2.4493761 0.027450981
-158.21082 80.05542 4.1276436 0.074509807
-102.15575 64.929169 1.4103929 0.062745102
-31.021782 15.697186 -2.4308267 0.011764706
-25.326315 14.410545 -2.3784921 0.047058824
-15.350936 6.8473988 0.48933521 0.0039215689
-49.464642 28.1451 0.99394482 0.043137256
-34.235615 15.271076 -2.4021604 0.019607844
-32.855289 20.882505 -2.2668033 0.015686275
-14.708289 7.4424586 0.96014225 0
-49.483269 28.155687 2.3200552 0.05882353
-42.800579 21.657314 -2.2339721 0.015686275
-40.08596 22.808701 -2.4166367 0.039215688
-46.672909 20.818825 -2.0816288 0.05882353
-87.812553 55.812801 -3.632412 0.24705882
-48.31604 24.448158 -1.259513 0.070588239
-4.3112574 2.4730561 -2.3175969 0
-124.95728 56.261963 -2.3907583 0.24705882
-5.7572346 3.3024909 -0.19310293 0
-7.2665944 3.7088625 -2.2837715 0.0039215689
-10.036808 5.7573719 -2.3140774 0.011764706
-48.16507 24.583311 0.00051216746 0.054901961
-88.26416 56.53336 -1.2192109 0.33333334
-13.095967 6.6841574 -2.2873309 0.05882353
-16.751808 9.6092596 -2.4580064 0.0039215689
-134.22368 60.434139 0.85690051 0.10980392
-9.256958 5.3100171 -0.06192667 0
-19.744665 10.077634 -2.3876305 0.0078431377
-22.03071 14.110722 -2.441941 0.039215688
-102.14405 65.423424 1.4133776 0.062745102
-30.966801 15.805378 -2.4308259 0.011764706
-25.227444 14.471092 -2.3739357 0.054901961
-49.477112 28.381273 0.99618107 0.043137256
-34.109306 15.357711 -2.3970437 0.019607844
-32.714943 20.953989 -2.2621522 0.015686275
-49.499092 28.393873 2.3254309 0.05882353
-42.706928 21.797506 -2.2330408 0.015686275
-40.051144 22.974327 -2.4193568 0.039215688
-5.940825 3.0321734 0.81901878 0
-8.6834831 4.9810519 0.81731641 0
-46.68013 21.017717 -2.0852091 0.05882353
-87.448883 56.011177 -3.6254323 0.24705882
-48.04163 24.520315 -1.2545822 0.035294119
-4.2994604 2.4862754 -2.3159065 0
-124.9713 56.793781 -2.3948019 0.24705882
-103.60567 59.91238 -3.4818907 0.15686275
-7.2501802 3.7324424 -2.2826931 0.0078431377
-10.016651 5.7923717 -2.3140771 0.011764706
-48.281677 24.855648 0.00051545497 0.054901961
-88.19735 56.925701 -1.2210234 0.082352944
-16.752514 9.6875401 -2.4630566 0.0039215689
-133.11974 60.496857 0.85119885 0.10980392
-108.86601 62.954269 -0.72966897 0.16862746
-19.751801 10.168339 -2.3927703 0.0078431377
-21.917744 14.146502 -2.4348774 0.039215688
-160.24709 82.495972 4.1957002 0.074509807
-102.13686 65.922737 1.4164556 0.062745102
-30.88306 15.898766 -2.4285934 0.011764706
-25.176779 14.559064 -2.3739352 0.039215688
-34.080925 15.488244 -2.3988333 0.019607844
-32.577854 21.026913 -2.2577336 0.015686275
-14.059509 7.2378983 0.92106706 0
-49.465416 28.604498 2.3285263 0.05882353
-39.970707 23.113993 -2.4193559 0.039215688
-46.679249 21.213608 -2.0884638 0.05882353
-87.420776 56.424484 -3.6324084 0.24705882
-47.781532 24.598175 -1.2500235 0.035294119
-4.2907557 2.5012686 -2.3159063 0
-125.0413 57.353054 -2.3999622 0.24705882
-102.9883 60.036068 -3.4681623 0.15686275
-7.2336879 3.7559531 -2.2816148 0.0039215689
-9.9963713 5.8273025 -2.3140769 0.011764706
-48.297569 25.077488 0.00051766477 0.054901961
-108.09566 70.304512 -1.4998848 0.082352944
-16.756304 9.7679405 -2.4686112 0.0039215689
-131.92245 60.509239 0.84489173 0.10980392
-7.0909834 4.1336203 -0.04763015 0
-19.769127 10.264714 -2.399195 0.0078431377
-21.838181 14.203381 -2.4315314 0.039215688
-159.9191 83.034576 4.1946797 0.074509807
-6.8634753 4.4639454 0.095393039 0
-30.82383 16.004635 -2.4283137 0.011764706
-25.084473 14.622767 -2.3700294 0.039215688
-49.491989 28.850876 1.0005138 0.043137256
-34.052052 15.618764 -2.4006231 0.019607844
-32.454041 21.107849 -2.2542455 0.015686275
-11.245044 5.8387446 0.73801541 0
-49.479206 28.843416 2.3339021 0.05882353
-42.723923 22.183504 -2.2419708 0.015686275
-39.889782 23.25338 -2.4193552 0.039215688
-46.692101 21.416409 -2.0923696 0.05882353
-8.5487309 5.5600247 -0.35601822 0
-47.645679 24.739017 -1.24872 0.070588239
-4.2851243 2.5180664 -2.3175967 0
-125.00002 57.863075 -2.403029 0.24705882
-102.17831 60.042702 -3.4479201 0.15686275
-7.2239475 3.7829654 -2.2826927 0.0078431377
-9.9894962 5.8701072 -2.3172145 0.011764706
-48.135334 25.206944 0.00051793928 0.054901961
-90.594482 59.372894 -1.2599137 0.082352944
-13.081278 6.8502636 -2.2971675 0.0039215689
-16.763161 9.8504915 -2.4746716 0.0039215689
-130.72311 60.512302 0.8385613 0.10980392
-49.463207 29.065893 -0.33287856 0.043137256
-19.796598 10.366864 -2.4069049 0.0078431377
-21.775146 14.270787 -2.4300442 0.039215688
-48.269543 31.634399 0.67245686 0.027450981
-30.788988 16.12323 -2.429987 0.011764706
-25.002342 14.692054 -2.3671002 0.047058824
-11.618167 5.3780966 0.37270424 0
