# .PCD v0.7 - Point Cloud Data file format
VERSION 0.7
FIELDS x y z intensity
SIZE 4 4 4 4
TYPE F F F F
COUNT 1 1 1 1
WIDTH 1116
HEIGHT 1
VIEWPOINT 0 0 0 1 0 0 0
POINTS 1116
DATA ascii
6.2579789 -2.1303904 -0.84145159 0
58.759426 -20.003345 -0.36076003 0.047058824
9.312664 -2.6703637 -1.0435535 0.050980393
2.8402061 -1.1245184 -0.28515244 0
147.24083 -42.220634 3.5642865 0.074509807
33.971733 -13.450363 0.42536148 0.0078431377
26.236055 -7.5230675 -1.9085367 0.027450981
10.171044 -3.462507 -0.87710935 0
131.63446 -30.874594 3.934911 0.24705882
33.987103 -11.570158 0.62667948 0.015686275
28.836662 -6.7635784 -1.8982579 0.0078431377
27.118402 -10.736936 -1.6985928 0.0078431377
33.767368 -11.495355 1.4532485 0.023529412
33.769035 -9.683116 -1.6364062 0.027450981
33.004128 -11.235522 -1.8271546 0.035294119
36.454121 -10.45306 4.6563845 0.011764706
32.505829 -11.065893 2.8031678 0.05882353
36.109299 -8.4693604 -1.5110518 0.039215688
35.112995 -13.902219 -1.318786 0.019607844
41.333439 -11.85219 11.521589 0.019607844
33.880558 -11.533895 6.5254378 0.011764706
4.6682792 -1.6083276 -2.3024244 0.0039215689
38.059525 -13.112378 -1.1715361 0.062745102
7.8821101 -2.2914555 -2.2978601 0
8.2067022 -2.8273959 -1.7360306 0.22352941
74.161644 -21.55999 4.0567406e-07 0.13333334
42.552223 -17.028294 -0.53358561 0.019607844
8.6950865 -2.527802 -1.4087582 0.086274512
8.8762331 -3.0580654 -1.1950028 0
58.742443 -20.238117 -0.36110905 0.050980393
9.276082 -2.696707 -1.0405548 0.05882353
9.4843664 -3.7953968 -0.95360702 0
33.821945 -13.534664 0.42410415 0.0078431377
26.135506 -7.5980129 -1.9032353 0.047058824
10.105516 -3.4815819 -0.87255299 0
28.741785 -6.852561 -1.893653 0.0078431377
26.893496 -10.762077 -1.686965 0.0078431377
32.481907 -9.4430189 1.969983 0.0078431377
37.318565 -12.857103 1.6080985 0.023529412
33.683441 -9.7923203 -1.6339867 0.035294119
33.023151 -11.377232 -1.8305043 0.035294119
31.68063 -9.2100782 4.0509377 0.011764706
31.168409 -10.738235 2.6912098 0.011764706
36.058571 -8.5970154 -1.5102379 0.039215688
34.716637 -13.892694 -1.3058035 0.019607844
41.401024 -12.035962 11.552648 0.019607844
35.06955 -12.082273 6.7629223 0.015686275
40.204178 -11.688004 -0.97425997 0.019607844
4.66606 -1.625806 -2.3041148 0.0039215689
38.077705 -13.267514 -1.1735142 0.043137256
7.8814535 -2.3211317 -2.3000169 0
8.2078934 -2.8598969 -1.738384 0.23529412
74.08593 -21.818731 8.8797009e-08 0.13333334
34.712669 -14.031879 -0.43589282 0.011764706
8.6445036 -2.5458555 -1.4019941 0.10980392
8.8655043 -3.0890305 -1.1950029 0
58.743206 -20.46805 -0.36155099 0.050980393
9.4895229 -3.8359432 -0.95546603 0
136.22859 -40.120106 3.3045752 0.074509807
33.830112 -13.675126 0.42480242 0.0078431377
25.993994 -7.6553788 -1.8948648 0.031372551
10.161066 -3.5404468 -0.87841129 0
35.3046 -12.301275 0.65257841 0.015686275
26.61142 -10.757114 -1.6716163 0.0078431377
32.360641 -9.5303974 1.9646339 0.0078431377
34.78252 -12.119368 1.5006313 0.023529412
33.718048 -9.9301586 -1.6373372 0.035294119
33.0285 -11.508206 -1.8330166 0.035294119
32.128155 -9.4619322 4.11236 0.011764706
31.021561 -10.808928 2.6817718 0.011764706
35.942883 -8.7021408 -1.5066557 0.019607844
35.905811 -14.51418 -1.3524296 0.019607844
1.9754651 -0.581788 0.55180258 0
31.270267 -10.89559 6.0375543 0.011764706
40.055725 -11.796641 -0.97165465 0.039215688
4.6671948 -1.6444931 -2.3074958 0.0039215689
38.065105 -13.41231 -1.1745619 0.062745102
7.8585382 -2.3442247 -2.2957036 0
8.2052612 -2.8911378 -1.7399532 0.21960784
74.062981 -22.093216 -2.284493e-07 0.13333334
42.299 -17.270517 -0.53190964 0.019607844
8.6014767 -2.5658464 -1.3964601 0.16078432
9.0717306 -3.1964405 -1.224297 0
58.675175 -20.674305 -0.3615745 0.050980393
34.037682 -13.897454 0.4280152 0.0078431377
25.814163 -7.7004433 -1.8837038 0.039215688
10.118566 -3.5652952 -0.8758077 0
58.504932 -14.381022 1.753348 0.078431375
34.484394 -12.150641 0.63819754 0.015686275
28.58083 -7.0254149 -1.886234 0.0078431377
26.366682 -10.765411 -1.6585933 0.0078431377
34.99815 -10.440061 2.1269581 0.011764706
34.004951 -11.981709 1.4688797 0.023529412
33.587452 -10.01924 -1.6326841 0.035294119
32.950455 -11.610151 -1.8309233 0.015686275
34.56406 -10.310571 4.4287319 0.011764706
31.536383 -11.111906 2.7296135 0.011764706
35.989918 -8.8466339 -1.5099125 0.039215688
31.26174 -11.01514 6.0432944 0.011764706
39.952995 -11.9181 -0.97016603 0.039215688
4.6583009 -1.6587453 -2.3058054 0.0039215689
38.122116 -13.574677 -1.1777036 0.043137256
7.8580961 -2.372498 -2.2978601 0
8.1919327 -2.9170156 -1.7391685 0.21960784
42.200817 -17.393925 -0.53139764 0.019607844
8.5588665 -2.5840743 -1.3909259 0.17254902
9.0311766 -3.2158575 -1.2202566 0
58.606293 -20.868767 -0.36157474 0.050980393
19.983168 -8.2364683 -2.0176322 0.035294119
59.199932 -17.87352 1.4389645 0.043137256
39.190701 -16.153244 0.49348381 0.011764706
25.608948 -7.7317977 -1.8705896 0.039215688
22.774784 -8.1097364 -1.9735782 0.0078431377
31.689756 -11.28422 0.58716679 0.011764706
28.464417 -7.0969768 -1.8800944 0.019607844
26.131472 -10.770617 -1.6460354 0.0078431377
59.203716 -17.874664 3.6015959 0.043137256
32.097538 -11.429424 1.3881164 0.019607844
33.630547 -10.153662 -1.6364068 0.062745102
32.193027 -11.463423 -1.7909386 0.015686275
34.537285 -10.427429 4.4297075 0.011764706
31.326595 -11.154905 2.7146425 0.011764706
35.781994 -8.9214544 -1.5024226 0.05882353
35.440289 -14.607433 -1.3386097 0.019607844
34.268581 -12.202505 6.6323409 0.011764706
39.790745 -12.013536 -0.96718842 0.039215688
4.6422491 -1.6713114 -2.300734 0.0039215689
37.999264 -13.680578 -1.1753767 0.043137256
7.8387165 -2.3965352 -2.2946255 0
8.1927719 -2.9495788 -1.741522 0.24313726
59.202923 -18.100153 -6.209217e-07 0.10588235
42.202621 -17.567259 -0.53218943 0.019607844
8.519556 -2.6046898 -1.3860066 0.22352941
8.8332262 -3.1801574 -1.195003 0
55.121735 -13.947948 0.33046818 0.039215688
58.548145 -21.078634 -0.36166799 0.050980393
19.965328 -8.3107643 -2.018748 0.043137256
82.701813 -25.284487 2.0123539 0.074509807
39.259624 -16.342207 0.49506682 0.011764706
25.4368 -7.7768102 -1.8599868 0.039215688
22.716328 -8.1783819 -1.9709747 0.0078431377
34.664299 -12.479919 0.64308393 0.015686275
25.876207 -10.771226 -1.6323147 0.0078431377
32.316914 -11.634809 1.3993515 0.019607844
33.602543 -10.27333 -1.6367791 0.035294119
31.577787 -11.368704 -1.7589091 0.015686275
35.905457 -10.977407 4.610074 0.011764706
30.856096 -11.108885 2.6772149 0.011764706
35.777752 -9.0531645 -1.5035625 0.039215688
34.366787 -14.305513 -1.2999409 0.019607844
31.363758 -11.291658 6.077733 0.011764706
38.781052 -11.856559 -0.94364637 0.035294119
4.6394992 -1.6895554 -2.3024247 0.0039215689
38.039032 -13.852596 -1.1781696 0.043137256
7.8482766 -2.4309478 -2.3000171 0
8.1892776 -2.9822714 -1.7430911 0.24313726
73.896339 -22.888878 -1.1810649e-06 0.13333334
42.115826 -17.712515 -0.53191018 0.019607844
8.4872999 -2.6288819 -1.3823172 0.23529412
9.1645279 -3.3374271 -1.2414697 0
55.070244 -14.149884 0.33046791 0.039215688
58.526875 -21.313612 -0.36201698 0.050980393
7.4421067 -2.3051412 -0.83921236 0
19.953091 -8.3916054 -2.020607 0.035294119
82.490158 -25.550756 2.0094688 0.074509807
25.392876 -7.8652663 -1.8588707 0.039215688
22.607534 -8.2329388 -1.9641401 0.0078431377
133.76456 -34.369797 4.0193863 0.24705882
31.499214 -11.471006 0.58514202 0.011764706
28.269854 -7.2637243 -1.870629 0.019607844
25.634102 -10.780849 -1.6195241 0.0078431377
32.708858 -10.131346 1.9941683 0.0078431377
31.519211 -11.47829 1.3666227 0.019607844
33.434891 -10.356225 -1.6304511 0.035294119
31.010433 -11.293005 -1.729601 0.015686275
31.545404 -9.770977 4.0548372 0.011764706
35.18684 -12.813924 3.0570235 0.015686275
35.724976 -9.1792622 -1.5027484 0.039215688
36.488235 -15.345737 -1.3823043 0.019607844
37.304836 -13.585237 7.2386074 0.027450981
39.66938 -12.287315 -0.96635133 0.05882353
4.6474795 -1.7099384 -2.3091865 0.0039215689
49.860394 -12.987664 -0.89935529 0.086274512
38.067932 -14.006273 -1.1804968 0.019607844
7.8364978 -2.4558086 -2.298939 0
8.1867056 -3.0121205 -1.7446601 0.26666668
73.900185 -23.15892 -1.4844705e-06 0.13333334
8.4559059 -2.6499205 -1.3786278 0.26666668
8.9113541 -3.2787402 -1.20864 0
101.76257 -26.507174 0.61118484 0.10980392
58.02417 -21.348742 -0.35934371 0.047058824
19.870161 -8.4343834 -2.0150301 0.043137256
33.367882 -14.163829 0.42200792 0.039215688
25.343809 -7.9422693 -1.8571967 0.047058824
10.330353 -3.8008304 -0.89858991 0
15.979791 -4.1624265 0.48057649 0.0039215689
33.394005 -12.286605 0.62109369 0.015686275
28.141312 -7.3302636 -1.8637217 0.027450981
25.414421 -10.787782 -1.6078964 0.0078431377
33.570549 -10.520378 2.0488188 0.0078431377
33.761497 -12.421817 1.4656224 0.023529412
33.491875 -10.49572 -1.6349182 0.043137256
30.440481 -11.199917 -1.6998745 0.015686275
34.138268 -10.698294 4.3926587 0.011764706
31.866575 -11.724623 2.7719226 0.011764706
35.70208 -9.2996969 -1.5030743 0.05882353
36.617458 -15.543189 -1.3891448 0.019607844
31.568529 -11.614967 6.1329775 0.011764706
39.651318 -12.425972 -0.96690989 0.05882353
4.6343865 -1.7244325 -2.3058057 0.0039215689
49.746723 -13.152946 -0.8981688 0.086274512
33.223549 -12.36233 -1.0316694 0.011764706
7.8201003 -2.4821835 -2.2967823 0
8.179286 -3.0434737 -1.7454445 0.24313726
33.521603 -14.374306 -0.42462504 0.050980393
8.4348345 -2.6773076 -1.376783 0.41176471
8.966217 -3.3362882 -1.2177314 0
55.062923 -14.55854 0.33102539 0.039215688
35.730015 -13.294976 -0.22157635 0.011764706
9.180891 -2.9141147 -1.0375563 0
19.784208 -8.4836111 -2.0094538 0.043137256
33.587769 -14.402681 0.42545342 0.019607844
25.2803 -8.0242414 -1.8546857 0.047058824
10.25657 -3.8164227 -0.89338261 0
133.16574 -35.208786 4.0086803 0.24705882
31.766962 -11.820343 0.59163404 0.015686275
28.156708 -7.4445829 -1.8665359 0.019607844
25.172859 -10.794304 -1.595106 0.0078431377
44.18885 -14.026025 2.6999755 0.019607844
33.667049 -12.527358 1.4635056 0.023529412
33.52935 -10.64258 -1.6386409 0.043137256
31.241806 -9.9164953 4.0246129 0.011764706
31.005104 -11.536861 2.7006471 0.011764706
35.667755 -9.4304905 -1.5030745 0.05882353
33.448341 -14.342891 -1.2709049 0.054901961
31.463049 -11.707265 6.1207805 0.011764706
39.575012 -12.561539 -0.9661656 0.05882353
4.6252489 -1.7385155 -2.3041151 0.0039215689
6.9304276 -1.857004 -0.12523799 0
33.384472 -12.5484 -1.0379531 0.011764706
7.8081594 -2.5069246 -2.2957039 0
8.1801634 -3.0747206 -1.747798 0.23529412
45.070004 -14.470398 -1.1836452e-06 0.043137256
33.459068 -14.479033 -0.42443892 0.050980393
8.4221478 -2.7040555 -1.3761681 0.39607844
8.9513903 -3.3646066 -1.2172263 0
100.93755 -27.046141 0.60734808 0.10980392
35.678246 -13.410573 -0.22153001 0.011764706
9.1901112 -2.9506223 -1.0396984 0
19.70845 -8.5286083 -2.0046206 0.05882353
41.252113 -17.851385 0.52328378 0.011764706
25.226961 -8.0994911 -1.8527325 0.039215688
133.11005 -35.666737 4.0105419 0.24705882
32.689713 -12.287259 0.60957485 0.015686275
28.066319 -7.5203471 -1.8621869 0.019607844
24.961016 -10.801596 -1.5839432 0.0078431377
44.10408 -14.160275 2.6976495 0.019607844
33.595394 -12.627682 1.4622027 0.023529412
33.474857 -10.747602 -1.6377103 0.035294119
29.344513 -11.029878 -1.642933 0.015686275
31.686918 -11.910336 2.7634602 0.011764706
35.616982 -9.5435419 -1.5022604 0.039215688
33.297871 -14.409277 -1.2669963 0.074509807
5.1208138 -1.6441169 1.4411047 0
31.552977 -11.859994 6.1458921 0.011764706
39.43034 -12.659698 -0.96365339 0.05882353
4.6222343 -1.7567441 -2.3058057 0.0039215689
49.65369 -13.499917 -0.89816922 0.086274512
33.547554 -12.750223 -1.0444697 0.023529412
7.8062444 -2.5379076 -2.2978604 0
8.1761703 -3.1074684 -1.7493669 0.24313726
73.828239 -24.002497 -2.4599365e-06 0.13333334
33.460743 -14.625597 -0.42513755 0.023529412
8.4009037 -2.73124 -1.3743235 0.21568628
5.8084941 -2.2076006 -0.79094452 0
101.04231 -27.471529 0.60857975 0.10980392
52.308498 -19.880585 -0.3252396 0.039215688
19.66246 -8.5944052 -2.0031335 0.043137256
141.43668 -45.982861 3.4607129 0.074509807
39.529858 -17.278391 0.50223678 0.011764706
25.090851 -8.1573534 -1.84492 0.039215688
22.281687 -8.4684696 -1.9459149 0.023529412
132.56558 -36.042126 3.99809 0.24705882
32.737915 -12.442511 0.61131996 0.015686275
27.907598 -7.5875573 -1.8534888 0.027450981
24.745625 -10.816242 -1.5727807 0.0078431377
35.363026 -11.496972 2.1655612 0.011764706
35.588715 -13.525997 1.5511069 0.023529412
33.488434 -10.887515 -1.6403162 0.035294119
28.725126 -10.917391 -1.6104848 0.011764706
28.72135 -10.91596 2.5083015 0.011764706
35.628044 -9.6866035 -1.5042145 0.039215688
33.233841 -14.526419 -1.2665777 0.074509807
41.954205 -13.639859 11.820782 0.019607844
31.443083 -11.950397 6.132977 0.011764706
39.387474 -12.805367 -0.96374655 0.05882353
4.6262269 -1.7767673 -2.3108771 0.0039215689
49.67181 -13.691227 -0.89935625 0.086274512
33.711864 -12.947524 -1.0509862 0.035294119
7.7900195 -2.5627337 -2.2957039 0
8.1652737 -3.1359897 -1.7493669 0.22745098
41.834366 -13.762534 -1.5049309e-06 0.043137256
39.337574 -17.358141 -0.50057298 0.019607844
8.395072 -2.7617831 -1.3749384 0.23137255
8.9233809 -3.4271522 -1.2167214 0
101.0422 -27.850639 0.60916036 0.10980392
52.037148 -19.985613 -0.3239845 0.039215688
19.595905 -8.6469097 -1.999416 0.043137256
39.396122 -17.383976 0.50130528 0.011764706
24.990204 -8.2211943 -1.8396186 0.047058824
134.04247 -36.946629 4.0464964 0.24705882
27.688524 -7.6318908 -1.8406974 0.039215688
24.514091 -10.817114 -1.5604554 0.0078431377
34.089874 -11.214779 2.0899806 0.0078431377
31.448402 -12.078214 1.3724837 0.019607844
33.564091 -11.041804 -1.6459001 0.035294119
41.745049 -13.733156 5.3958859 0.019607844
35.501541 -9.7854223 -1.5003068 0.05882353
33.256081 -14.674614 -1.2693698 0.054901961
33.102013 -12.713312 6.4651685 0.011764706
39.323544 -12.93653 -0.96328145 0.05882353
4.6307626 -1.7952234 -2.3159485 0.0039215689
49.551514 -13.825709 -0.89796031 0.086274512
33.801502 -13.103953 -1.055059 0.082352944
7.7819309 -2.5871942 -2.2957041 0.0039215689
8.1626968 -3.1644619 -1.7509359 0.24313726
39.410744 -17.538555 -0.50220293 0.019607844
8.3788548 -2.78565 -1.3737087 0.40000001
2.5897875 -1.0039936 -0.35355103 0
84.687813 -23.62933 0.51100814 0.10980392
39.185699 -15.191266 -0.24426714 0.019607844
19.612307 -8.7278605 -2.0038774 0.023529412
41.627831 -13.83967 1.020785 0.070588239
38.968582 -17.341784 0.4965556 0.011764706
24.896099 -8.2770033 -1.8345962 0.054901961
21.998285 -8.5281563 -1.9260621 0.047058824
76.404106 -21.318039 2.3085096 0.12156863
27.506771 -7.6748528 -1.8302085 0.027450981
24.315815 -10.821013 -1.5499904 0.0078431377
41.667191 -13.852757 2.5571852 0.019607844
33.668537 -13.052409 1.4711579 0.023529412
33.567154 -11.1598 -1.6477616 0.043137256
27.810369 -10.781348 -1.5631733 0.0078431377
41.716774 -13.869246 5.3978362 0.019607844
36.331738 -14.084864 3.1810217 0.015686275
35.547615 -9.9183846 -1.5035635 0.05882353
33.293816 -14.8164 -1.2725809 0.054901961
32.841766 -12.731899 6.4221191 0.011764706
39.271328 -13.05622 -0.96300256 0.05882353
4.6103344 -1.8076977 -2.3091865 0
49.363377 -13.977737 -0.89551723 0.086274512
7.7792397 -2.6195145 -2.2978606 0.0039215689
8.1687431 -3.20294 -1.7548583 0.22352941
41.612171 -14.012134 -1.8592455e-06 0.043137256
33.411545 -15.022758 -0.42648843 0.011764706
8.3680964 -2.8178024 -1.3737088 0.25882354
8.9620371 -3.5139892 -1.2253077 0
76.229561 -21.585167 0.46046731 0.06666667
51.959656 -20.373234 -0.32438019 0.039215688
19.535061 -8.7835035 -1.9994161 0.050980393
24.81497 -8.3559837 -1.830969 0.054901961
21.928259 -8.5980082 -1.9228077 0.039215688
76.325531 -21.612345 2.3086257 0.12156863
33.748909 -13.232855 0.63275087 0.015686275
27.29274 -7.7282133 -1.8179288 0.027450981
24.088343 -10.830786 -1.5381302 0.0078431377
31.891464 -10.738867 1.9597487 0.0078431377
33.614937 -11.319211 -1.6522288 0.043137256
27.523319 -10.791815 -1.5493567 0.0078431377
29.826086 -10.043393 3.8642323 0.0078431377
36.240273 -14.209713 3.1777675 0.015686275
35.532345 -10.061341 -1.5045407 0.039215688
33.276787 -14.962165 -1.2741166 0.054901961
40.798443 -13.73814 11.535046 0.019607844
31.246607 -12.251716 6.1193452 0.011764706
39.255013 -13.218403 -0.96384019 0.05882353
4.6039968 -1.8237797 -2.3091865 0
46.976967 -13.479305 -0.85307306 0.054901961
34.414536 -13.632629 -1.0772845 0.011764706
7.7627559 -2.6441686 -2.2957041 0
8.1611614 -3.2328796 -1.7556429 0.21960784
73.860764 -25.158646 -3.846204e-06 0.13333334
8.3656912 -2.8495429 -1.3749385 0.39607844
8.8759365 -3.5160241 -1.2152063 0
96.904076 -27.805107 0.58593464 0.10980392
51.966324 -20.585419 -0.32486862 0.039215688
19.536921 -8.8664522 -2.0027623 0.035294119
34.980396 -11.915115 0.85989702 0.0078431377
33.20229 -15.068217 0.42447466 0.027450981
24.789427 -8.4438381 -1.8312482 0.054901961
21.879581 -8.6671581 -1.9211805 0.039215688
133.52141 -38.311878 4.042654 0.24705882
30.449015 -12.06177 0.57166767 0.011764706
27.150488 -7.7904067 -1.810254 0.027450981
23.875847 -10.83559 -1.5269675 0.0078431377
33.022018 -13.081015 1.4470588 0.023529412
33.597912 -11.444207 -1.6533456 0.043137256
27.251516 -10.795141 -1.5361681 0.0078431377
31.921715 -10.873263 4.1406317 0.011764706
35.539268 -10.197436 -1.506332 0.039215688
33.060547 -15.003889 -1.2678348 0.015686275
41.712124 -14.208107 11.807323 0.019607844
34.719509 -13.753448 6.8088384 0.015686275
39.140491 -13.332135 -0.96216536 0.05882353
46.119305 -13.40763 -0.8383435 0.054901961
36.289608 -14.522159 -1.1375604 0.011764706
7.7498369 -2.6699953 -2.2946258 0.0039215689
8.1607504 -3.2657192 -1.7579963 0.21176471
73.954018 -25.478855 -4.1766343e-06 0.13333334
33.309494 -15.257313 -0.42653531 0.050980393
8.3519564 -2.8774407 -1.3743236 0.26666668
8.9004478 -3.5617278 -1.220257 0
96.806427 -28.143198 0.58593428 0.10980392
35.884724 -14.360134 -0.22464623 0.011764706
19.69776 -9.0224981 -2.0224667 0.043137256
33.925331 -11.688057 0.83495891 0.0078431377
33.178581 -15.197351 0.42484704 0.027450981
24.752256 -8.5277195 -1.8306903 0.054901961
22.012054 -8.8086519 -1.9355009 0.047058824
133.19489 -38.721912 4.0368357 0.24705882
34.019592 -13.613759 0.63959193 0.015686275
27.092464 -7.8762178 -1.8082075 0.015686275
29.671259 -10.222433 1.8276569 0.0078431377
33.633316 -11.587448 -1.6570683 0.035294119
26.998566 -10.804124 -1.5240263 0.0078431377
31.921103 -10.99756 4.1455069 0.011764706
29.914482 -11.971004 2.6303477 0.011764706
35.503456 -10.321429 -1.5063322 0.039215688
37.598267 -17.221771 -1.4441479 0.031372551
41.673233 -14.357401 11.810429 0.019607844
36.717216 -14.693288 7.2106242 0.027450981
39.082375 -13.464775 -0.96188647 0.05882353
4.6012359 -1.8599528 -2.3142581 0
36.131203 -14.605291 -1.1341861 0.011764706
7.7404704 -2.6970305 -2.2946258 0.0039215689
8.1638479 -3.3000653 -1.7611343 0.20392157
71.258316 -24.82872 -4.3280543e-06 0.12941177
33.339535 -15.412091 -0.42760643 0.035294119
8.3530598 -2.9104776 -1.3761685 0.26666668
8.8474951 -3.5764165 -1.2147013 0
96.707596 -28.48094 0.58593386 0.10980392
38.697273 -15.642573 -0.24259396 0.019607844
19.626383 -9.0728188 -2.0183771 0.043137256
33.139854 -15.319785 0.42503312 0.0078431377
24.635675 -8.5838709 -1.8242725 0.054901961
21.907249 -8.8555517 -1.9289914 0.047058824
133.00905 -39.171928 4.0353227 0.24705882
30.464186 -12.314519 0.57355231 0.011764706
27.072466 -7.9729943 -1.8087192 0.027450981
23.480648 -10.854557 -1.5065026 0.015686275
32.929893 -13.311231 1.4470586 0.047058824
33.592667 -11.704779 -1.6570684 0.043137256
26.716269 -10.799498 -1.5102097 0.0078431377
33.404671 -11.639281 4.3434219 0.011764706
29.695101 -12.003633 2.6147254 0.011764706
35.421204 -10.431746 -1.5043783 0.039215688
37.479866 -17.326069 -1.4419147 0.031372551
41.666649 -14.518034 11.822851 0.019607844
33.469776 -13.529475 6.5821161 0.011764706
39.05402 -13.607693 -0.96235186 0.078431375
4.5886559 -1.8716605 -2.3108773 0
45.80323 -13.645834 -0.83422512 0.054901961
7.7283254 -2.7200561 -2.2935474 0.0039215689
8.1643353 -3.3301408 -1.7634877 0.21176471
4.2749476 -1.5046098 -7.3059141e-09 0
41.93362 -19.545059 -0.53861767 0.019607844
8.3401451 -2.9353931 -1.3755535 0.40392157
8.9905262 -3.667136 -1.2359143 0
41.565826 -12.383416 0.2520743 0.019607844
38.581276 -15.736876 -0.24217564 0.019607844
19.63027 -9.1495743 -2.021723 0.043137256
33.733906 -11.872971 0.83216709 0.031372551
32.982803 -15.373128 0.42363614 0.0078431377
24.683863 -8.6877184 -1.8298532 0.047058824
21.812874 -8.8972292 -1.9231335 0.039215688
84.289589 -25.111809 2.5596175 0.24705882
29.725443 -12.124681 0.56035823 0.011764706
27.043457 -8.0568666 -1.8084636 0.027450981
23.28718 -10.854042 -1.4962704 0.015686275
30.695166 -10.803458 1.8950977 0.0078431377
34.601326 -14.1135 1.5224482 0.023529412
33.63488 -11.838115 -1.6609771 0.043137256
26.467684 -10.795874 -1.4980677 0.0078431377
2.3331335 -0.82117045 0.30369857 0
29.893494 -12.193229 2.6355546 0.011764706
35.392086 -10.544115 -1.5045413 0.05882353
37.918018 -17.673405 -1.4609002 0.031372551
41.620834 -14.648863 11.822851 0.019607844
33.39431 -13.621179 6.5756583 0.011764706
39.116699 -13.767493 -0.96495748 0.078431375
4.5951719 -1.8939921 -2.3176391 0
45.718449 -13.803216 -0.833597 0.054901961
35.520813 -14.640627 -1.1181284 0.011764706
7.7219324 -2.7496557 -2.2946258 0.0039215689
8.1629543 -3.3645267 -1.7658411 0.21176471
74.113548 -26.390654 -5.1523148e-06 0.13333334
39.863976 -18.758568 -0.51291388 0.019607844
8.3293304 -2.9659414 -1.3755535 0.39607844
8.833952 -3.641093 -1.2162166 0
41.458893 -12.517182 0.25170216 0.019607844
38.456768 -15.850741 -0.24175735 0.019607844
10.186889 -3.6273887 -1.164788 0
19.592999 -9.2197666 -2.0213516 0.043137256
33.727833 -12.009946 0.83309734 0.031372551
33.43652 -15.734037 0.43020141 0.027450981
24.708242 -8.7982101 -1.8340389 0.054901961
21.787489 -8.9801559 -1.9237845 0.047058824
59.202385 -17.874262 1.7997727 0.090196081
33.737095 -13.905433 0.63693875 0.015686275
26.96789 -8.142087 -1.8053937 0.027450981
23.091873 -10.866212 -1.4862704 0.023529412
30.46727 -10.848913 1.8834697 0.0078431377
32.11195 -11.434553 -1.5878302 0.0078431377
26.23959 -10.81518 -1.4873914 0.0078431377
27.622305 -11.385099 2.438978 0.0039215689
35.28051 -10.651815 -1.5014478 0.039215688
36.384441 -17.121222 -1.4042232 0.031372551
38.994392 -13.885283 -0.96318966 0.05882353
4.5721307 -1.902257 -2.3091867 0.0039215689
45.439106 -13.88346 -0.82933879 0.050980393
37.701763 -15.686013 -1.1884116 0.043137256
7.7163973 -2.7765517 -2.2957044 0.0039215689
8.1626158 -3.3960974 -1.7681947 0.21960784
40.94339 -19.432596 -0.52762866 0.019607844
8.3231697 -2.9948847 -1.3761685 0.23921569
8.9903526 -3.7404821 -1.2394501 0
59.205078 -18.089516 0.35980332 0.054901961
35.493874 -14.76741 -0.22343794 0.011764706
9.0783663 -3.266624 -1.0392703 0
19.457977 -9.2351656 -2.01057 0.05882353
31.836555 -11.455593 0.78731561 0.019607844
33.46727 -15.884275 0.43127224 0.0078431377
24.671421 -8.8773956 -1.8334807 0.05882353
21.912186 -9.1166773 -1.9374537 0.047058824
5.1277208 -1.566725 0.15604182 0
26.860571 -8.2069759 -1.8000214 0.035294119
22.907804 -10.872526 -1.4767358 0.015686275
33.245419 -11.962538 2.0576539 0.0078431377
48.332253 -20.108885 2.1327293 0.050980393
31.513664 -11.339406 -1.5600977 0.0078431377
25.9823 -10.810068 -1.4748309 0.0078431377
33.946358 -12.214757 4.4297051 0.011764706
40.500553 -16.850468 3.581008 0.031372551
35.271748 -10.776926 -1.5025877 0.039215688
36.049389 -17.1098 -1.3934743 0.019607844
33.109478 -13.775379 6.5383496 0.011764706
38.978241 -14.025348 -0.96393424 0.05882353
4.575489 -1.9224176 -2.3142583 0
45.31395 -14.018347 -0.82794285 0.050980393
37.665211 -15.825264 -1.1889936 0.062745102
7.6921778 -2.7982023 -2.2913909 0.0039215689
8.1687918 -3.4321659 -1.7721169 0.20392157
74.112633 -26.96015 -5.7947018e-06 0.13333334
40.435204 -19.36463 -0.52194792 0.019607844
8.3238077 -3.0279732 -1.3780134 0.2
8.9845562 -3.774915 -1.2404602 0
82.447403 -25.50597 0.50159001 0.10980392
35.416294 -14.88037 -0.22327536 0.011764706
19.47591 -9.3271141 -2.015775 0.050980393
34.941814 -12.710878 0.86520016 0.0078431377
30.428314 -14.57228 0.39276403 0.0078431377
24.644033 -8.9648247 -1.83376 0.047058824
21.847151 -9.1792107 -1.9345248 0.047058824
82.620171 -25.55942 2.5169115 0.24705882
33.26926 -13.978281 0.62988776 0.031372551
26.744049 -8.2735519 -1.7941375 0.035294119
22.696838 -10.869634 -1.4655731 0.015686275
30.542826 -11.110648 1.8927717 0.0078431377
30.9482 -11.258108 -1.5340405 0.023529412
25.752907 -10.820237 -1.463945 0.0078431377
35.275909 -10.912973 -1.5043789 0.05882353
37.298214 -17.862309 -1.4441488 0.031372551
31.450399 -13.214083 6.2197905 0.011764706
38.959106 -14.172256 -0.96467882 0.078431375
4.5784235 -1.9434243 -2.3193297 0
44.964592 -14.091052 -0.82249784 0.050980393
37.783615 -16.038195 -1.1945792 0.019607844
7.678256 -2.825047 -2.2903128 0.0039215689
8.1669893 -3.4666808 -1.7744703 0.21176471
11.911354 -4.3825269 -7.4665155e-07 0
37.256268 -18.010387 -0.48176241 0.019607844
8.3126545 -3.0584612 -1.3780134 0.18039216
8.9706602 -3.8078198 -1.2404602 0
19.427248 -9.3915005 -2.0142879 0.050980393
30.263842 -11.13493 0.75037354 0.0078431377
34.216999 -16.541147 0.44244722 0.0078431377
24.603519 -9.0523329 -1.833202 0.047058824
21.80969 -9.2576656 -1.9341995 0.047058824
33.258297 -14.117314 0.63065547 0.047058824
26.591654 -8.3333206 -1.785951 0.027450981
22.523825 -10.888444 -1.4569687 0.023529412
34.058395 -12.531054 2.1134672 0.011764706
30.377993 -11.176927 -1.507797 0.015686275
25.525551 -10.834954 -1.4532685 0.023529412
29.78557 -10.958964 3.8968921 0.0078431377
35.630199 -15.12413 3.1598659 0.015686275
35.151772 -11.0159 -1.5007967 0.05882353
36.868992 -17.823168 -1.4300495 0.031372551
9.9208965 -3.6501842 2.832515 0
36.444 -15.469573 7.2185154 0.027450981
38.98571 -14.343951 -0.96663314 0.05882353
4.5652895 -1.9557412 -2.3159487 0
44.921429 -14.24129 -0.82256788 0.050980393
7.6760669 -2.8531778 -2.2924695 0.0078431377
8.1698704 -3.4999225 -1.7776083 0.21176471
35.922729 -13.35241 -2.9820612e-06 0.023529412
41.366814 -20.167011 -0.53577811 0.019607844
8.3061705 -3.0873871 -1.3786283 0.17254902
8.9288054 -3.8250468 -1.2364197 0
33.487881 -14.34601 -0.21174456 0.086274512
6.6317692 -2.4650159 -0.76210296 0
19.449697 -9.4820509 -2.0198646 0.050980393
42.477741 -20.708607 0.55014849 0.015686275
24.61825 -9.1505547 -1.8365505 0.047058824
21.797195 -9.3377876 -1.9358268 0.047058824
37.497818 -16.063843 0.7120527 0.027450981
26.544847 -8.4154234 -1.7846719 0.035294119
22.326071 -10.88433 -1.4465036 0.023529412
36.700405 -13.641473 2.2802095 0.011764706
32.560616 -13.948777 1.4431499 0.023529412
29.823908 -11.085488 -1.4821118 0.023529412
25.28019 -10.829881 -1.441336 0.015686275
30.444973 -11.316344 3.9880502 0.011764706
30.999071 -13.279821 2.7530441 0.011764706
35.187435 -11.155354 -1.5038908 0.039215688
37.13308 -18.102993 -1.4426136 0.031372551
36.056103 -15.446229 7.1517901 0.015686275
38.997906 -14.495446 -0.96812212 0.039215688
4.5614171 -1.9739003 -2.3176391 0
44.929859 -14.425401 -0.82368505 0.050980393
33.355438 -14.434189 -1.0577369 0.05882353
7.6547408 -2.8772268 -2.2892346 0.0078431377
8.1785851 -3.5391896 -1.7823151 0.20784314
35.746246 -13.436133 -3.1789602e-06 0.023529412
36.103233 -17.764994 -0.46844515 0.019607844
8.2984982 -3.1192002 -1.3792433 0.16078432
8.9110832 -3.8561707 -1.2359146 0
82.433975 -26.466658 0.5031929 0.10980392
33.464443 -14.481361 -0.21193072 0.074509807
19.40052 -9.5462399 -2.0183778 0.050980393
30.54846 -11.482415 0.75939929 0.0078431377
36.917889 -18.165855 0.47899923 0.011764706
24.543459 -9.2252798 -1.8334812 0.031372551
21.821365 -9.4429483 -1.9410342 0.047058824
34.406815 -11.046823 1.05168 0.019607844
33.85265 -14.649354 0.64384907 0.015686275
26.399801 -8.4760485 -1.7769971 0.027450981
22.146294 -10.897327 -1.437434 0.015686275
41.576508 -17.991768 1.8456619 0.043137256
29.289373 -11.009152 -1.4575436 0.023529412
25.049694 -10.839971 -1.4304503 0.015686275
29.359001 -11.035332 3.851069 0.0078431377
35.096844 -11.268365 -1.5017741 0.039215688
38.049278 -18.722567 -1.4808639 0.031372551
38.809757 -14.58763 -0.9647724 0.019607844
4.5445333 -1.9854565 -2.3125677 0
44.94389 -14.603156 -0.82487208 0.050980393
33.312176 -14.553734 -1.0579698 0.070588239
7.6446505 -2.9039292 -2.2892346 0.0039215689
8.1805582 -3.5739975 -1.785453 0.20784314
39.214069 -14.89603 -3.691245e-06 0.043137256
40.698387 -20.202858 -0.52898002 0.019607844
8.2949486 -3.1509557 -1.3804731 0.11764706
8.8866606 -3.8824868 -1.2343993 0
82.363914 -26.76166 0.50333202 0.10980392
33.450344 -14.6141 -0.21216337 0.035294119
19.388485 -9.6245279 -2.0206087 0.043137256
30.530624 -11.597501 0.75995749 0.027450981
37.148026 -18.440443 0.48281723 0.011764706
24.645393 -9.361907 -1.8435264 0.031372551
21.890562 -9.5637512 -1.9501472 0.047058824
34.303402 -11.145854 1.0497018 0.019607844
34.614918 -15.122889 0.65934652 0.015686275
26.445986 -8.5928211 -1.7821139 0.027450981
21.954317 -10.898218 -1.4274343 0.015686275
32.461971 -12.331152 2.0223048 0.078431375
28.852489 -12.605348 1.2827634 0.019607844
28.761444 -10.925449 -1.4331613 0.023529412
24.825022 -10.845786 -1.4197738 0.0078431377
33.521641 -12.733685 4.4028931 0.011764706
35.091503 -11.401921 -1.5032398 0.039215688
36.336586 -18.03764 -1.4166486 0.031372551
41.182758 -15.64388 11.804215 0.019607844
31.39748 -13.717232 6.2470541 0.011764706
35.420303 -13.454914 -0.88167632 0.011764706
4.544908 -2.0026474 -2.3159487 0
41.599613 -13.661171 -0.76427728 0.050980393
33.33215 -14.687336 -1.0600644 0.070588239
7.6390862 -2.9293103 -2.2903128 0.0078431377
8.1908264 -3.6091695 -1.7901599 0.21176471
39.107323 -14.996237 -3.8390099e-06 0.043137256
39.05368 -19.539581 -0.50839835 0.019607844
8.3034611 -3.1840751 -1.3835475 0.078431375
8.8853121 -3.9151857 -1.2359147 0
39.454807 -17.385197 -0.25059289 0.023529412
10.233969 -3.9243546 -1.1806388 0
19.315411 -9.6640062 -2.0161471 0.050980393
29.892893 -11.46284 0.74497598 0.0078431377
42.122749 -21.075117 0.54833192 0.015686275
24.57115 -9.422142 -1.8401781 0.031372551
21.747313 -9.5826416 -1.9400581 0.054901961
39.024921 -17.195774 0.74437368 0.027450981
26.47954 -8.6957893 -1.7862073 0.027450981
21.769979 -10.892091 -1.4176669 0.015686275
30.789989 -11.806846 1.9204453 0.019607844
39.375225 -17.350134 1.7530121 0.043137256
28.268095 -10.839786 -1.4102681 0.035294119
24.61902 -10.848019 -1.4099346 0.015686275
34.997814 -15.421291 3.122112 0.015686275
35.044121 -11.508368 -1.5027514 0.039215688
37.960018 -18.992392 -1.4822602 0.031372551
41.129799 -15.771798 11.80318 0.019607844
31.184982 -13.741226 6.2133331 0.011764706
4.5412021 -2.0199733 -2.3176391 0
33.503525 -14.902721 -1.0671628 0.05882353
7.6144481 -2.9503913 -2.2859998 0.0039215689
8.1889296 -3.6425211 -1.7925134 0.2
52.000874 -20.148932 -5.4335533e-06 0.05882353
39.14592 -19.756882 -0.51049399 0.019607844
8.3033524 -3.2173243 -1.3853924 0.06666667
41.610443 -13.825826 0.25483912 0.078431375
39.291553 -17.477299 -0.24994212 0.023529412
10.223917 -3.9614911 -1.1810672 0
19.206894 -9.6936865 -2.0083399 0.05882353
33.73064 -13.069714 0.84175009 0.0078431377
37.435543 -18.893656 0.48817173 0.011764706
24.571598 -9.5208292 -1.8426895 0.054901961
21.724659 -9.6633568 -1.9410346 0.047058824
41.680805 -13.849206 1.2782363 0.043137256
26.486904 -8.8007536 -1.7887657 0.027450981
21.61062 -10.906843 -1.4097601 0.015686275
32.457672 -12.576473 2.0271881 0.0078431377
27.771816 -10.760827 -1.3873749 0.011764706
24.391218 -10.84947 -1.3990489 0.0078431377
31.570694 -14.042982 2.8207386 0.011764706
35.075798 -11.654569 -1.5058453 0.039215688
37.972008 -19.164406 -1.4853315 0.031372551
41.178974 -15.955754 11.833202 0.019607844
36.954308 -16.437675 7.3742065 0.027450981
35.311649 -13.68231 -0.88121134 0.011764706
4.5341239 -2.0358126 -2.3176391 0
33.349174 -14.973725 -1.0639048 0.047058824
7.6112766 -2.9797611 -2.2881565 0.0078431377
8.1869001 -3.6759038 -1.7948668 0.19215687
37.224979 -14.573325 -3.9772813e-06 0.027450981
37.996696 -19.343584 -0.49638492 0.019607844
8.2957525 -3.2477298 -1.3860074 0.054901961
8.897583 -3.9950001 -1.2414706 0.0078431377
19.190683 -9.7697067 -2.0101988 0.050980393
30.415382 -11.907416 0.76005018 0.0078431377
36.834698 -18.752028 0.48118705 0.011764706
24.467621 -9.5789051 -1.8373882 0.054901961
21.661699 -9.7260675 -1.938431 0.054901961
33.608959 -11.297609 1.0318978 0.019607844
39.527821 -17.747929 0.7563107 0.05882353
26.569536 -8.9313135 -1.7964407 0.015686275
29.178539 -11.423202 1.8248646 0.0078431377
39.54847 -17.757202 1.7662008 0.043137256
27.514565 -10.771762 -1.3763936 0.019607844
24.178286 -10.856009 -1.3890004 0.011764706
29.949146 -11.724893 3.9490516 0.011764706
35.031116 -11.775662 -1.5056826 0.039215688
37.865688 -19.27689 -1.4837961 0.031372551
31.949862 -14.345446 6.3855262 0.011764706
34.574787 -13.535791 -0.86399674 0.011764706
4.5233302 -2.0509205 -2.3159487 0
41.376091 -14.077515 -0.76288164 0.050980393
33.232162 -15.067785 -1.0619267 0.05882353
7.5931406 -3.0048032 -2.2859998 0.0039215689
8.1983776 -3.7172232 -1.8003582 0.17254902
37.212227 -14.725854 -4.1532994e-06 0.043137256
7.072794 -3.6333637 -0.092571393 0
8.3095188 -3.2882938 -1.3903118 0.027450981
15.221601 -6.9016204 -2.1273699 0.0078431377
70.869179 -24.112038 0.43507615 0.062745102
33.384106 -15.136679 -0.2130474 0.062745102
19.161835 -9.8436184 -2.0109427 0.05882353
30.538864 -12.085032 0.76423734 0.027450981
33.873276 -17.40103 0.44333079 0.0078431377
24.443476 -9.6729231 -1.8382252 0.039215688
21.684002 -9.8317366 -1.9436384 0.047058824
26.782265 -9.1122112 -1.8130698 0.015686275
21.251415 -10.917056 -1.3913883 0.015686275
33.171356 -15.040219 1.4838562 0.023529412
27.248262 -10.78285 -1.3650399 0.011764706
23.981899 -10.873626 -1.3799988 0.019607844
31.941422 -14.482555 2.8630476 0.015686275
35.002857 -11.909129 -1.5063342 0.05882353
37.801891 -19.419195 -1.4840755 0.031372551
31.388147 -14.231701 6.2836447 0.011764706
36.29488 -14.362835 -0.90829015 0.011764706
4.5165038 -2.0659091 -2.315949 0
41.389687 -14.235458 -0.76399875 0.050980393
32.974758 -15.083106 -1.0552942 0.023529412
7.5795574 -3.0285373 -2.2849216 0.0039215689
8.1967058 -3.7492838 -1.8027116 0.17254902
40.03447 -15.996442 -4.663134e-06 0.043137256
38.922676 -20.158369 -0.51030827 0.019607844
8.3316021 -3.3290303 -1.3958461 0.011764706
15.184195 -6.9454565 -2.1253495 0.0078431377
70.039894 -24.089334 0.43047288 0.062745102
33.311893 -15.237317 -0.21290803 0.074509807
19.111403 -9.8979483 -2.009084 0.050980393
29.689085 -11.862772 0.74395186 0.019607844
24.537249 -9.8042669 -1.8477122 0.054901961
21.818047 -9.9798727 -1.9586096 0.054901961
33.759907 -11.611295 1.0389957 0.019607844
26.6915 -9.1802025 -1.8089765 0.027450981
21.083895 -10.919518 -1.3827837 0.023529412
29.350235 -11.72738 1.8406782 0.027450981
33.095856 -15.138499 1.4827162 0.047058824
26.986017 -10.782713 -1.3536866 0.019607844
23.774975 -10.874998 -1.3701597 0.019607844
35.802269 -14.305401 4.7338896 0.011764706
33.582684 -15.361183 3.0147104 0.015686275
34.970726 -12.027738 -1.5066599 0.05882353
37.723091 -19.537092 -1.4835173 0.031372551
37.477959 -17.142941 7.5141139 0.027450981
36.440151 -14.560271 -0.91312903 0.011764706
4.5352306 -2.094609 -2.3294725 0
41.137051 -14.317389 -0.76029903 0.050980393
38.661709 -17.856031 -1.2393805 0.019607844
7.5648341 -3.0548549 -2.2838433 0.0078431377
8.2042751 -3.7891691 -1.8074185 0.17254902
35.969856 -14.525467 -4.3332757e-06 0.027450981
38.143097 -19.932257 -0.50104195 0.019607844
8.3633223 -3.3773041 -1.4032249 0.015686275
15.155035 -6.9993997 -2.1248443 0.0078431377
33.259457 -15.360988 -0.21293145 0.086274512
18.997341 -9.92735 -2.0009048 0.070588239
30.090368 -12.151194 0.75511801 0.0078431377
32.662685 -17.068386 0.42903554 0.0078431377
24.515951 -9.9001112 -1.8488284 0.054901961
21.708937 -10.02634 -1.9521005 0.070588239
33.679359 -11.721809 1.0378319 0.019607844
32.648602 -15.078862 0.62772214 0.062745102
26.567196 -9.246479 -1.8028369 0.027450981
20.898628 -10.920897 -1.3732491 0.039215688
29.640299 -11.969447 1.8616079 0.0078431377
30.790543 -14.220713 1.3817623 0.019607844
26.7092 -10.785796 -1.3417747 0.011764706
23.575396 -10.888371 -1.3609487 0.019607844
35.977844 -14.528698 4.7641125 0.011764706
31.2351 -14.426034 2.808696 0.011764706
34.983028 -12.175536 -1.5091025 0.05882353
32.438374 -14.981776 6.5146718 0.011764706
36.249344 -14.63833 -0.90968615 0.011764706
4.5180345 -2.1058331 -2.3244014 0.0039215689
40.977417 -14.42239 -0.75827473 0.050980393
37.410473 -17.436844 -1.2012136 0.019607844
7.5576925 -3.0826974 -2.2849216 0.0078431377
8.2087736 -3.8260691 -1.8113408 0.16470589
35.767078 -14.588997 -4.4710814e-06 0.023529412
38.073284 -20.065279 -0.50104213 0.019607844
15.108932 -7.0422006 -2.1218143 0.0078431377
33.2854 -15.514169 -0.21344307 0.023529412
9.206111 -3.7550707 -1.0709715 0
19.036562 -10.032596 -2.0087121 0.043137256
29.725632 -12.124759 0.74702239 0.027450981
33.356586 -17.579498 0.43895337 0.0078431377
24.41474 -9.9585009 -1.8438061 0.039215688
21.652126 -10.091953 -1.9501479 0.047058824
33.845673 -11.912308 1.0442317 0.019607844
33.60714 -15.664132 0.64719868 0.031372551
26.53476 -9.339159 -1.802837 0.035294119
20.7544 -10.937926 -1.3662724 0.031372551
28.226574 -11.513309 1.7753298 0.0078431377
34.058945 -15.874717 1.530913 0.023529412
26.467903 -10.795963 -1.331538 0.019607844
23.374323 -10.89466 -1.3515283 0.019607844
29.651737 -12.094623 3.9319887 0.011764706
32.510715 -15.153094 2.9281387 0.015686275
35.019489 -12.32544 -1.5125221 0.019607844
37.59293 -19.81212 -1.4839363 0.031372551
31.90794 -14.872149 6.4185295 0.011764706
4.5044646 -2.1177187 -2.3210204 0
40.872841 -14.538093 -0.75722772 0.050980393
38.77808 -18.23105 -1.2470607 0.019607844
7.5438652 -3.1062753 -2.2838433 0.0078431377
8.2208881 -3.8649509 -1.8168322 0.16078432
35.844257 -14.759303 -4.6377581e-06 0.023529412
38.179623 -20.283375 -0.50332397 0.019607844
8.3620691 -3.4431818 -1.4069146 0.062745102
15.06395 -7.0821342 -2.1187837 0.0078431377
69.885559 -24.857649 0.43109965 0.062745102
40.810097 -19.186378 -0.26210207 0.070588239
9.3480616 -3.8491759 -1.0889639 0
19.045395 -10.118091 -2.0131738 0.043137256
33.797119 -13.916371 0.85049605 0.0078431377
24.436926 -10.062196 -1.8479916 0.039215688
21.672661 -10.189141 -1.95503 0.039215688
36.928913 -13.135276 1.1406956 0.023529412
32.733418 -15.389227 0.63135189 0.047058824
26.545015 -9.4418154 -1.8056513 0.027450981
20.576958 -10.93175 -1.3569703 0.039215688
30.230169 -12.447638 1.9039328 0.0078431377
34.147175 -16.053888 1.5372632 0.023529412
26.228748 -10.8 -1.3213012 0.019607844
23.179007 -10.897331 -1.3423171 0.027450981
31.898184 -11.345889 -1.3793278 0.015686275
37.459946 -19.901039 -1.4812841 0.031372551
6.534441 -2.6906381 1.8935195 0
31.822836 -14.961136 6.4113545 0.011764706
38.574566 -15.883539 -0.97072929 0.019607844
4.4937696 -2.1318755 -2.31933 0
40.769157 -14.661728 -0.75625056 0.050980393
38.663631 -18.342306 -1.2454317 0.019607844
7.5294204 -3.1311111 -2.2827649 0.0078431377
8.2534151 -3.9154787 -1.8270302 0.13333334
37.325275 -15.521731 -5.0130884e-06 0.043137256
36.098972 -19.339882 -0.47678193 0.019607844
8.3645973 -3.4784207 -1.4093741 0.078431375
15.021211 -7.1261702 -2.1162584 0.011764706
69.922577 -25.146114 0.43186656 0.062745102
43.717094 -20.739708 -0.28123569 0.023529412
9.3419113 -3.8848376 -1.0898207 0
19.048576 -10.205198 -2.0172632 0.043137256
33.257313 -17.817474 0.43923247 0.019607844
24.541658 -10.205658 -1.8585947 0.031372551
21.748621 -10.317703 -1.9651191 0.054901961
31.483467 -14.935987 0.60824502 0.015686275
26.478086 -9.5222588 -1.8033487 0.027450981
20.411955 -10.935623 -1.3485982 0.023529412
31.234673 -14.817959 1.4084659 0.019607844
25.980593 -10.804039 -1.3106922 0.019607844
23.007294 -10.914826 -1.3345716 0.027450981
31.339382 -11.270517 -1.3568574 0.015686275
37.39378 -20.033567 -1.481424 0.031372551
33.72229 -15.998111 6.8052483 0.015686275
38.644428 -16.070299 -0.97389334 0.039215688
4.4830303 -2.1459835 -2.3176394 0
40.691418 -14.794384 -0.7557621 0.050980393
7.5219955 -3.1588655 -2.2838435 0.0078431377
8.2750769 -3.9612007 -1.8348751 0.090196081
35.504318 -14.910062 -4.9186401e-06 0.023529412
37.118618 -20.053225 -0.49117076 0.019607844
8.3633366 -3.5121882 -1.4112189 0.11764706
5.5260005 -2.0091174 0.03417388 0
43.164585 -20.662485 -0.27814385 0.023529412
9.2219582 -3.872767 -1.0773975 0
18.942757 -10.233768 -2.0098276 0.05882353
33.179276 -13.933661 0.83737546 0.054901961
33.2477 -17.961973 0.43993077 0.0078431377
24.583145 -10.323707 -1.8644544 0.031372551
21.798775 -10.43487 -1.9729303 0.054901961
32.097908 -11.67 0.99396306 0.019607844
30.558147 -14.627903 0.59135115 0.015686275
26.515966 -9.640542 -1.8082097 0.035294119
20.250692 -10.940376 -1.3404589 0.031372551
34.707905 -14.575611 2.1923015 0.011764706
31.316137 -14.990746 1.4144902 0.019607844
25.725365 -10.803383 -1.299711 0.011764706
22.799711 -10.914009 -1.3247324 0.011764706
28.621477 -12.019615 3.8115819 0.019607844
31.75602 -15.201315 2.8741124 0.015686275
30.781506 -11.191386 -1.3343871 0.035294119
37.232174 -20.114571 -1.4777945 0.031372551
38.898083 -18.620163 7.8628058 0.027450981
37.762211 -15.858265 -0.9530496 0.015686275
4.4853058 -2.1663492 -2.3227108 0
40.703346 -14.959789 -0.75694913 0.15294118
38.840668 -18.75959 -1.2553229 0.019607844
7.5002851 -3.1805916 -2.2806084 0.011764706
8.310647 -4.0139451 -1.8458576 0.023529412
35.797997 -19.501497 -0.47459373 0.019607844
8.3801365 -3.5537055 -1.4161384 0.15294118
14.942513 -7.2170587 -2.1122179 0.019607844
35.805626 -13.15972 0.22171001 0.011764706
41.719902 -20.15023 -0.26928642 0.023529412
9.1534624 -3.8816445 -1.0709717 0
18.910418 -10.301732 -2.0101995 0.050980393
32.511932 -13.787108 0.82174253 0.019607844
32.914345 -17.930584 0.43634519 0.0078431377
24.767374 -10.502925 -1.8811961 0.039215688
21.758629 -10.509165 -1.972605 0.054901961
36.848854 -17.797569 0.71428436 0.027450981
26.538353 -9.7536974 -1.8120472 0.035294119
20.096663 -10.947957 -1.3327847 0.039215688
35.858982 -15.20647 2.268347 0.011764706
25.503572 -10.81512 -1.2904049 0.027450981
22.614002 -10.922299 -1.3161494 0.019607844
28.557417 -12.110148 3.8086569 0.0078431377
32.851543 -15.86692 2.9782584 0.015686275
30.220812 -11.107121 -1.311754 0.035294119
34.269115 -18.668613 -1.3627652 0.019607844
39.732891 -19.190536 8.045043 0.027450981
33.572224 -14.236737 -0.84855115 0.011764706
3.7737963 -1.8389723 -1.9575686 0
40.54966 -15.064175 -0.75506443 0.047058824
38.782139 -18.89856 -1.255556 0.019607844
7.4855967 -3.2052374 -2.2795303 0.0078431377
33.435795 -14.31679 -4.9663113e-06 0.10196079
39.610474 -21.758043 -0.52614176 0.019607844
8.385848 -3.5907147 -1.4192128 0.16470589
14.881558 -7.2517915 -2.1071675 0.023529412
36.198193 -17.639402 -0.23404196 0.019607844
18.923214 -10.394526 -2.0154047 0.043137256
32.474636 -13.905235 0.82202154 0.0078431377
32.876099 -18.058849 0.43667096 0.0078431377
24.81493 -10.625442 -1.8876139 0.06666667
21.761238 -10.604264 -1.9761852 0.047058824
33.672279 -12.509235 1.0453945 0.019607844
40.61903 -19.79368 0.7887004 0.031372551
26.541565 -9.8601751 -1.8146057 0.035294119
19.935823 -10.950752 -1.3246452 0.039215688
33.40234 -16.276983 1.5138153 0.023529412
25.241602 -10.808137 -1.2790512 0.019607844
22.417742 -10.924179 -1.3069384 0.019607844
33.142769 -14.191325 4.4267774 0.011764706
32.788792 -15.978004 2.9776073 0.015686275
29.642361 -11.01212 -1.2883066 0.031372551
33.930447 -18.638 -1.3518766 0.019607844
11.049642 -4.7313237 3.2207427 0
31.494108 -15.347108 6.3876777 0.011764706
4.4570599 -2.1912117 -2.315949 0.0039215689
40.53801 -15.22109 -0.75583249 0.050980393
7.4743629 -3.2313473 -2.2795303 0.0078431377
10.228949 -5.028831 -2.2796698 0
33.411316 -14.444525 -5.1180878e-06 0.10196079
39.509792 -21.88261 -0.52581596 0.019607844
8.3877745 -3.6262383 -1.4216725 0.22352941
14.820545 -7.2861862 -2.1021166 0.019607844
42.56176 -20.924534 -0.27565688 0.023529412
18.761391 -10.391048 -2.0020206 0.050980393
39.852684 -22.072523 0.53035617 0.015686275
24.565254 -10.620156 -1.8714304 0.031372551
21.563089 -10.601007 -1.9615395 0.054901961
30.731218 -11.538867 0.95533043 0.019607844
38.600807 -18.977221 0.75079399 0.027450981
26.518196 -9.9569712 -1.8153733 0.035294119
19.789188 -10.960297 -1.3174361 0.023529412
31.505352 -15.488901 1.4302843 0.023529412
25.031345 -10.821659 -1.2703035 0.015686275
22.236082 -10.93187 -1.2985647 0.019607844
29.907997 -12.929961 4.0007229 0.011764706
32.711353 -16.081806 2.9756546 0.015686275
29.143522 -10.942721 -1.2682788 0.031372551
33.665855 -18.645929 -1.3439196 0.019607844
31.182552 -15.33021 6.3353019 0.011764706
33.321518 -14.405704 -0.84473622 0.086274512
4.4660087 -2.2140307 -2.3244014 0
40.461136 -15.345508 -0.75534397 0.050980393
38.609615 -19.140789 -1.2541598 0.019607844
7.4636059 -3.2561152 -2.2795303 0.0039215689
10.201674 -5.057497 -2.2773163 0.0039215689
33.410892 -14.576035 -5.2662963e-06 0.10196079
35.738476 -19.949013 -0.4765034 0.019607844
8.3757029 -3.6540332 -1.4216726 0.40000001
14.750085 -7.3123813 -2.0955505 0.031372551
42.596069 -21.117083 -0.27633128 0.023529412
17.176195 -7.4933877 -2.018568 0.031372551
18.831154 -10.511441 -2.0131743 0.043137256
28.910692 -16.137783 0.38545114 0.0078431377
24.632307 -10.746235 -1.8792431 0.047058824
21.256351 -10.537876 -1.9368048 0.047058824
31.003075 -11.758396 0.96498835 0.019607844
33.030235 -16.374804 0.64349777 0.015686275
26.395452 -10.01088 -1.8092335 0.015686275
19.630692 -10.957739 -1.3092965 0.039215688
31.260807 -13.638028 1.9862566 0.0078431377
31.278355 -15.506308 1.4223055 0.019607844
24.801216 -10.819925 -1.260439 0.019607844
22.045816 -10.929255 -1.2895629 0.011764706
29.879505 -13.035418 4.0026727 0.011764706
31.636282 -15.683752 2.8825736 0.015686275
28.621269 -10.855057 -1.247111 0.031372551
34.637047 -19.334198 -1.385241 0.019607844
31.247887 -15.49121 6.3589787 0.011764706
33.372528 -14.559297 -0.84724885 0.074509807
4.4517684 -2.2263634 -2.3210204 0
40.429729 -15.495238 -0.75576299 0.050980393
7.4592447 -3.2852535 -2.281687 0.0078431377
10.173433 -5.0878139 -2.2749629 0.0039215689
33.727116 -18.980997 -0.45056662 0.011764706
8.3592806 -3.6816549 -1.4210577 0.41176471
14.706725 -7.3549495 -2.0930254 0.027450981
42.683086 -21.346153 -0.27737767 0.023529412
17.106258 -7.5340614 -2.0134273 0.023529412
18.745756 -10.549764 -2.0079691 0.070588239
28.502132 -16.040474 0.38074806 0.0078431377
24.627512 -10.846628 -1.8817546 0.027450981
21.429815 -10.717221 -1.956007 0.047058824
30.816236 -11.81074 0.96045011 0.019607844
37.140091 -18.574059 0.72482485 0.027450981
26.546719 -10.174387 -1.8220252 0.027450981
19.474005 -10.959608 -1.3013897 0.054901961
30.778126 -13.55553 1.9585824 0.0078431377
32.289265 -16.148123 1.4708282 0.023529412
24.595089 -10.832349 -1.2518773 0.015686275
21.861055 -10.932888 -1.28098 0.011764706
32.860447 -14.472645 4.4087405 0.011764706
31.838074 -15.92248 2.9060066 0.015686275
28.112976 -10.774677 -1.2265947 0.031372551
34.534508 -19.435379 -1.3838452 0.019607844
34.477345 -17.242407 7.0283818 0.015686275
33.412994 -14.715995 -0.84957528 0.011764706
4.4435778 -2.2426651 -2.3210206 0
38.535904 -19.449007 -1.2562548 0.019607844
7.436595 -3.3078747 -2.2784522 0.0078431377
10.16522 -5.1303687 -2.2773163 0.0039215689
36.099186 -20.490528 -0.48325568 0.019607844
8.3385067 -3.7090554 -1.4198278 0.40392157
14.669043 -7.4034405 -2.0915103 0.035294119
40.736969 -20.559883 -0.26521888 0.023529412
17.038557 -7.5789294 -2.0087152 0.023529412
18.779701 -10.659686 -2.0157769 0.050980393
40.008678 -17.796286 1.0189188 0.015686275
24.419882 -10.862221 -1.8689195 0.019607844
21.337002 -10.768749 -1.9511253 0.039215688
30.493128 -11.815266 0.95172286 0.019607844
31.098433 -15.695332 0.60803455 0.015686275
26.624638 -10.316327 -1.8299561 0.027450981
19.31563 -10.963888 -1.2934829 0.023529412
31.870237 -14.176223 2.0313723 0.0078431377
32.187046 -16.244753 1.4688741 0.023529412
24.361729 -10.836354 -1.2420129 0.019607844
