# .PCD v0.7 - Point Cloud Data file format
VERSION 0.7
FIELDS x y z intensity
SIZE 4 4 4 4
TYPE F F F F
COUNT 1 1 1 1
WIDTH 1116
HEIGHT 1
VIEWPOINT 0 0 0 1 0 0 0
POINTS 1116
DATA ascii
16.606457 -58.183289 -0.70061213 0.047058824
5.3612213 -13.5195 -2.2591486 0.027450981
5.7584496 -16.907015 -2.2704353 0.027450981
30.517534 -90.073647 -0.54697424 0.15686275
7.2100391 -18.214081 -2.1071498 0.050980393
5.8821249 -20.523949 -1.9904748 0.0078431377
3.2390497 -8.1305218 0.2035232 0
16.043415 -56.20594 0.68380082 0.027450981
8.0761528 -20.413292 -1.5327147 0.015686275
8.0141382 -23.572891 -2.0298686 0.054901961
30.57497 -90.243141 1.6685454 0.10980392
5.7204375 -19.956072 -1.2070357 0.19607843
4.2616949 -10.727216 0.6716212 0
30.576118 -90.246269 3.8870387 0.24705882
8.5541134 -21.626902 -1.081331 0.011764706
12.897752 -38.004715 -2.1001809 0.039215688
6.0430188 -21.088793 -0.76438701 0.0078431377
0.79688853 -2.2445464 0.43112037 0
26.184322 -66.394356 -1.6562729 0.054901961
1.6120108 -4.7076788 -2.3124881 0.043137256
10.157144 -22.629086 -0.43139419 0.0078431377
12.570363 -37.467331 -1.1474316 0.011764706
2.9429455 -7.4550877 -2.2383008 0.031372551
3.2427809 -9.5827999 -2.0196095 0.023529412
43.364323 -111.15487 0.0069650193 0.24705882
15.772449 -55.995869 -0.67360693 0.035294119
5.3211875 -13.55641 -2.2622199 0.027450981
10.140559 -22.59194 0.1450237 0.90588236
33.35994 -99.617317 -0.60418373 0.16862746
7.1507626 -18.25012 -2.1084318 0.050980393
5.8287754 -20.6094 -1.9967881 0.0078431377
15.85254 -56.280712 0.68404168 0.027450981
8.6946611 -22.210907 -1.6654134 0.015686275
7.920435 -23.566561 -2.0269387 0.015686275
10.157683 -22.630171 0.72254509 0.26274511
10.861527 -24.204222 -1.6976515 0.0078431377
5.6475153 -19.964252 -1.2063364 0.27450982
4.12852 -10.496335 0.65625823 0
7.0475678 -20.956804 0.90126371 0.0078431377
8.4887381 -21.682552 -1.082629 0.0078431377
12.662382 -37.742527 -2.0832393 0.019607844
5.9704623 -21.113472 -0.7645238 0.0078431377
25.926266 -66.418152 -1.6545925 0.054901961
1.5964065 -4.7128696 -2.3124876 0.043137256
2.9099011 -7.4431148 -2.2318313 0.039215688
3.2085376 -9.5859241 -2.0180399 0.027450981
43.073288 -111.49944 0.0069936127 0.24705882
5.2847595 -13.595976 -2.2659061 0.023529412
5.6494966 -16.964394 -2.2729549 0.031372551
10.065601 -22.625317 0.14502716 0.88235295
33.053307 -99.799408 -0.604608 0.16862746
7.0844917 -18.258762 -2.1067166 0.047058824
5.6166849 -20.11039 -1.9466304 0.0078431377
15.662629 -56.321281 0.68390763 0.027450981
7.6268888 -22.941544 -1.9709996 0.0078431377
10.069637 -22.634359 0.72161573 0.30588236
10.706811 -24.072105 -1.6858904 0.0078431377
5.5834312 -19.990437 -1.2067987 0.25098041
4.4172344 -11.348041 0.70863914 0
8.3981037 -21.661997 -1.0802095 0.0039215689
12.458133 -37.545254 -2.0700612 0.019607844
10.825116 -24.338949 -1.0831153 0.0078431377
5.8993621 -21.129173 -0.76438206 0.0078431377
25.674213 -66.421562 -1.6525414 0.054901961
1.5799617 -4.7182775 -2.3124869 0.043137256
9.9948711 -22.679119 -0.43103921 0.30588236
11.921192 -36.347054 -1.1106143 0.011764706
2.8825433 -7.4494929 -2.230752 0.047058824
3.1787295 -9.6081152 -2.0203912 0.027450981
42.696674 -111.68261 0.0070120967 0.24705882
16.010714 -58.366234 -0.70077664 0.047058824
5.2401047 -13.621591 -2.2671337 0.023529412
5.5927272 -16.991417 -2.2739623 0.043137256
9.9801464 -22.645525 0.14493686 0.92941177
32.821602 -100.27142 -0.60675663 0.16862746
7.0107956 -18.257238 -2.1037169 0.027450981
5.5401602 -20.106689 -1.9443989 0.0078431377
41.673489 -109.00361 2.721926 0.074509807
15.471231 -56.394764 0.68414849 0.027450981
8.4635744 -22.060566 -1.6497952 0.031372551
9.9873667 -22.661911 0.72138613 0.34509805
10.006474 -22.705669 -1.5877376 0.0078431377
5.5157418 -20.01737 -1.207261 0.21176471
14.793961 -38.633541 -1.9239269 0.011764706
10.018654 -22.733347 -1.0101064 0.015686275
5.8287535 -21.16107 -0.76479757 0.023529412
25.442219 -66.510643 -1.6525316 0.054901961
1.562384 -4.7201796 -2.310796 0.043137256
9.9156618 -22.713734 -0.43103558 0.29803923
11.628311 -35.874676 -1.0949343 0.011764706
2.8497298 -7.4413586 -2.2253609 0.050980393
3.1451883 -9.6190176 -2.02039 0.027450981
15.885077 -58.711243 -0.70424283 0.047058824
5.1911449 -13.635967 -2.2665169 0.023529412
5.5333991 -17.0107 -2.2739601 0.035294119
9.9058409 -22.691093 0.14501092 0.8392157
6.9357924 -18.251703 -2.1002891 0.039215688
5.4761858 -20.14884 -1.9466256 0.0078431377
3.0560105 -7.9868431 0.19886316 0
15.284724 -56.486904 0.68462342 0.027450981
8.3470345 -21.985329 -1.6419861 0.015686275
7.0584159 -21.730669 -1.8626989 0.019607844
9.9082193 -22.696497 0.72138977 0.38039216
17.452404 -53.900352 0.99195641 0.043137256
5.4489727 -20.047932 -1.2079555 0.16470589
2.8921862 -7.5533886 0.47025675 0
14.695765 -38.781986 -1.9287542 0.011764706
7.2563396 -22.34318 -1.229075 0.0039215689
10.685257 -24.483292 -1.0861969 0.0078431377
5.7590356 -21.196587 -0.76535237 0.023529412
25.198605 -66.568977 -1.6517795 0.054901961
1.5437089 -4.7185612 -2.307415 0.043137256
9.8442421 -22.766439 -0.43137988 0.062745102
2.8183556 -7.4366937 -2.2210474 0.047058824
3.1116085 -9.6298018 -2.0203888 0.035294119
41.588112 -111.101 0.0069874995 0.24705882
23.15139 -86.834908 -1.040518 0.082352944
5.1255312 -13.605742 -2.2585242 0.023529412
5.4752092 -17.033556 -2.2744627 0.023529412
9.8170929 -22.703356 0.1448736 0.92941177
13.3981 -41.850918 -0.25278267 0.14117648
6.8762345 -18.286844 -2.1015711 0.035294119
5.411983 -20.190792 -1.9488524 0.0078431377
61.545391 -164.46333 4.0962062 0.074509807
15.094672 -56.566837 0.6849578 0.027450981
8.2353106 -21.920757 -1.6350133 0.015686275
6.8564386 -21.360056 -1.8288745 0.0039215689
9.8336935 -22.741829 0.72174317 0.41176471
8.6885557 -20.083761 -1.4001236 0.0078431377
5.380003 -20.070557 -1.2081853 0.14117648
61.583958 -164.56578 10.242464 0.078431375
14.563114 -38.840397 -1.9291204 0.011764706
6.9985247 -21.80505 -1.1981262 0.0039215689
2.6144707 -6.8911924 0.90302646 0
5.6870832 -21.224152 -0.76562858 0.023529412
2.3102851 -7.1193495 1.3620071 0
24.991318 -66.723831 -1.6534405 0.054901961
1.5261542 -4.7203288 -2.3057241 0.047058824
2.7696714 -7.3849354 -2.202719 0.031372551
3.0791702 -9.6442108 -2.0211718 0.031372551
25.005121 -67.477478 0.0041577895 0.1254902
22.489738 -85.549408 -1.0241617 0.082352944
5.0766516 -13.619707 -2.2579076 0.023529412
5.4169264 -17.056211 -2.274965 0.035294119
9.7377996 -22.73735 0.14487718 0.92941177
31.793896 -100.68552 -0.6071772 0.16862746
6.8220353 -18.336708 -2.1045654 0.047058824
5.3627162 -20.290319 -1.9566519 0.0078431377
14.898152 -56.622913 0.68501121 0.027450981
8.2099915 -22.087702 -1.6453252 0.0039215689
6.6151643 -20.855228 -1.7836678 0.0039215689
9.7495565 -22.764847 0.72139692 0.32941177
8.6622734 -20.216639 -1.407277 0.0078431377
5.3139801 -20.104527 -1.2091123 0.078431375
2.8531322 -8.9272642 0.38154128 0
14.491245 -39.063236 -1.9376652 0.011764706
6.7830062 -21.387306 -1.1738687 0.011764706
5.6180506 -21.263071 -0.76632279 0.023529412
24.763817 -66.825516 -1.6538023 0.054901961
1.5096835 -4.725492 -2.3057234 0.047058824
2.7319756 -7.3618684 -2.1930156 0.027450981
3.0455022 -9.6547642 -2.0211704 0.031372551
40.819748 -111.4109 0.0070207119 0.24705882
15.219344 -58.680355 -0.70190692 0.047058824
5.0508327 -13.696596 -2.2677402 0.019607844
5.365634 -17.101402 -2.2784967 0.027450981
9.6832952 -22.830021 0.14525647 0.39215687
31.474375 -100.89885 -0.60778511 0.16862746
6.7703061 -18.393887 -2.1084161 0.047058824
5.2699265 -20.223957 -1.9484762 0.0078431377
14.700424 -56.674438 0.68501776 0.027450981
8.412672 -22.880505 -1.7021936 0.0039215689
8.4207649 -19.84214 -1.3791586 0.0039215689
5.2477851 -20.138283 -1.2100391 0.11764706
3.4306788 -9.2702999 0.57502002 0
14.47431 -39.439888 -1.9538313 0.015686275
6.5954413 -21.048414 -1.1540021 0.015686275
8.5414495 -20.127716 -0.88896042 0.0039215689
5.5528216 -21.317253 -0.76757443 0.031372551
23.78125 -64.864822 -1.6032122 0.054901961
1.4931952 -4.7305984 -2.305723 0.050980393
10.988755 -35.585892 -1.0813309 0.11372549
2.6892281 -7.3241405 -2.1789997 0.039215688
3.0129516 -9.6689501 -2.0219533 0.031372551
40.512321 -111.77824 0.0070511536 0.24705882
15.014434 -58.732986 -0.70190018 0.047058824
4.9949336 -13.69171 -2.2640505 0.019607844
5.2895818 -17.066799 -2.2714269 0.023529412
13.153277 -42.61932 -0.25656074 0.023529412
6.7128434 -18.435968 -2.1105542 0.050980393
5.7208757 -22.287476 -2.1453786 0.0078431377
14.50746 -56.744652 0.68525839 0.027450981
6.2243609 -20.104258 -1.7156942 0.0039215689
13.10211 -42.45293 0.77780581 0.062745102
5.183393 -20.179558 -1.2114307 0.094117649
14.214129 -39.151909 -1.9370966 0.011764706
6.4068027 -20.697025 -1.1335082 0.0039215689
8.3986483 -19.983988 -0.88131541 0.0039215689
5.4892564 -21.378977 -0.76910472 0.031372551
21.023663 -57.957439 -1.4306737 0.050980393
1.4756355 -4.7321773 -2.3040318 0.054901961
9.6785641 -23.270607 -0.43832284 0.035294119
10.87263 -35.650673 -1.0821391 0.10196079
2.6415832 -7.2716985 -2.1606717 0.035294119
2.9803405 -9.6830273 -2.0227365 0.031372551
14.843465 -58.920677 -0.70351416 0.047058824
4.9497929 -13.71637 -2.2652779 0.023529412
5.2219172 -17.058445 -2.2678909 0.027450981
16.920778 -55.550613 -0.33397985 0.043137256
6.6524892 -18.470385 -2.111836 0.086274512
5.1480546 -20.337234 -1.955902 0.0078431377
14.316139 -56.82196 0.68559265 0.027450981
6.0950403 -19.931189 -1.6991063 0.0039215689
8.3813848 -20.139881 -1.3957659 0.015686275
5.1187787 -20.220631 -1.2128221 0.062745102
3.2043333 -8.8426285 0.54708654 0
14.003298 -38.994263 -1.9268678 0.011764706
6.2474189 -20.432484 -1.1178238 0.015686275
8.4910173 -20.40443 -0.89854705 0.0039215689
5.4224086 -21.428892 -0.770217 0.015686275
1.0767033 -3.4192302 0.65074652 0
14.924821 -41.567108 -1.02482 0.019607844
1.4555311 -4.7236795 -2.2972641 0.050980393
10.757191 -35.736225 -1.0834945 0.086274512
2.5957689 -7.2232456 -2.1434133 0.031372551
2.9485154 -9.7014093 -2.0242929 0.027450981
14.619394 -58.935822 -0.70298678 0.047058824
4.8930163 -13.712068 -2.2615745 0.019607844
5.181334 -17.145889 -2.2769585 0.023529412
9.6460657 -23.431154 0.14845674 0.0039215689
30.448427 -101.38879 -0.60862237 0.16862746
6.5848794 -18.490894 -2.1113884 0.050980393
5.0998139 -20.45649 -1.9655375 0.0078431377
14.115129 -56.89732 0.6859358 0.027450981
9.8067465 -27.591379 -2.0447807 0.0039215689
8.3059492 -20.163071 -1.3952348 0.023529412
5.0508933 -20.258642 -1.2139598 0.054901961
6.1383796 -20.336636 -1.1113194 0.015686275
2.0250745 -6.6222363 0.56423473 0
8.4115763 -20.420616 -0.89787674 0.0039215689
5.3520222 -21.475786 -0.7711674 0.031372551
1.9872912 -5.5041018 1.5634036 0
20.627352 -58.155209 -1.4318155 0.050980393
1.435962 -4.718163 -2.2921927 0.062745102
10.636939 -35.788746 -1.0839542 0.074509807
2.5489178 -7.1703167 -2.1250851 0.039215688
2.9146495 -9.711503 -2.0242915 0.031372551
14.413594 -58.986355 -0.7029798 0.047058824
4.8451385 -13.728925 -2.2615726 0.023529412
5.1180878 -17.152317 -2.2754421 0.031372551
30.119328 -101.57868 -0.60911489 0.16862746
6.5097976 -18.483599 -2.1079607 0.050980393
5.0227351 -20.450813 -1.9633058 0.0078431377
13.920236 -56.961651 0.68612981 0.027450981
9.7077532 -27.617771 -2.0442195 0.0039215689
5.9163852 -19.848013 -1.6883498 0.078431375
2.3578241 -5.7133837 0.1794596 0
8.2280254 -20.173307 -1.3939537 0.0078431377
4.9858351 -20.29929 -1.2153512 0.047058824
6.0616984 -20.338646 -1.1102712 0.0039215689
6.1733522 -25.172262 -0.90311468 0.0078431377
2.2235131 -7.3771744 1.4022142 0
13.918947 -39.645885 -0.97493744 0.019607844
1.4144148 -4.7056088 -2.2837408 0.05882353
32.140419 -79.874199 -1.497527 0.24705882
10.518697 -35.848541 -1.0846462 0.050980393
2.4999483 -7.1098695 -2.1046011 0.035294119
2.8818495 -9.7252417 -2.0250745 0.027450981
4.7959104 -13.74188 -2.260956 0.023529412
5.0559745 -17.162321 -2.27443 0.035294119
29.846523 -101.96333 -0.61077994 0.16862746
6.4595675 -18.547409 -2.1126673 0.047058824
4.9485474 -20.456461 -1.962189 0.0078431377
2.3609929 -6.7082224 0.16529214 0
13.728807 -57.040871 0.6865111 0.027450981
9.6282797 -27.700369 -2.0478394 0.0039215689
4.4208617 -10.90414 0.34235665 0
26.948366 -92.049294 1.6798388 0.10980392
8.1828814 -20.26473 -1.3982955 0.015686275
4.92242 -20.347492 -1.2172071 0.031372551
2.5706372 -7.3137546 0.45071813 0
2.7496049 -9.272563 0.39378989 0
13.603299 -39.182373 -1.9288623 0.011764706
5.9828382 -20.332703 -1.1088049 0.0039215689
0.96626461 -2.6794655 0.34752175 0
6.085465 -25.19352 -0.90311176 0.0078431377
13.548937 -39.02523 -0.95850569 0.015686275
1.3959862 -4.7034106 -2.28036 0.05882353
31.913162 -80.115837 -1.4999493 0.24705882
10.402377 -35.915638 -1.0855705 0.050980393
2.4514291 -7.0491691 -2.0841169 0.031372551
2.8468122 -9.7313328 -2.0242891 0.031372551
38.639893 -112.7733 0.007241427 0.24705882
14.024469 -59.182583 -0.70412356 0.047058824
4.7428079 -13.743439 -2.2584956 0.027450981
5.0015502 -17.198788 -2.2769518 0.035294119
9.3499432 -23.404099 0.14766917 0.0039215689
29.449389 -101.92455 -0.60991609 0.16862746
6.4025264 -18.592283 -2.1152337 0.027450981
3.8579426 -11.158007 0.27483097 0
13.533299 -57.103874 0.68670505 0.027450981
9.5108662 -27.673267 -2.0433753 0.0039215689
5.7677603 -19.854074 -1.6854177 0.19607843
3.1980438 -10.948271 0.19932544 0
9.4918585 -23.761 -1.637267 0.0078431377
4.8578053 -20.391613 -1.2188308 0.031372551
13.447044 -39.172775 -1.9260685 0.011764706
5.915163 -20.364836 -1.1094297 0.0039215689
8.6169262 -21.561817 -0.94404155 0.0078431377
6.0131269 -25.280602 -0.9054774 0.0078431377
1.7181364 -5.8194156 1.1036408 0
13.182127 -38.398701 -0.94198143 0.015686275
1.3736194 -4.6871939 -2.2702177 0.062745102
31.69195 -80.37545 -1.5027196 0.24705882
10.287914 -35.990044 -1.0867269 0.074509807
2.4058363 -6.9955139 -2.065789 0.035294119
2.812844 -9.7410707 -2.0242877 0.027450981
38.234493 -112.87325 0.0072551705 0.24705882
13.863132 -59.425812 -0.70643163 0.047058824
4.703692 -13.785977 -2.2627962 0.023529412
4.9371557 -17.200735 -2.2749302 0.043137256
16.608879 -58.186333 -0.34791687 0.047058824
6.3439803 -18.633213 -2.1173718 0.027450981
4.8083544 -20.501867 -1.9632988 0.0078431377
30.561508 -90.19838 2.2214267 0.074509807
13.342064 -57.185684 0.68713313 0.027450981
9.4219046 -27.728834 -2.0450439 0.0039215689
5.6973481 -19.870111 -1.6850899 0.26274511
4.5395188 -11.429244 0.35786855 0
26.100277 -91.515602 1.6667597 0.10980392
9.3840122 -23.730703 -1.6329185 0.023529412
4.797471 -20.454979 -1.2216159 0.047058824
13.606103 -40.093639 -1.969 0.015686275
5.8353066 -20.354488 -1.1077543 0.011764706
7.9939032 -20.200827 -0.88323104 0.0039215689
12.356606 -52.949821 -1.8948797 0.047058824
12.854475 -37.872364 -0.9279629 0.011764706
1.3543248 -4.6813498 -2.2651463 0.062745102
31.610212 -80.995949 -1.5122375 0.24705882
10.175224 -36.071796 -1.0881156 0.10196079
2.3557589 -6.9270153 -2.0431488 0.035294119
2.7830861 -9.7657967 -2.0274234 0.031372551
30.283819 -90.416222 0.0057722423 0.23137255
9.9547491 -43.309071 -0.51446927 0.019607844
4.661828 -13.820914 -2.2658675 0.023529412
4.8771029 -17.217726 -2.2749281 0.039215688
15.770505 -55.983402 -0.33441502 0.043137256
6.2776561 -18.651331 -2.116941 0.027450981
13.142389 -57.23177 0.68713969 0.027450981
9.2997561 -27.68573 -2.0394647 0.0039215689
5.6290507 -19.893576 -1.6854125 0.27058825
26.026299 -92.480034 1.682677 0.10980392
9.3025894 -23.766895 -1.6331704 0.023529412
4.7358623 -20.514277 -1.2241688 0.047058824
3.3908412 -10.021019 0.61554891 0
13.453412 -40.102852 -1.9671355 0.015686275
3.530206 -10.437553 1.3512655 0
7.9872251 -20.392313 -0.89038169 0.0039215689
12.185998 -53.054844 -1.897103 0.047058824
2.4748631 -8.6684599 1.6412221 0
12.525585 -37.329037 -0.91357338 0.011764706
1.3376863 -4.6784682 -2.2617652 0.05882353
25.939711 -67.070442 -1.2507309 0.17647059
10.069351 -36.130421 -1.0889241 0.10196079
2.3085811 -6.8574615 -2.0205085 0.039215688
2.7524064 -9.7743645 -2.0274222 0.031372551
37.609535 -113.50001 0.0073102834 0.24705882
9.8468256 -43.464855 -0.51594645 0.019607844
4.6221261 -13.846622 -2.2677097 0.023529412
4.8325548 -17.267246 -2.2794697 0.035294119
1.3049167 -4.5601387 -0.027398886 0
6.2427912 -18.742569 -2.1250732 0.047058824
12.967821 -57.296059 0.68742651 0.027450981
5.5654731 -19.907192 -1.6850852 0.23529412
25.746344 -92.599747 1.6833884 0.10980392
8.8539963 -22.827688 -1.5667145 0.031372551
4.6801944 -20.567881 -1.2264895 0.0078431377
2.0254173 -6.0017476 0.36807537 0
7.4660473 -22.437853 -1.0994772 0.0039215689
5.7098327 -20.427114 -1.1096312 0.015686275
1.0330696 -3.5808828 0.30301529 0
18.062254 -46.67215 -2.0353017 0.054901961
9.8388605 -43.429699 -1.5518318 0.031372551
2.1023583 -7.4323959 1.4058075 0
12.229822 -36.829002 -0.9003911 0.011764706
1.318633 -4.6761999 -2.2583845 0.047058824
31.774586 -83.084503 -1.5471349 0.24705882
9.9474239 -36.205505 -1.0900804 0.086274512
2.2666891 -6.8144727 -2.0054147 0.054901961
2.716579 -9.7842407 -2.027421 0.027450981
37.185822 -113.61415 0.0073253419 0.24705882
12.710082 -57.128387 -0.67752171 0.035294119
4.5676746 -13.852054 -2.2658637 0.023529412
4.7723908 -17.296179 -2.2809818 0.035294119
15.407047 -56.154774 -0.33479205 0.043137256
6.1641812 -18.73494 -2.1216455 0.047058824
2.7419162 -8.267683 0.20261891 0
12.762072 -57.362583 0.68766749 0.027450981
5.4945908 -19.935003 -1.6857328 0.22745098
41.671734 -108.99441 3.4023683 0.24705882
8.7774048 -22.878483 -1.5679889 0.015686275
7.7219315 -34.638885 -2.063894 0.015686275
2.7579365 -8.3166447 0.50962377 0
7.3961887 -22.502901 -1.1013327 0.0039215689
5.6338844 -20.443907 -1.1094195 0.015686275
2.9359684 -8.8610773 1.1444716 0
17.893932 -46.745361 -2.0356195 0.054901961
11.860099 -53.296303 -1.9028039 0.047058824
11.909596 -36.307098 -0.88655853 0.011764706
1.306098 -4.694634 -2.2651446 0.039215688
31.781347 -83.980385 -1.5617305 0.24705882
9.8324661 -36.28233 -1.0913531 0.074509807
2.2298787 -6.7818828 -1.9935551 0.054901961
2.6824269 -9.7935228 -2.0274198 0.027450981
12.519138 -57.211349 -0.67797834 0.035294119
4.5168824 -13.860249 -2.2646325 0.019607844
4.7037344 -17.281942 -2.2769411 0.027450981
2.6117401 -9.5313873 -0.056936506 0
6.1061015 -18.778908 -2.1242118 0.047058824
4.9403596 -22.468462 -2.1449585 0.054901961
2.3749528 -7.2306261 0.17696099 0
12.566045 -57.426178 0.68790799 0.027450981
7.0513473 -21.704401 -1.5934157 0.0039215689
5.4270692 -19.961618 -1.686381 0.19607843
4.2402039 -11.11619 0.34621474 0
9.0644665 -23.879684 -1.6344376 0.035294119
5.4120712 -24.630814 -1.4664403 0.0078431377
1.4176989 -4.2678909 0.26098499 0
2.2701194 -8.2657242 0.34894735 0
5.5635476 -20.467161 -1.1096259 0.015686275
17.720783 -46.781231 -2.0344744 0.054901961
11.690198 -53.411446 -1.9054452 0.047058824
11.621747 -35.849812 -0.87439674 0.011764706
1.2897187 -4.6990242 -2.2651441 0.043137256
31.535652 -84.21804 -1.5640831 0.24705882
2.1909792 -6.7417812 -1.9795394 0.047058824
2.6462228 -9.795105 -2.0258503 0.027450981
13.399847 -41.851723 0.0025603119 0.18039216
12.718638 -59.116093 -0.70000947 0.047058824
4.4708934 -13.883324 -2.2658598 0.023529412
4.6331892 -17.259773 -2.2718909 0.035294119
14.979694 -56.129253 -0.33399653 0.043137256
6.0211768 -18.739347 -2.1173589 0.035294119
4.8410344 -22.388073 -2.135668 0.062745102
17.224775 -53.832596 1.3181911 0.031372551
12.373076 -57.504749 0.6883359 0.027450981
6.8129425 -21.219372 -1.5560573 0.0039215689
5.358397 -19.984154 -1.6867037 0.16862746
61.557545 -164.49055 5.1214395 0.24705882
8.9852657 -23.922258 -1.6352006 0.023529412
5.2925787 -24.493237 -1.4571459 0.0078431377
5.4941397 -20.494038 -1.1100415 0.015686275
17.50699 -46.707897 -2.0286143 0.039215688
11.516274 -53.510414 -1.9075294 0.047058824
3.6548805 -13.58382 2.562794 0
1.2713823 -4.6926231 -2.2600727 0.047058824
26.285202 -70.894829 -1.3150357 0.18039216
2.1523964 -6.6974492 -1.9644459 0.039215688
2.6157348 -9.8112812 -2.0274174 0.027450981
13.276654 -41.945389 0.002569031 0.043137256
12.528328 -59.185204 -0.70032734 0.047058824
4.4141397 -13.864017 -2.2603261 0.023529412
4.5759435 -17.274908 -2.2718887 0.031372551
22.619246 -85.975456 -0.51103169 0.16078432
5.9901381 -18.857687 -2.1284878 0.027450981
4.75527 -22.349316 -2.1304648 0.054901961
12.185633 -57.560982 0.68852913 0.027450981
5.296164 -20.017107 -1.688002 0.18039216
8.9280758 -24.011683 -1.6392865 0.035294119
5.1049838 -24.006489 -1.4271781 0.0078431377
3.4173346 -10.705194 0.65396935 0
6.8382359 -21.544828 -1.0509527 0.0039215689
5.4271789 -20.515873 -1.1102482 0.023529412
17.414463 -46.934227 -2.035924 0.054901961
11.349508 -53.599026 -1.9093349 0.047058824
2.4961503 -7.7861524 2.1867952 0
3.2099826 -12.073336 2.275703 0
11.236675 -35.48164 -0.8635298 0.10196079
1.2559198 -4.7004018 -2.2617624 0.047058824
23.799734 -64.8759 -1.2018472 0.17647059
2.0992141 -6.6091681 -1.9364156 0.023529412
2.5844376 -9.8316031 -2.0297689 0.027450981
35.617085 -114.11931 0.0073870234 0.24705882
12.448375 -59.839397 -0.70754319 0.047058824
4.3563247 -13.849011 -2.2554071 0.035294119
4.5225949 -17.317526 -2.2754207 0.031372551
2.4383121 -9.2669449 -0.055209104 0
5.9349461 -18.91251 -2.1323385 0.027450981
4.6772451 -22.365637 -2.1304624 0.015686275
11.989526 -57.626526 0.68881643 0.027450981
5.2282763 -20.043051 -1.68865 0.14509805
5.5680213 -15.097218 0.46854278 0.0039215689
48.58654 -187.50821 3.3932543 0.10980392
8.8675613 -24.106281 -1.6436279 0.035294119
4.9757657 -23.805059 -1.4141674 0.0078431377
6.6274328 -21.133562 -1.0297605 0.0039215689
5.3605561 -20.553888 -1.1112912 0.023529412
11.171293 -53.681232 -1.9108616 0.047058824
2.3919232 -7.5475464 2.1174164 0
11.121101 -35.547226 -0.8641746 0.10196079
1.2401731 -4.7087073 -2.2634451 0.054901961
23.494909 -64.808792 -1.1988628 0.17647059
14.435303 -56.491062 -1.6927949 0.043137256
2.0435386 -6.5140915 -1.906221 0.023529412
2.5442269 -9.8262501 -2.0266192 0.027450981
13.165583 -42.67606 0.002661804 0.043137256
4.3115344 -13.8883 -2.2590787 0.023529412
4.4614444 -17.350136 -2.2774189 0.023529412
3.3167741 -12.857728 -0.076432183 0
5.8836226 -18.999773 -2.1395955 0.027450981
4.5943956 -22.391232 -2.1311777 0.0078431377
11.776939 -57.707382 0.68930453 0.027450981
6.2256961 -20.1119 -1.4698888 0.0039215689
5.1566834 -20.078423 -1.6899272 0.13725491
8.8266792 -24.279015 -1.6530596 0.0078431377
6.4384713 -20.803659 -1.0124515 0.011764706
5.2840519 -20.578182 -1.1114762 0.023529412
1.993729 -7.6655183 0.64568412 0
14.968796 -41.250336 -1.784524 0.035294119
10.971451 -53.747211 -1.9116356 0.047058824
1.9966507 -7.6768708 1.4438624 0
10.993103 -35.612576 -0.86469352 0.10196079
1.221918 -4.7021079 -2.258374 0.054901961
23.256962 -64.822197 -1.1976709 0.17647059
14.236219 -56.491947 -1.691395 0.043137256
1.9984205 -6.4432983 -1.8835812 0.047058824
2.513557 -9.842104 -2.0281866 0.023529412
16.952127 -55.643589 0.0035423911 0.062745102
3.2241538 -10.476171 -1.7022005 0.023529412
4.4068041 -17.376245 -2.2789314 0.023529412
5.8541417 -19.129387 -2.1520085 0.047058824
4.5193558 -22.4023 -2.1308038 0.0078431377
11.587882 -57.757748 0.68945116 0.027450981
6.1044493 -19.95286 -1.4567841 0.011764706
5.0959196 -20.118471 -1.6918759 0.12156863
10.97107 -30.520081 -2.0755286 0.019607844
4.7089376 -23.350445 -1.3851006 0.0078431377
1.5679122 -6.0786195 0.25534585 0
6.2788363 -20.526564 -0.99795115 0.0078431377
5.2235899 -20.626446 -1.1131464 0.023529412
1.794163 -5.7709088 0.74015695 0
14.865635 -41.393673 -1.7885826 0.035294119
10.790828 -53.7714 -1.9112118 0.047058824
10.884271 -35.679302 -0.86543119 0.10196079
1.2038234 -4.7028837 -2.2566829 0.062745102
14.041577 -56.594051 -1.692897 0.043137256
1.9582106 -6.3950834 -1.8674093 0.047058824
2.4774857 -9.8510971 -2.0281851 0.027450981
34.32222 -114.2984 0.0075211925 0.24705882
17.377062 -88.398811 -1.0427477 0.082352944
4.3335776 -17.353605 -2.2738807 0.027450981
14.640948 -59.016567 -0.34948838 0.047058824
5.7897215 -19.169613 -2.1541467 0.023529412
4.4372363 -22.418562 -2.1308012 0.0078431377
11.383831 -57.838924 0.68992633 0.027450981
5.0279117 -20.16008 -1.6938245 0.11764706
1.6254156 -6.406651 0.11533166 0
10.868481 -30.586275 -2.0773129 0.019607844
4.5657048 -23.073498 -1.3676765 0.0078431377
6.172586 -20.445951 -0.99292982 0.015686275
5.1556487 -20.676319 -1.1148163 0.023529412
2.1345887 -6.9827752 0.89476979 0
2.6956267 -10.732419 0.90268213 0
4.6729407 -23.620207 -0.83896053 0.0078431377
10.762638 -35.749451 -0.86616838 0.10196079
1.1848416 -4.6963458 -2.2516117 0.06666667
13.844896 -56.646465 -1.6930059 0.043137256
2.4430995 -9.8595419 -2.0281839 0.027450981
33.900322 -114.34067 0.0075317128 0.24705882
17.068392 -88.458778 -1.042738 0.082352944
3.1345515 -10.449409 -1.6942071 0.074509807
4.2786269 -17.391617 -2.2769074 0.023529412
17.72113 -72.552307 -0.42922321 0.06666667
5.7126245 -19.155243 -2.1502907 0.039215688
4.3627324 -22.453325 -2.1326563 0.0078431377
11.187923 -57.909588 0.6903075 0.027450981
5.9275584 -19.880951 -1.4484155 0.086274512
4.9594116 -20.185114 -1.6944723 0.086274512
2.6906316 -7.5709305 0.23358797 0
10.764299 -30.631418 -2.0778193 0.019607844
4.4474087 -22.893087 -1.3560598 0.0078431377
6.0955205 -20.448072 -0.99199778 0.0039215689
5.0900784 -20.721214 -1.1162772 0.023529412
2.4467208 -9.8739872 0.82972121 0
13.88893 -39.556019 -1.7048424 0.074509807
2.2982063 -9.2644291 1.7381381 0
10.645744 -35.813496 -0.866813 0.11372549
1.1667668 -4.6932569 -2.2482307 0.062745102
13.653633 -56.721512 -1.6938117 0.043137256
1.8962584 -6.3491521 -1.8501587 0.082352944
2.4096014 -9.8716774 -2.0289669 0.023529412
20.683374 -70.613304 0.0045702159 0.1254902
16.754335 -88.490166 -1.0424042 0.082352944
3.0958571 -10.452557 -1.6929765 0.082352944
4.2123556 -17.383148 -2.2738764 0.023529412
13.67506 -56.810593 -0.33584666 0.043137256
5.6502066 -19.190187 -2.1520004 0.047058824
4.2680869 -22.382177 -2.1244807 0.0078431377
10.992416 -57.983517 0.6907354 0.027450981
4.8973145 -20.237045 -1.6973966 0.05882353
10.662554 -30.683744 -2.0788369 0.019607844
4.3119044 -22.614035 -1.338636 0.0078431377
2.771096 -9.3413553 0.56691647 0
6.0173974 -20.44607 -0.99087977 0.0039215689
5.0242605 -20.7659 -1.1177382 0.023529412
1.5209267 -6.1685119 0.51767808 0
13.537668 -38.988499 -1.6783365 0.035294119
4.4181881 -23.176662 -0.82209706 0.0078431377
2.5915225 -8.7268457 2.4353378 0
10.529663 -35.880997 -0.86755043 0.10196079
13.314719 -38.781727 -0.71303433 0.047058824
13.465677 -56.811493 -1.6950818 0.043137256
1.8698285 -6.3407836 -1.8458458 0.078431375
2.3742416 -9.8760672 -2.0281816 0.023529412
29.493774 -102.07233 0.0067131259 0.24705882
11.21252 -60.302513 -0.70994055 0.047058824
3.060463 -10.466951 -1.6935897 0.082352944
4.1580534 -17.424633 -2.2774081 0.023529412
3.3798864 -14.131351 -0.083616778 0
5.5898156 -19.232576 -2.1545668 0.039215688
4.3198094 -23.097771 -2.1909773 0.0078431377
26.956955 -93.280579 2.2651527 0.074509807
10.797969 -58.064648 0.69125694 0.027450981
5.7853346 -19.910059 -1.4475738 0.16862746
4.8349094 -20.28879 -1.7003208 0.043137256
10.567029 -30.754623 -2.0811324 0.019607844
4.1783977 -22.334322 -1.3212125 0.0078431377
1.9111378 -7.9160075 0.33151528 0
5.9338183 -20.424576 -0.98883247 0.0039215689
4.9609427 -20.822039 -1.1198264 0.023529412
13.204762 -38.460613 -1.6536192 0.035294119
4.2841129 -22.904858 -0.81192392 0.0078431377
10.412122 -35.944286 -0.86819512 0.10196079
1.1331834 -4.6937461 -2.2448492 0.078431375
13.168104 -38.772495 -0.71205509 0.047058824
13.279949 -56.867371 -1.6954235 0.043137256
1.8445853 -6.3319936 -1.8415327 0.070588239
2.3388274 -9.8722887 -2.0258276 0.027450981
16.640635 -58.25375 0.0037385549 0.10588235
10.563139 -57.86792 -0.68086451 0.035294119
3.0268362 -10.480706 -1.6942029 0.090196081
4.0984664 -17.43046 -2.2763965 0.019607844
30.595644 -90.242638 0.55954224 0.10980392
5.5129466 -19.204975 -2.1494269 0.054901961
4.2275333 -23.025625 -2.182802 0.0078431377
26.429407 -92.604012 2.2465951 0.074509807
10.609674 -58.123611 0.691544 0.027450981
5.7203889 -19.932835 -1.44785 0.22745098
4.7730446 -20.327871 -1.7022697 0.035294119
30.585836 -90.213394 2.7775738 0.24705882
10.465004 -30.789358 -2.0811281 0.019607844
4.0464635 -22.029684 -1.3023953 0.0078431377
4.9870639 -17.359125 1.0518774 0
4.8982258 -20.865473 -1.1212876 0.011764706
28.457848 -122.05887 10.238635 0.16862746
12.855425 -37.849148 -1.6254884 0.019607844
4.1702476 -22.71035 -0.80453742 0.0078431377
2.8710697 -12.157776 2.2757287 0
10.303847 -36.016937 -0.86911845 0.10196079
1.117619 -4.7010617 -2.2465391 0.078431375
12.763585 -38.014046 -0.69730371 0.047058824
13.083166 -56.92104 -1.6956489 0.043137256
1.8183175 -6.3234162 -1.8372197 0.062745102
2.3043692 -9.8802471 -2.0258265 0.023529412
15.804854 -56.06255 0.0035932087 0.062745102
10.387062 -58.049992 -0.68257105 0.035294119
2.9913206 -10.494868 -1.6948162 0.090196081
4.0358419 -17.436779 -2.2753849 0.019607844
9.9813185 -43.383728 -0.25588384 0.023529412
5.4211311 -19.1359 -2.1395774 0.035294119
3.9654567 -22.020657 -2.0862088 0.0078431377
26.039982 -92.460747 2.2409151 0.074509807
10.410247 -58.179836 0.69178444 0.027450981
4.710979 -20.383125 -1.7055192 0.027450981
28.051535 -122.24542 2.1972327 0.10980392
7.8348885 -23.288786 -1.5722721 0.0078431377
3.9569454 -21.972765 -1.2982119 0.0078431377
3.1439455 -11.037319 0.66796315 0
28.054949 -122.25989 5.1181178 0.24705882
5.8000994 -20.483444 -0.98975646 0.011764706
9.032836 -39.24464 -2.1072831 0.039215688
28.056555 -122.26612 10.247771 0.16862746
12.50252 -37.234184 -1.5971948 0.019607844
4.0516853 -22.504234 -0.79673296 0.0078431377
10.189985 -36.094891 -0.87013429 0.10196079
1.0980092 -4.6943645 -2.2414675 0.078431375
12.325378 -37.156685 -0.68074393 0.027450981
12.892046 -57.046467 -1.6979635 0.043137256
1.7900014 -6.311326 -1.8318286 0.05882353
2.2672966 -9.8846474 -2.0250409 0.023529412
15.587532 -56.077549 0.0035981331 0.062745102
10.185244 -58.150562 -0.68330514 0.035294119
2.9528527 -10.505609 -1.6948147 0.094117649
3.9693079 -17.43969 -2.2738681 0.023529412
13.423863 -59.406937 -0.3500196 0.047058824
5.3552265 -19.170818 -2.1412871 0.031372551
3.8498316 -21.834793 -2.0672598 0.0078431377
25.71269 -92.597794 2.2419548 0.074509807
10.204515 -58.260788 0.69230616 0.027450981
5.5787086 -19.976805 -1.4481232 0.32549021
4.6529055 -20.474001 -1.7116953 0.0039215689
2.4540005 -7.3009281 0.22391434 0
7.5728049 -22.782799 -1.5362324 0.0078431377
3.8077767 -21.593584 -1.2749814 0.0078431377
5.7250028 -20.504414 -0.9897536 0.015686275
8.8871994 -39.269539 -2.1068602 0.039215688
12.182802 -36.725574 -1.5734532 0.019607844
3.9348426 -22.321871 -0.78976429 0.0078431377
2.4380896 -10.642165 1.9886352 0
10.066188 -36.162666 -0.8708716 0.10196079
1.0817003 -4.6905818 -2.2380867 0.074509807
9.6827507 -43.436707 -1.2919829 0.023529412
1.7650936 -6.2982116 -1.8264376 0.05882353
2.2370982 -9.895421 -2.0258243 0.023529412
15.467298 -56.330578 0.0036187356 0.062745102
10.005226 -58.19791 -0.68348473 0.035294119
2.9219377 -10.522326 -1.6960428 0.090196081
2.6797168 -11.889269 -1.5489662 0.011764706
37.4991 -114.4991 0.70762956 0.10980392
12.726627 -57.148708 -0.33647943 0.043137256
5.3359575 -19.337011 -2.1579819 0.039215688
25.492449 -92.936394 2.2482178 0.074509807
10.028875 -58.335793 0.69282699 0.027450981
5.5243707 -20.024891 -1.450351 0.15294118
5.5372009 -24.761824 -2.0687504 0.023529412
21.060898 -94.692871 1.6993457 0.10980392
7.2728286 -22.108257 -1.4892036 0.0078431377
3.7284794 -21.538397 -1.2710305 0.0078431377
26.089262 -117.34431 4.9048123 0.24705882
5.6616292 -20.526014 -0.98993701 0.019607844
8.7845793 -39.390724 -2.1118736 0.039215688
11.941867 -36.379887 -1.5570284 0.019607844
3.8249104 -22.101521 -0.78154212 0.0078431377
0.97964793 -4.230391 0.78929096 0
9.9641647 -36.236404 -0.87188792 0.10196079
1.0652919 -4.6979051 -2.2397764 0.074509807
12.512857 -57.175587 -1.6992273 0.043137256
1.7380003 -6.2896109 -1.8221245 0.054901961
2.1991606 -9.8957367 -2.0242546 0.023529412
9.7872458 -58.206421 -0.6831544 0.035294119
2.8864594 -10.544261 -1.6978853 0.090196081
37.020176 -114.45293 0.70651877 0.10980392
12.519656 -57.206543 -0.3365413 0.043137256
5.280612 -19.413879 -2.1644011 0.023529412
3.6682675 -21.663811 -2.0486805 0.023529412
25.029736 -92.577339 2.2373126 0.074509807
9.8196363 -58.39962 0.69316125 0.027450981
5.4499159 -20.041 -1.4500695 0.15686275
5.4685163 -24.883078 -2.0772018 0.031372551
2.9574633 -9.0292664 0.27639467 0
7.021174 -21.606625 -1.4536754 0.0078431377
3.6277671 -21.421795 -1.263363 0.0078431377
2.6390412 -9.6273422 0.58089304 0
5.5863767 -20.546478 -0.98993421 0.011764706
8.6180286 -39.32103 -2.1064329 0.039215688
1.8632435 -8.3552799 1.5587105 0
9.8448515 -36.322727 -0.87308925 0.050980393
1.0473835 -4.6943603 -2.2363951 0.074509807
12.752601 -59.267296 -1.7600526 0.062745102
1.7140708 -6.2880497 -1.8199676 0.062745102
2.1646223 -9.9032078 -2.0242534 0.023529412
2.471895 -9.1347494 0.00039995828 0.0039215689
9.6086073 -58.390079 -0.68490726 0.039215688
2.8466032 -10.542669 -1.6960399 0.082352944
2.5854535 -11.865165 -1.5434105 0.043137256
17.152842 -53.602562 0.33039129 0.035294119
20.618713 -95.941109 -0.56384337 0.15686275
5.202601 -19.393618 -2.1601174 0.054901961
3.5997272 -21.719568 -2.0527647 0.0078431377
9.6209202 -58.46497 0.69354206 0.027450981
5.2813139 -24.434095 -2.0381765 0.0078431377
20.63442 -96.013992 1.7203926 0.10980392
6.756341 -21.037626 -1.4138027 0.0078431377
3.5529878 -21.434183 -1.2633607 0.0078431377
20.634771 -96.015274 4.0069757 0.24705882
5.5218353 -20.592737 -0.99123257 0.011764706
8.5301657 -39.581169 -2.1187637 0.039215688
7.12677 -22.197872 -0.94785881 0.0078431377
3.5994673 -21.717749 -0.767048 0.0078431377
2.0560832 -9.3965816 1.7517841 0
1.0292753 -4.6912522 -2.2330074 0.082352944
12.520768 -59.288395 -1.7591716 0.062745102
1.687431 -6.2796783 -1.8156464 0.062745102
2.1272075 -9.9076052 -2.0234559 0.023529412
9.393507 -58.473911 -0.68539196 0.039215688
2.8105443 -10.564984 -1.6978703 0.082352944
2.5429518 -11.882766 -1.5444045 0.039215688
36.209641 -114.8087 0.70719218 0.10980392
5.1245208 -19.394203 -2.157954 0.054901961
3.7404156 -23.125412 -2.1842463 0.0078431377
9.4036379 -58.536999 0.69403446 0.027450981
5.3053617 -20.084112 -1.450322 0.44705883
5.1363835 -24.2045 -2.0173352 0.0078431377
1.4424928 -6.6541028 0.11885243 0
6.5222583 -20.572247 -1.380811 0.0039215689
3.4494314 -21.30571 -1.2549714 0.0078431377
20.259438 -96.054634 4.0054541 0.24705882
5.4462204 -20.621504 -0.99158007 0.015686275
5.1331744 -24.189129 -1.2937313 0.0039215689
6.8688297 -21.672308 -0.92426187 0.0078431377
3.4998486 -21.620874 -0.76311928 0.0078431377
14.843569 -56.477844 -1.35478 0.035294119
1.011606 -4.6801281 -2.2262459 0.078431375
12.433429 -59.804958 -1.7733278 0.062745102
1.6667449 -6.281085 -1.8145676 0.05882353
2.0936997 -9.9025812 -2.0211022 0.023529412
2.782305 -10.592762 -1.7009423 0.082352944
2.5128689 -11.92553 -1.5489463 0.015686275
21.935991 -105.66679 -0.61993623 0.16862746
5.0665698 -19.421623 -2.1592357 0.054901961
3.6671445 -23.13298 -2.1838727 0.0078431377
9.2271357 -58.613537 0.69460231 0.027450981
5.2402549 -20.092819 -1.4497621 0.44705883
1.665027 -7.8333278 0.13987872 0
3.3769314 -21.280798 -1.2528788 0.0078431377
1.5966293 -7.5031919 0.31228667 0
5.3904309 -20.673191 -0.99325037 0.027450981
4.9939566 -23.89991 -1.2774214 0.0039215689
2.1638331 -10.240586 0.85384947 0
2.2224617 -8.4283438 2.331805 0
14.667079 -56.527935 -1.3548659 0.035294119
0.9945575 -4.6799293 -2.224555 0.078431375
11.552668 -37.4039 -0.68067813 0.027450981
12.220621 -59.828259 -1.7727401 0.062745102
1.6400683 -6.2680516 -1.8091766 0.062745102
2.0607028 -9.9173689 -2.0226696 0.023529412
2.7492363 -10.61758 -1.7033994 0.06666667
3.6173134 -17.564314 -2.2798939 0.023529412
13.107279 -42.455238 0.26082706 0.12156863
4.9889355 -19.400505 -2.1549523 0.054901961
3.5894041 -23.165174 -2.1857276 0.0078431377
1.9194348 -7.3632765 0.17699632 0
9.0267334 -58.672916 0.69493645 0.027450981
5.1829205 -20.161102 -1.4533833 0.44705883
4.9399886 -24.061951 -2.0026968 0.0078431377
3.0090013 -9.6424608 0.2939035 0
1.9966828 -9.602499 0.17141826 0
6.2307196 -20.111158 -1.3470701 0.0039215689
3.3026433 -21.292307 -1.2528765 0.0078431377
2.5798576 -9.9530249 0.59837115 0
5.3192396 -20.695604 -0.99343348 0.031372551
4.8770514 -23.752647 -1.2686377 0.0039215689
6.5074921 -21.010422 -0.89418077 0.011764706
3.3394668 -21.532682 -0.7592141 0.023529412
17.828342 -69.749489 -1.670229 0.054901961
0.97660065 -4.6835485 -2.2245545 0.078431375
11.490302 -37.715702 -0.6855405 0.027450981
11.986922 -59.854969 -1.7721518 0.062745102
1.6150713 -6.270401 -1.8080975 0.074509807
2.0195575 -9.9096537 -2.0195312 0.023529412
2.7171259 -10.662394 -1.7089297 0.050980393
3.5490899 -17.574017 -2.2793868 0.027450981
18.004581 -90.008575 -0.52729076 0.16078432
4.898941 -19.357632 -2.1480994 0.047058824
3.497514 -23.158924 -2.1838675 0.0078431377
2.548111 -9.9885292 0.23998998 0
8.8114395 -58.774223 0.69573969 0.027450981
5.112289 -20.207783 -1.4553317 0.19215687
2.9580383 -9.6078682 0.29250559 0
3.2191172 -21.292818 -1.2521772 0.0078431377
2.5416415 -9.9626913 0.59837264 0
5.2475362 -20.746714 -0.99491733 0.031372551
4.716258 -23.422392 -1.2500274 0.0039215689
6.3408852 -20.752083 -0.88214743 0.035294119
3.2532454 -21.52146 -0.7583757 0.015686275
1.6556352 -6.4318128 -0.15396281 0
0.95747489 -4.6725478 -2.217793 0.074509807
11.374669 -37.809071 -0.6865086 0.027450981
11.298962 -57.45182 -1.6998239 0.043137256
1.5913415 -6.2683725 -1.8059406 0.074509807
1.9864787 -9.9241924 -2.0210986 0.023529412
1.3264356 -5.1965394 0.00013973271 0
2.6874948 -10.70236 -1.7138454 0.062745102
3.4877386 -17.586147 -2.2793849 0.027450981
16.706343 -55.596134 0.34089363 0.039215688
14.533072 -73.957382 -0.43298623 0.06666667
4.879077 -19.567507 -2.169503 0.062745102
3.4201105 -23.19449 -2.186094 0.0078431377
8.6102676 -58.832188 0.69607377 0.027450981
5.0417342 -20.225355 -1.4553291 0.16862746
4.9781504 -25.192661 -2.0937414 0.039215688
2.7947717 -9.1852007 0.27932832 0
3.1447856 -21.303776 -1.252175 0.0078431377
5.1808524 -20.788029 -0.99602973 0.031372551
4.5822558 -23.172005 -1.2358083 0.0039215689
3.1775393 -21.52858 -0.75823414 0.023529412
14.617939 -58.961639 -1.4093059 0.050980393
0.94254625 -4.6828318 -2.2211726 0.078431375
11.11574 -57.58107 -1.702487 0.043137256
1.5658242 -6.258769 -1.8016278 0.078431375
1.950362 -9.9232121 -2.0195289 0.023529412
2.6594903 -10.749929 -1.7199905 0.074509807
3.4278483 -17.605856 -2.2803922 0.019607844
16.513332 -55.657791 0.34092513 0.039215688
14.271071 -73.987877 -0.43286276 0.06666667
4.8098226 -19.580404 -2.1690722 0.047058824
3.3408263 -23.217966 -2.187206 0.0078431377
1.8397008 -7.3831506 0.17699932 0
8.4088135 -58.88945 0.69640779 0.027450981
4.9767876 -20.265942 -1.4569989 0.070588239
4.8879433 -25.19799 -2.0927629 0.015686275
2.6946323 -8.964716 0.27233213 0
5.9040446 -19.809473 -1.3225266 0.28627452
3.0737922 -21.338194 -1.2535664 0.0078431377
0.57509905 -2.7717838 0.11476833 0
5.1139493 -20.82913 -0.99714214 0.031372551
3.1018281 -21.535429 -0.75809252 0.031372551
14.41395 -59.019928 -1.4094838 0.050980393
0.9215067 -4.6610065 -2.2093408 0.074509807
4.4646091 -23.437258 -0.69254786 0.0039215689
1.5412899 -6.252809 -1.7983927 0.082352944
1.9142745 -9.922102 -2.0179594 0.023529412
1.3927714 -5.6332412 0.00017093164 0
6.3011489 -45.186424 -0.52800202 0.019607844
2.6274972 -10.782057 -1.7236769 0.074509807
3.3796325 -17.687752 -2.2894764 0.039215688
16.32233 -55.726467 0.34100363 0.039215688
17.071474 -90.246765 -0.5275808 0.16078432
4.7201309 -19.507971 -2.1592228 0.062745102
3.26087 -23.237226 -2.1879468 0.0078431377
4.0968885 -16.908787 0.40545708 0
8.2098007 -58.965832 0.69697607 0.027450981
4.9134774 -20.314081 -1.4592264 0.047058824
4.8029299 -25.230419 -2.0940607 0.0078431377
5.8572655 -19.906445 -1.327635 0.27058825
3.0086198 -21.415886 -1.2575128 0.0078431377
1.7974536 -7.3206158 0.43842435 0
1.5125544 -7.7927942 0.32321933 0
5.0514779 -20.889444 -0.99918389 0.027450981
3.0293958 -21.565775 -0.75878692 0.023529412
14.173355 -58.925846 -1.4060433 0.050980393
0.90656817 -4.6711745 -2.2127206 0.074509807
1.5168159 -6.2467546 -1.7951578 0.082352944
1.8803594 -9.9324303 -2.0187426 0.023529412
1.4944569 -6.1517873 0.00020754155 0
10.454994 -77.156212 -0.9010132 0.050980393
2.5980372 -10.825635 -1.7292074 0.074509807
3.3142762 -17.679781 -2.2869506 0.035294119
16.133266 -55.802177 0.34112909 0.039215688
11.189599 -60.228973 -0.35192537 0.047058824
4.6511092 -19.520311 -2.1587923 0.078431375
3.1829503 -23.272001 -2.1901734 0.0078431377
8.0108919 -59.045509 0.69759107 0.027450981
4.8462234 -20.346495 -1.4603388 0.047058824
4.217113 -22.557638 -1.8709842 0.0039215689
26.687904 -92.40284 2.8047652 0.24705882
5.7910786 -19.938126 -1.3283988 0.29803923
2.9354653 -21.437981 -1.2582074 0.0078431377
4.9895644 -20.953465 -1.0014113 0.043137256
4.2078242 -22.507332 -1.1979592 0.0039215689
2.3286331 -7.9310369 -0.33575544 0
2.9562545 -21.591917 -0.75934201 0.031372551
13.960243 -58.94368 -1.4052936 0.050980393
0.88995939 -4.6631641 -2.2076495 0.070588239
1.602675 -5.478076 -0.099183694 0
4.2311358 -23.037287 -0.67988968 0.0078431377
1.4954534 -6.2438512 -1.7930011 0.082352944
1.8463564 -9.922719 -2.0156047 0.023529412
2.3213816 -9.7911072 0.00046232605 0.0039215689
10.210484 -77.172691 -0.90082109 0.050980393
2.5712008 -10.864404 -1.7341231 0.06666667
3.2608645 -17.701683 -2.2884629 0.035294119
15.961188 -55.863983 0.3412067 0.039215688
4.592485 -19.54631 -2.1600745 0.070588239
3.1103621 -23.285698 -2.1905427 0.0078431377
7.8332114 -59.12973 0.69829917 0.027450981
4.78863 -20.388689 -1.4622877 0.050980393
4.0891833 -22.256845 -1.8449675 0.0039215689
5.7251477 -19.944569 -1.3276297 0.39215687
2.2804139 -9.6150513 0.57509619 0
2.5026698 -13.531572 0.56086916 0
4.0956635 -22.292362 -1.1858312 0.0039215689
0.69385505 -2.8004827 0.35241982 0
1.1656276 -6.1786809 0.51248658 0
2.4198263 -8.3456068 -0.35298622 0
2.892602 -21.632671 -0.76045454 0.039215688
1.7833229 -9.5753946 1.7740558 0
13.329797 -57.074783 -1.3597316 0.035294119
0.87415165 -4.6733761 -2.2110295 0.06666667
15.776913 -55.995338 -1.0115309 0.098039217
4.1060376 -22.824169 -0.67315412 0.0039215689
1.4699976 -6.2378683 -1.789766 0.082352944
1.809306 -9.9253988 -2.0148191 0.023529412
9.9372292 -77.284805 -0.90169221 0.050980393
2.5402024 -10.912126 -1.7402681 0.054901961
3.1966765 -17.717266 -2.2889657 0.031372551
15.767167 -55.960461 0.34145007 0.078431375
10.374133 -58.027287 -0.3386364 0.043137256
4.5297065 -19.601622 -2.1643529 0.086274512
3.0260241 -23.304684 -2.1912832 0.0078431377
28.029589 -122.23975 2.9262741 0.074509807
7.6179781 -59.169788 0.69844598 0.027450981
4.7183399 -20.425394 -1.4636788 0.062745102
3.972656 -22.075272 -1.8287058 0.0039215689
26.031317 -92.485825 2.8018749 0.24705882
21.365082 -119.75472 2.1313941 0.10980392
5.6585059 -19.988319 -1.3291601 0.4509804
28.019304 -122.19415 7.308497 0.078431375
9.5134239 -41.368652 -1.9739696 0.015686275
27.990887 -122.06876 15.383845 0.10196079
2.8173735 -21.674686 -0.7615667 0.039215688
16.228161 -70.696136 -1.6827832 0.054901961
0.85785073 -4.6762495 -2.2110291 0.070588239
3.9878778 -22.617636 -0.66665095 0.0078431377
1.4448459 -6.2277803 -1.7854532 0.086274512
1.7746663 -9.9315042 -2.014818 0.023529412
9.8318701 -43.45583 0.0028217954 0.22745098
9.6772909 -77.398254 -0.90261018 0.054901961
2.5090632 -10.951623 -1.7451839 0.050980393
3.1334655 -17.720348 -2.2879539 0.023529412
15.573888 -56.022717 0.34150484 0.039215688
4.467392 -19.644321 -2.1673472 0.062745102
2.9451659 -23.318907 -2.1916523 0.0078431377
7.419311 -59.259373 0.69920141 0.027450981
4.6566768 -20.484406 -1.4667425 0.035294119
3.859278 -21.880703 -1.8114688 0.0039215689
2.7229965 -21.533991 -1.2621496 0.63137257
9.3689795 -41.401463 -1.9739643 0.015686275
3.8598735 -21.883995 -1.1626199 0.0039215689
1.4215227 -7.906755 0.65516073 0
2.7441833 -21.704077 -0.76226115 0.039215688
9.8318396 -43.455849 -1.0335976 0.019607844
0.83950424 -4.6720572 -2.207648 0.06666667
3.8706622 -22.430937 -0.66072816 0.0039215689
1.4203629 -6.2253556 -1.7832961 0.082352944
1.7389319 -9.9416533 -2.0156012 0.023529412
7.1962996 -59.238472 -0.69055504 0.039215688
2.4774702 -10.999181 -1.7513288 0.06666667
3.0698497 -17.73938 -2.2889616 0.023529412
15.375846 -56.106274 0.34167755 0.039215688
1.1103144 -6.258296 -0.036648016 0
4.4048386 -19.703123 -2.1720541 0.039215688
2.8668585 -23.3887 -2.1972225 0.0078431377
21.464436 -96.742485 2.3121247 0.074509807
7.2054377 -59.313808 0.69953549 0.027450981
6.4967589 -29.150087 -2.0855708 0.011764706
20.597116 -120.42857 2.1407435 0.10980392
5.520627 -20.047243 -1.3304323 0.10980392
2.6483791 -21.579351 -1.2642379 0.52941179
1.4769821 -6.4806952 0.38650802 0
1.30984 -7.4272256 0.30707595 0
9.2025051 -41.369049 -1.9707994 0.015686275
3.7507572 -21.728519 -1.1536275 0.0039215689
2.9542596 -10.657032 -0.44938228 0
2.6684673 -21.745583 -0.76337337 0.047058824
13.116088 -59.042454 -1.4031298 0.050980393
0.82319474 -4.6715293 -2.20595 0.074509807
15.83435 -58.622356 -1.0557503 0.16862746
3.7589664 -22.259607 -0.65524411 0.0039215689
1.3948643 -6.2117 -1.7778968 0.086274512
1.7032722 -9.9440889 -2.0148029 0.023529412
12.493078 -57.214245 0.0038519339 0.062745102
9.1420612 -77.729126 -0.9055596 0.054901961
2.4486639 -11.054527 -1.7586899 0.050980393
3.0062745 -17.750509 -2.2889388 0.023529412
15.173786 -56.169926 0.34178561 0.039215688
10.168731 -60.660828 -0.3532494 0.047058824
4.3628139 -19.851252 -2.1865857 0.023529412
2.7849138 -23.418823 -2.199049 0.015686275
20.94141 -96.038925 2.2935679 0.074509807
6.9975133 -59.407333 0.70040661 0.027450981
6.4210734 -29.310154 -2.0952926 0.011764706
1.3193604 -4.7381878 0.14277248 0
2.5693543 -21.577011 -1.2635124 0.38039216
9.1245775 -41.734329 -1.9865484 0.015686275
3.6462665 -21.584511 -1.1452376 0.0039215689
1.3557862 -7.8617516 0.65061283 0
2.3459082 -8.5491171 -0.36012402 0
2.5948749 -21.794916 -0.76473767 0.047058824
12.894409 -59.058826 -1.4023203 0.050980393
0.8097021 -4.6811094 -2.2093298 0.078431375
15.034279 -56.356533 -1.0140893 0.098039217
3.6502795 -22.03442 -0.64827716 0.0039215689
1.3729373 -6.2046118 -1.774662 0.086274512
1.6669711 -9.9182844 -2.0085285 0.023529412
25.45145 -118.55704 0.0082253274 0.24705882
10.46083 -91.483696 -1.0653799 0.16470589
2.4247055 -11.112267 -1.7666789 0.043137256
2.9524336 -17.771473 -2.2904513 0.023529412
15.002404 -56.236507 0.34191039 0.039215688
12.401797 -75.499046 -0.43937504 0.070588239
4.2996101 -19.86083 -2.1861553 0.023529412
2.7027826 -23.352131 -2.1919885 0.015686275
20.597702 -95.908577 2.2889123 0.074509807
6.8162899 -59.476574 0.70097429 0.027450981
5.2963109 -24.511461 -1.7510353 0.0039215689
5.3896356 -20.099638 -1.3314286 0.44313726
0.80811983 -4.6709609 0.19274475 0
9.0830278 -42.180695 -2.006429 0.015686275
3.5474813 -21.406502 -1.1352005 0.0039215689
2.5304773 -21.838568 -0.76598942 0.047058824
1.6475552 -9.7989063 1.8099614 0
0.79313117 -4.6874638 -2.2110195 0.078431375
1.3494127 -6.2056718 -1.7735832 0.086274512
1.6312455 -9.9280376 -2.0093114 0.023529412
20.282785 -96.15818 0.0066373483 0.22745098
6.8596935 -61.87458 -0.72031474 0.047058824
2.389678 -11.147992 -1.7709798 0.043137256
2.8847899 -17.766338 -2.28843 0.027450981
14.807357 -56.333515 0.34217742 0.039215688
14.507668 -90.442261 -0.52597845 0.16078432
4.2268062 -19.876295 -2.1861527 0.031372551
2.5421879 -22.680811 -2.1280906 0.0078431377
6.6017709 -59.532799 0.70135546 0.027450981
5.1522126 -24.272837 -1.7326347 0.0039215689
15.782815 -98.415123 1.7464859 0.10980392
5.3230319 -20.146124 -1.3332145 0.74901962
1.1061779 -5.0497003 0.30037034 0
15.774108 -98.360214 4.0649238 0.24705882
2.4561262 -21.899189 -0.76779807 0.047058824
12.494615 -59.156666 -1.4025838 0.050980393
0.77591795 -4.6791754 -2.2059484 0.078431375
7.9641156 -30.636961 -0.55032903 0.019607844
3.4549708 -21.794395 -0.64049506 0.0039215689
1.326501 -6.1986494 -1.7703482 0.082352944
1.5946919 -9.909997 -2.0046055 0.023529412
