# .PCD v0.7 - Point Cloud Data file format
VERSION 0.7
FIELDS x y z intensity
SIZE 4 4 4 4
TYPE F F F F
COUNT 1 1 1 1
WIDTH 1084
HEIGHT 1
VIEWPOINT 0 0 0 1 0 0 0
POINTS 1084
DATA ascii
-1.4467747 7.8973155 -0.5124917 0.40000001
-0.27700192 7.9360676 -0.46112537 0.29411766
-1.0551224 7.9166436 0.46545425 0.43137255
-0.66711944 7.952673 0.32596552 0.10588235
-1.0598359 7.9572883 -0.37232134 0.44705883
-0.66893107 7.980341 -0.41819084 0.43921569
-1.0568408 7.9299974 0.9818458 0.39607844
-0.66464627 7.9169264 0.64910358 0.40392157
-1.4471121 7.8990536 -0.32551271 0.12941177
-0.2773166 7.9486432 -0.27646255 0.094117649
-1.0564003 7.9242749 2.1399209 0.2
-0.66561007 7.9281487 1.4504187 0.41568628
-1.0563505 7.9280028 -0.18478498 0.40784314
-0.4264065 4.8102951 -2.2475991 0.050980393
-1.4119065 7.8577428 -0.13809986 0.41960785
-0.63892066 7.9499264 -0.23078319 0.44705883
-0.9437148 7.207643 -2.0305574 0.054901961
-0.63003564 7.8224988 -1.5670435 0.047058824
-1.026633 7.9135427 0.0010448641 0.16862746
-0.24879023 7.9054999 -0.090860225 0.41176471
-1.0135641 7.8039374 -1.2214085 0.1254902
-0.6371004 7.9253697 -1.0100325 0.24705882
-1.421329 7.9140177 0.047601726 0.21568628
-0.63836694 7.9411597 -0.045137383 0.10588235
-1.0257604 7.9076467 -0.85658908 0.25882354
-0.24914601 7.9316306 -0.73937744 0.24705882
-1.0292042 7.9352074 0.18696642 0.2
-0.24956992 7.9454646 0.09372624 0.41960785
-1.0242704 7.8943419 -0.55477697 0.25882354
-0.63674682 7.919023 -0.64686406 0.42745098
-1.4228023 7.9226074 0.23473938 0.41960785
-0.63833088 7.9400582 0.14004646 0.40784314
-1.4172266 7.8901505 -0.51171935 0.26274511
-0.24936882 7.9406233 -0.46135181 0.29411766
-1.0265508 7.9119902 0.46499413 0.43137255
-0.63935155 7.9545975 0.32597128 0.10980392
-1.0283403 7.9288349 -0.37083009 0.43137255
-0.64079773 7.9782867 -0.41797623 0.43921569
-1.0282276 7.925395 0.98087579 0.39607844
-0.63754058 7.9267983 0.64976126 0.40784314
-1.4195269 7.9037018 -0.3255066 0.13725491
-0.24956536 7.9492073 -0.27645698 0.094117649
-1.0287282 7.9275575 2.1399269 0.19607843
-0.63792723 7.9300675 1.4504244 0.41176471
-1.0282024 7.9273143 -0.18468645 0.40784314
-0.4093821 4.8077826 -2.2459061 0.050980393
-1.3825378 7.8504257 -0.13788565 0.41960785
-0.61065555 7.9437718 -0.23054573 0.44705883
-0.91725022 7.1990566 -2.0273185 0.06666667
-0.60172486 7.8086376 -1.563902 0.054901961
-0.99900347 7.9167228 0.0010507687 0.16470589
-0.22125389 7.9099641 -0.090900719 0.41176471
-0.98587298 7.8031454 -1.2207882 0.13333334
-0.60968602 7.9311504 -1.0105313 0.22745098
-1.3930514 7.9146271 0.047584154 0.21176471
-0.60962069 7.9270172 -0.045040682 0.11764706
-0.9981519 7.9108233 -0.85658318 0.41176471
-0.22145844 7.9320974 -0.7393719 0.26666668
-1.0010486 7.934422 0.18687882 0.22352941
-0.22177327 7.9419327 0.093684673 0.40784314
-0.99625903 7.893549 -0.55449253 0.27450982
-0.60961044 7.9288006 -0.64750832 0.42745098
-1.394495 7.923224 0.23462871 0.41960785
-0.61086667 7.9458728 0.14012252 0.40000001
-1.3890338 7.8907533 -0.5114578 0.26666668
-0.22158948 7.9370975 -0.46111429 0.29411766
-0.99982578 7.9231052 0.46546608 0.43137255
-0.61158091 7.9564247 0.32597703 0.10980392
-0.99975777 7.9240799 -0.37045285 0.42745098
-0.61141306 7.9562011 -0.41671744 0.43137255
-1.0010033 7.9325252 0.98136973 0.40000001
-0.61114132 7.9485121 0.65139681 0.43137255
-1.3912859 7.9043083 -0.32533813 0.14117648
-0.22193681 7.9576688 -0.27672952 0.090196081
-1.0006135 7.9269042 2.1388972 0.20784314
-0.6094867 7.9201083 1.4482764 0.40000001
-1.0005249 7.9304996 -0.18468054 0.41568628
-0.39347059 4.8233027 -2.2526624 0.043137256
-1.3551228 7.8548484 -0.13787961 0.41960785
-0.5824362 7.9375176 -0.23030831 0.44705883
-0.89169264 7.1980314 -2.0262356 0.070588239
-0.57493496 7.8181667 -1.5654643 0.054901961
-0.97135925 7.9198065 0.0010566626 0.15686275
-0.19373091 7.9183311 -0.09098725 0.41176471
-0.95905715 7.8101139 -1.2213968 0.16078432
-0.5819943 7.9328747 -1.0105256 0.21568628
-1.364782 7.9151363 0.047566567 0.19215687
-0.58194298 7.928741 -0.045034971 0.11372549
-0.96966094 7.9059982 -0.85572141 0.39607844
-0.1937196 7.9284844 -0.73899508 0.23921569
-0.97246981 7.9295621 0.18669768 0.22352941
-0.19409223 7.946301 0.093737319 0.39607844
-0.96869606 7.8966241 -0.55448669 0.29411766
-0.58144504 7.922565 -0.64685267 0.42745098
-1.3668256 7.9276876 0.2346348 0.41960785
-0.58288133 7.9436097 0.14005792 0.39607844
-1.3621073 7.8991413 -0.51170719 0.40000001
-0.19387917 7.9374666 -0.46110874 0.29411766
-0.97041589 7.9103131 0.46453989 0.43137255
-0.58355874 7.9541655 0.32581943 0.10196079
-0.97165221 7.9231949 -0.37026131 0.42352942
-0.58339232 7.9539442 -0.41650289 0.40392157
-0.97287011 7.9316678 0.98088759 0.26666668
-0.58338815 7.9502406 0.65140253 0.43137255
-1.3636829 7.9087615 -0.32533205 0.14901961
-0.19410825 7.954042 -0.27658495 0.090196081
-0.97208911 7.9223118 2.1368318 0.20392157
-0.58254623 7.9336138 1.4504359 0.41176471
-0.97196007 7.9256392 -0.18448947 0.40784314
-0.37705851 4.8170066 -2.249279 0.050980393
-1.3296812 7.8629141 -0.13794327 0.42352942
-0.55587924 7.9350772 -0.23018703 0.4509804
-0.86781567 7.200613 -2.0262303 0.082352944
-0.54900289 7.8196945 -1.565459 0.050980393
-0.94466388 7.9186687 0.0010617799 0.15294118
-0.16746803 7.9185925 -0.09098202 0.41176471
-0.9323132 7.8050542 -1.2201625 0.14509805
-0.55545491 7.9304638 -1.0100156 0.44313726
-1.337289 7.911377 0.047524977 0.18431373
-0.55610037 7.9382772 -0.045075029 0.11764706
-0.94427669 7.9167428 -0.85657173 0.42352942
-0.16745625 7.9327283 -0.73936111 0.25882354
-0.94616538 7.9324059 0.18670328 0.23921569
-0.16770336 7.9425645 0.093695447 0.39607844
-0.94250113 7.8994555 -0.55448109 0.29411766
-0.55539393 7.9280939 -0.64717215 0.42745098
-1.3392912 7.9239378 0.23440698 0.41960785
-0.55653238 7.9451618 0.14006335 0.39607844
-1.3340544 7.8914466 -0.51093525 0.40000001
-0.16761908 7.9457164 -0.46156752 0.29411766
-0.94502038 7.921092 0.46501154 0.43137255
-0.55694634 7.9517298 0.32566151 0.10196079
-0.94410068 7.9141169 -0.36969876 0.41568628
-0.55655307 7.9475222 -0.41607979 0.41568628
-0.94571787 7.9266176 0.97991735 0.26666668
-0.55565017 7.9279127 0.64945215 0.41568628
-1.3368288 7.9089537 -0.32516384 0.16862746
-0.1677601 7.9583025 -0.27671874 0.094117649
-0.94621688 7.9289947 2.1378729 0.20392157
-0.55600488 7.9312363 1.4497234 0.40392157
-0.94566876 7.9284816 -0.18448389 0.40392157
-0.35978836 4.8252249 -2.2526555 0.047058824
-1.3002509 7.8634071 -0.13786757 0.42352942
-0.52679229 7.9366875 -0.23018105 0.4509804
-0.84181279 7.2072048 -2.0273025 0.082352944
-0.52033955 7.8212814 -1.5654531 0.047058824
-0.91563433 7.9217043 0.001067941 0.14901961
-0.13842559 7.9147801 -0.090930246 0.41568628
-0.90329707 7.8041139 -1.219542 0.14117648
-0.52723348 7.9479222 -1.0120279 0.44705883
-1.307681 7.9118977 0.047507659 0.16078432
-0.52636009 7.927906 -0.045000859 0.12156863
-0.91525459 7.9197779 -0.85656554 0.42352942
-0.13838081 7.9329157 -0.73935539 0.23921569
-0.91749394 7.9394245 0.18680297 0.39607844
-0.13860993 7.9467516 0.093748353 0.29411766
-0.91394997 7.9064531 -0.55475348 0.41176471
-0.52611971 7.9257212 -0.64684129 0.41568628
-1.3084325 7.9165621 0.23406295 0.41960785
-0.5274083 7.946774 0.14006932 0.39607844
-1.310534 7.9314256 -0.5132274 0.41960785
-0.13849591 7.9459038 -0.46156174 0.29411766
-0.9155736 7.9201555 0.46478465 0.43137255
-0.52779812 7.9533439 0.3256675 0.10588235
-0.91590446 7.9250998 -0.3700639 0.40784314
-0.52742064 7.9491353 -0.4160738 0.40000001
-0.91665864 7.9296556 0.97992355 0.39607844
-0.52722871 7.9414644 0.65043604 0.43137255
-1.3066282 7.9055247 -0.32483274 0.18431373
-0.13859071 7.9584904 -0.27671295 0.090196081
-0.91675335 7.9281912 2.1368434 0.21960784
-0.52714169 7.9367747 1.4504472 0.40784314
-0.91660333 7.9315205 -0.18447772 0.26666668
-0.34257966 4.8188553 -2.2492721 0.043137256
-1.272791 7.8675427 -0.13786156 0.41960785
-0.49928123 7.9421158 -0.23029123 0.4509804
-0.81702733 7.2135787 -2.0283751 0.070588239
-0.49283636 7.8187776 -1.5646635 0.05882353
-0.88757843 7.920517 0.0010733202 0.14509805
-0.11078894 7.9108596 -0.090878762 0.40784314
-0.87565708 7.8029313 -1.2189219 0.13725491
-0.49809629 7.921618 -1.0084902 0.44705883
-1.278874 7.9081454 0.047466327 0.15294118
-0.49887967 7.9333339 -0.045017913 0.13333334
-0.88720822 7.918612 -0.85613179 0.41960785
-0.11069009 7.9369783 -0.73972106 0.23921569
-0.88937616 7.9382443 0.18671532 0.39607844
-0.11087061 7.9508309 0.093800962 0.29019609
-0.88555479 7.901299 -0.55419058 0.40784314
-0.50023997 7.9629908 -0.64976007 0.50588238
-1.2807869 7.9207253 0.234069 0.41960785
-0.49926221 7.9402218 0.13993435 0.39607844
-1.276374 7.8921652 -0.51041204 0.39607844
-0.11075975 7.9499764 -0.46178824 0.28235295
-0.88752353 7.9189744 0.46455747 0.43137255
-0.50022852 7.9587731 0.32583657 0.10980392
-0.88823169 7.9278941 -0.37005806 0.39607844
-0.49966639 7.9505725 -0.41606814 0.26666668
-0.8893612 7.9364014 0.98041731 0.39607844
-0.49870342 7.9269729 0.64913779 0.43137255
-1.2784331 7.9057288 -0.32466426 0.20392157
-0.11080606 7.95857 -0.27670744 0.086274512
-0.8886869 7.9271407 2.1358135 0.2
-0.49903613 7.9303498 1.449017 0.39607844
-0.88851333 7.930337 -0.18437926 0.40000001
-0.32575953 4.8196673 -2.2492685 0.043137256
-1.2464741 7.8794971 -0.13799432 0.43137255
-0.47174489 7.9474483 -0.23040141 0.4509804
-0.79221332 7.2198672 -2.0294476 0.070588239
-0.4655453 7.8200955 -1.5646579 0.054901961
-0.8599292 7.9232106 0.0010791607 0.14509805
-0.083178215 7.9108429 -0.090873308 0.41568628
-0.84841883 7.8055854 -1.2189161 0.14509805
-0.47063041 7.9269166 -1.0089892 0.21960784
-1.2518406 7.9161634 0.047496036 0.13725491
-0.47100216 7.9306755 -0.04498953 0.12941177
-0.85843009 7.9094286 -0.85484225 0.42352942
-0.082979053 7.9409437 -0.74008679 0.21568628
-0.86242658 7.9489059 0.18690823 0.40784314
-0.083120286 7.9508138 0.093806446 0.24313726
-0.85797292 7.9039865 -0.55418473 0.40784314
-0.47225988 7.9603505 -0.64942944 0.47058824
-1.2531345 7.9247913 0.23407502 0.42352942
-0.47173244 7.9455552 0.14001036 0.39607844
-1.2482479 7.8922663 -0.51015067 0.40000001
-0.083031632 7.9419723 -0.46131876 0.29411766
-0.85835809 7.9057679 0.46363115 0.43137255
-0.47244799 7.960115 0.32584223 0.11372549
-0.86055684 7.9305902 -0.37005219 0.39607844
-0.47191483 7.9519124 -0.41606244 0.40000001
-0.86127794 7.9351492 0.97993523 0.26666668
-0.47066289 7.9203448 0.6484915 0.43137255
-1.2502588 7.9058323 -0.32449588 0.21176471
-0.083028913 7.9585528 -0.27670196 0.094117649
-0.86064541 7.9259911 2.134784 0.21568628
-0.47135419 7.9316864 1.4490228 0.39607844
-0.86082995 7.9330344 -0.18437342 0.39607844
-0.30711234 4.816771 -2.2476006 0.050980393
-1.2194864 7.8951521 -0.13823116 0.43529412
-0.4425056 7.94066 -0.23020221 0.44705883
-0.76503563 7.2144585 -2.0273201 0.06666667
-0.43775728 7.8369465 -1.5678258 0.035294119
-0.83111238 7.9257021 0.0010485194 0.13333334
-0.054384418 7.914753 -0.090953536 0.40784314
-0.81999862 7.8080354 -1.2189463 0.13725491
-0.44215056 7.9360399 -1.0100309 0.18039216
-1.222483 7.9159975 0.047443561 0.13725491
-0.44233555 7.9358702 -0.045044739 0.14509805
-0.83039403 7.9198313 -0.85572863 0.41960785
-0.054111004 7.9408517 -0.74012113 0.19215687
-0.83352351 7.951406 0.18687752 0.41568628
-0.054215562 7.9507251 0.093772098 0.23529412
-0.82958925 7.9104428 -0.55449384 0.41568628
-0.4433248 7.9615512 -0.64946204 0.50588238
-1.2237475 7.9246311 0.23392944 0.41960785
-0.44284287 7.9467578 0.13997783 0.39607844
-1.2195342 7.8960462 -0.5101794 0.24313726
-0.054136124 7.9458752 -0.4615851 0.25490198
-0.83069849 7.9201846 0.46429965 0.43137255
-0.44316402 7.9533343 0.32548296 0.11764706
-0.83135009 7.9291039 -0.36989722 0.26666668
-0.44231701 7.9371495 -0.41525963 0.56862748
-0.83278191 7.9416018 0.98039252 0.39607844
-0.44185472 7.921545 0.64845902 0.43137255
-1.2226218 7.9175344 -0.32484946 0.24313726
-0.054100197 7.9584627 -0.27673632 0.094117649
-0.8318094 7.9284925 2.1347535 0.22352941
-0.44250461 7.9328923 1.4489902 0.29411766
-0.8319813 7.9355283 -0.18440409 0.39607844
-1.1916318 7.9071279 -0.13836376 0.43921569
-0.41260538 7.9218884 -0.22961716 0.45490196
-0.73892558 7.2206883 -2.0283926 0.062745102
-0.40856326 7.8263779 -1.5654683 0.035294119
-0.80170095 7.924346 0.0010540253 0.13333334
-0.025296733 7.9225335 -0.091039985 0.40392157
-0.79102349 7.8066874 -1.218326 0.12941177
-0.41290075 7.933279 -1.0095205 0.15294118
-1.1929102 7.9160986 0.047426052 0.13333334
-0.41308451 7.9330773 -0.045016214 0.14901961
-0.80100667 7.9184971 -0.85529476 0.41960785
-0.025002785 7.9406328 -0.74011552 0.19215687
-0.80437088 7.9540429 0.18688351 0.41960785
-0.025108121 7.946506 0.093730599 0.22745098
-0.79988289 7.905117 -0.55393076 0.41960785
-0.41272092 7.9269056 -0.6465317 0.41176471
-1.1941433 7.9247384 0.23381881 0.41960785
-0.41370988 7.9479632 0.13998362 0.40392157
-1.190582 7.9000988 -0.5101732 0.39607844
-0.024971969 7.9496489 -0.46181148 0.27058825
-0.80095506 7.914856 0.46383956 0.43137255
-0.41416478 7.9585342 0.32565212 0.12156863
-0.80192673 7.927753 -0.36970556 0.24705882
-0.41400844 7.9583111 -0.416298 0.59607846
-0.80261314 7.9323721 0.97893465 0.39607844
-0.41328666 7.9346976 0.64944273 0.43921569
-1.1935909 7.9215984 -0.32484329 0.24313726
-0.02488979 7.9622407 -0.27686974 0.094117649
-0.80308104 7.9349699 2.1357946 0.22352941
-0.41342181 7.9340954 1.4489961 0.29019609
-0.80253398 7.9341769 -0.18430552 0.26666668
-0.27289742 4.8253837 -2.2509739 0.062745102
-1.1645573 7.9148569 -0.13842729 0.43921569
-0.38595873 7.9509039 -0.23042263 0.59215689
-0.71339083 7.2190394 -2.0273097 0.062745102
-0.38138372 7.8313303 -1.5662469 0.035294119
-0.77437437 7.9307351 0.0010601773 0.1254902
0.0022552609 7.914228 -0.090942651 0.40392157
-0.76343405 7.8051167 -1.217706 0.12156863
-0.3854923 7.9422565 -1.0105242 0.13725491
-1.1652709 7.9198675 0.047431909 0.12941177
-0.77268744 7.9129729 -0.85443324 0.41960785
0.0026635975 7.9363432 -0.739739 0.19607843
-0.77558398 7.9445014 0.18660863 0.41960785
0.0026303604 7.9461985 0.093735918 0.19607843
-0.77228451 7.9075146 -0.5539251 0.41960785
-0.38476178 7.9199834 -0.64587629 0.40392157
-1.1654071 7.9205866 0.23359108 0.41960785
-0.38581991 7.945015 0.13991882 0.40392157
-1.1629989 7.9038606 -0.51016736 0.39607844
0.0028285235 7.9533343 -0.46203819 0.24705882
-0.77366078 7.9212346 0.46407825 0.43137255
-0.3866699 7.9675722 0.32598433 0.13333334
-0.77492678 7.9381194 -0.3700712 0.21960784
-0.38550743 7.9394011 -0.41524833 0.56862748
-0.77491879 7.9347773 0.97894031 0.39607844
-0.3851558 7.9237919 0.64847034 0.44705883
-1.1643336 7.9134865 -0.32435024 0.24313726
0.0029547811 7.96593 -0.2770035 0.094117649
-0.77537715 7.937376 2.1358004 0.22352941
-0.38586554 7.9390745 1.4497194 0.24313726
-0.77483404 7.9365826 -0.18429983 0.40000001
-0.25761837 4.8222828 -2.2492809 0.05882353
-1.1381238 7.9062676 -0.1382139 0.43921569
-0.36084715 7.9477692 -0.23030181 0.45490196
-0.69070888 7.2209334 -2.0273049 0.070588239
-0.35677981 7.8321786 -1.566242 0.035294119
-0.74945557 7.932816 0.0010652797 0.1254902
0.027182251 7.9178686 -0.090983905 0.40000001
-0.73891044 7.8071647 -1.217701 0.13333334
-0.36014855 7.9312191 -1.0090054 0.1254902
-1.1383003 7.9073133 0.047342435 0.1254902
-0.35993707 7.9189925 -0.044914853 0.4509804
-0.74814939 7.919013 -0.85485613 0.40784314
0.027723283 7.9439483 -0.74047667 0.19215687
-0.7506218 7.9465861 0.18661374 0.41960785
0.027721748 7.9538369 0.093834937 0.17647059
-0.74743879 7.9095893 -0.55392003 0.40784314
-0.36001 7.9248261 -0.64619631 0.39607844
-1.1399974 7.9199319 0.23347954 0.42352942
-0.35980594 7.9138985 0.13936116 0.44705883
-1.1381629 7.9071627 -0.51016212 0.39607844
0.027750418 7.9489813 -0.46180138 0.23137255
-0.74877167 7.9233131 0.46408334 0.43137255
-0.36150572 7.9644403 0.32582596 0.13725491
-0.74933243 7.9322381 -0.36969477 0.20784314
-0.36213928 7.9881706 -0.41774938 0.43921569
-0.75031126 7.9408169 0.97943342 0.26666668
-0.36026046 7.9246507 0.64847523 0.44705883
-1.1384262 7.9088669 -0.32402018 0.24313726
0.027916268 7.9615717 -0.27685964 0.094117649
-0.74980509 7.9317589 2.1337345 0.21568628
-0.36066282 7.9320693 1.4482886 0.25882354
-0.74957037 7.93468 -0.18420215 0.40000001
-0.24078216 4.8228073 -2.2492776 0.050980393
-1.1100081 7.905879 -0.13813873 0.43921569
-0.33286357 7.94064 -0.23006466 0.44705883
-0.66579735 7.2267962 -2.0283778 0.074509807
-0.32920516 7.8251886 -1.5646687 0.039215688
-0.72206938 7.9390249 0.0010714189 0.1254902
0.054668412 7.9093814 -0.0908866 0.40000001
-0.71134198 7.8054109 -1.217081 0.13333334
-0.33257467 7.936049 -1.0095047 0.11764706
-1.1106881 7.910892 0.047348261 0.11372549
-0.33228889 7.9198542 -0.044909384 0.45490196
-0.71956658 7.9093356 -0.85356671 0.40784314
0.055455953 7.9434566 -0.74047136 0.2
-0.72350013 7.9567842 0.18680647 0.42352942
0.055645034 7.9613428 0.093934484 0.18039216
-0.71982133 7.9118037 -0.55391437 0.41176471
-0.33245885 7.9296732 -0.64651579 0.40000001
-1.1123409 7.9235163 0.23348539 0.42352942
-0.332293 7.9187565 0.13943695 0.44705883
-1.1105514 7.9107413 -0.51015627 0.24313726
0.05557856 7.9524822 -0.46202812 0.24313726
-0.72079349 7.9215512 0.46385598 0.43137255
-0.7216357 7.9344587 -0.36968911 0.18039216
-0.33401498 7.9810529 -0.41732618 0.43921569
-0.72196293 7.9351239 0.97846323 0.26666668
-0.33270943 7.9294977 0.64880675 0.44705883
-1.110302 7.9084826 -0.32385194 0.24313726
0.055710658 7.9610791 -0.27685431 0.094117649
-0.72180665 7.9301271 2.1327043 0.21568628
-0.33308405 7.9368649 1.449012 0.23529412
-0.72123981 7.9289284 -0.18401134 0.40392157
-0.2231977 4.8269191 -2.2509639 0.039215688
-1.0790544 7.8936534 -0.13785514 0.43529412
-0.30375779 7.9414434 -0.23005892 0.44705883
-0.63901961 7.2249832 -2.0272944 0.082352944
-0.30052316 7.8259797 -1.5646629 0.039215688
-0.69296682 7.9412537 0.0010773507 0.1254902
0.083934695 7.9207597 -0.091019094 0.39607844
-0.68272972 7.8076019 -1.2170751 0.12941177
-0.30348611 7.936851 -1.009499 0.11764706
-1.0811933 7.9105759 0.047330674 0.12156863
-0.30367085 7.9366493 -0.044994563 0.25098041
-0.69086957 7.9155221 -0.85398871 0.40784314
0.084476933 7.9388552 -0.74009454 0.2
-0.69343817 7.9470553 0.18653181 0.41960785
0.085009277 7.968719 0.094034299 0.16862746
-0.69111609 7.918004 -0.55418706 0.43137255
-0.30318844 7.9225039 -0.6458602 0.40392157
-1.0832926 7.927175 0.2334915 0.41960785
-0.30295852 7.9075627 0.13923168 0.44313726
-1.0815501 7.9143939 -0.51015019 0.23921569
0.084632561 7.9478688 -0.46179053 0.23529412
-0.69205236 7.9277573 0.46409494 0.43137255
-0.30357641 7.9301538 0.32436705 0.45490196
-0.69255006 7.9366865 -0.36968318 0.16078432
-0.30486393 7.9858527 -0.41752923 0.43921569
-0.69346619 7.9452701 0.97944504 0.39607844
-0.30354142 7.9263139 0.64848644 0.44705883
-1.0818009 7.9161005 -0.32400826 0.24313726
0.085073724 7.968451 -0.27712685 0.090196081
-0.6930238 7.9362073 2.1337459 0.22352941
-0.30419406 7.9455347 1.4504535 0.23137255
-0.69336641 7.9471059 -0.1843757 0.42352942
-0.20642582 4.8309474 -2.252651 0.047058824
-1.053405 7.912909 -0.13812682 0.43921569
-0.27567601 7.9261179 -0.2295901 0.40392157
-0.61351991 7.2229824 -2.0262115 0.082352944
-0.27328777 7.8305569 -1.5654416 0.050980393
-0.66523886 7.9432774 0.0010829888 0.11764706
0.11169286 7.9240699 -0.091059841 0.40000001
-0.65546894 7.8095918 -1.2170696 0.11764706
-0.27586448 7.9414816 -1.009998 0.11764706
-1.0530913 7.9099836 0.047312785 0.11764706
-0.27587238 7.9333143 -0.044966392 0.21176471
-0.66323197 7.9175396 -0.8539831 0.42352942
0.11229759 7.9421463 -0.74046057 0.1882353
-0.66682649 7.9650359 0.18691161 0.43137255
0.11240253 7.952033 0.093851075 0.15294118
-0.66460347 7.9359431 -0.55529559 0.44313726
-0.27561718 7.9271526 -0.64617968 0.40392157
-1.0551327 7.9265924 0.2333805 0.41960785
-0.27668482 7.9682007 0.14029212 0.42745098
-1.053436 7.9138126 -0.50988901 0.20784314
0.11248508 7.95117 -0.46201727 0.25490198
-0.66437137 7.9297771 0.46410057 0.43137255
-0.27633399 7.9507966 0.32518926 0.45490196
-0.66427052 7.930738 -0.3693063 0.14509805
-0.2766276 7.9705477 -0.41668847 0.43921569
-0.66515934 7.9393744 0.9784748 0.39607844
-0.27595639 7.930963 0.6488179 0.45490196
-1.0541586 7.9194827 -0.32400244 0.24313726
0.11299823 7.971755 -0.2772606 0.090196081
-0.66531253 7.93823 2.1337516 0.21176471
-0.27636516 7.9422655 1.4497411 0.2
-0.66590226 7.9531202 -0.18446264 0.42352942
-0.19047353 4.8349032 -2.2543375 0.039215688
-1.0271593 7.916029 -0.13812132 0.44313726
-0.24976908 7.9466481 -0.23016413 0.43137255
-0.58982599 7.2284923 -2.0272844 0.10196079
-0.24724603 7.8271699 -1.5646524 0.043137256
-0.6386236 7.9411201 0.0010878452 0.1254902
0.13772963 7.9153309 -0.090962864 0.39607844
-0.62956858 7.8113942 -1.2170643 0.10196079
-0.24952871 7.9420247 -1.0099927 0.11764706
-1.0263896 7.9091296 0.047294583 0.11764706
-0.24963896 7.9378557 -0.04498395 0.23529412
-0.63724267 7.9233351 -0.85440564 0.41960785
0.13875283 7.9453816 -0.74082673 0.1882353
-0.64095175 7.974853 0.18710405 0.43137255
0.13925058 7.967279 0.094044596 0.15294118
-0.63801348 7.9337935 -0.55501169 0.44313726
-0.24925338 7.923708 -0.64584959 0.40784314
-1.0279106 7.9217758 0.23315239 0.42352942
-0.25025994 7.9687452 0.14029731 0.42745098
-1.0271875 7.9169326 -0.50988352 0.19215687
0.13909024 7.9584069 -0.46247625 0.21568628
-0.63807166 7.9316077 0.4641059 0.43137255
-0.25004241 7.9553356 0.32535779 0.43921569
-0.63769722 7.9285817 -0.36911529 0.1254902
-0.25019518 7.9710922 -0.41668329 0.44313726
-0.63882756 7.9412069 0.9784801 0.39607844
-0.24995679 7.9474487 0.65012699 0.45490196
-1.027426 7.9186358 -0.32383454 0.24313726
0.13931285 7.967011 -0.27711657 0.090196081
-0.63976979 7.9516263 2.1368639 0.23921569
-0.25010028 7.9467425 1.4504641 0.18431373
-0.6400671 7.9629345 -0.1846424 0.42745098
-0.17263982 4.8279552 -2.2509542 0.047058824
-0.99678242 7.907454 -0.13790716 0.43921569
-0.220882 7.9631367 -0.23062176 0.44705883
-0.56381917 7.2379313 -2.0294347 0.094117649
-0.2185536 7.8276596 -1.5646468 0.047058824
-0.60976636 7.9470344 0.0010942289 0.13333334
0.16714656 7.9264002 -0.091095358 0.39607844
-0.60067797 7.809341 -1.2164441 0.10588235
-0.22029409 7.934586 -1.0089779 0.11764706
-0.99693978 7.9084997 0.047276951 0.12156863
-0.22047901 7.9343529 -0.044955537 0.22352941
-0.60768509 7.9173155 -0.853544 0.42352942
0.16787636 7.9444556 -0.74082124 0.1882353
-0.6101768 7.9528403 0.18654869 0.42352942
0.16832042 7.9623532 0.094002984 0.13333334
-0.60892701 7.9357142 -0.55500585 0.44313726
-0.22020665 7.9242048 -0.64584386 0.42352942
-0.99886525 7.9251251 0.23315847 0.41960785
-0.22104771 7.969244 0.14030303 0.42745098
-0.99771023 7.9163136 -0.5096221 0.17254902
0.16799322 7.9494977 -0.46200678 0.20784314
-0.6089927 7.9335284 0.46411178 0.43137255
-0.22100128 7.9638262 0.32569021 0.1882353
-0.60888588 7.9344888 -0.36929506 0.1254902
-0.22103554 7.975585 -0.41688636 0.44313726
-0.6097132 7.9431295 0.978486 0.40000001
-0.22057877 7.9320016 0.64882874 0.44705883
-0.99884307 7.9259548 -0.32399085 0.24313726
0.16851592 7.9660826 -0.27711102 0.090196081
-0.60937762 7.9342728 2.1316912 0.25882354
-0.22096807 7.9472399 1.4504699 0.1882353
-0.60984874 7.9488997 -0.18426625 0.42745098
-0.15658638 4.8245478 -2.2492611 0.039215688
-0.96967947 7.9024343 -0.13776298 0.44313726
-0.19452208 7.9674945 -0.23073244 0.44705883
-0.53981519 7.2394333 -2.0294299 0.086274512
-0.19259579 7.8280134 -1.5646418 0.047058824
-0.58316684 7.9446907 0.0010990571 0.12941177
0.19372573 7.9334679 -0.091182388 0.29411766
-0.57501876 7.8149056 -1.2170533 0.10980392
-0.19402876 7.9389129 -1.0094775 0.11764706
-0.97027111 7.9074569 0.04725872 0.12156863
-0.19411895 7.9307113 -0.044927683 0.23529412
-0.58094442 7.9110188 -0.85268289 0.42352942
0.19421974 7.9435263 -0.7408163 0.20392157
-0.58453012 7.966464 0.18683466 0.43137255
0.19487116 7.9654188 0.094055101 0.1254902
-0.58236587 7.9333773 -0.55472195 0.44313726
-0.19402339 7.9325352 -0.64648861 0.41568628
-0.97214139 7.924089 0.23304713 0.41960785
-0.19457185 7.9656043 0.14023785 0.42745098
-0.97145367 7.9192491 -0.50961661 0.16862746
0.19464833 7.9565482 -0.46246576 0.21568628
-0.58268082 7.9351735 0.46411708 0.43137255
-0.19454333 7.9601893 0.32553199 0.1882353
-0.58257121 7.9361348 -0.36928976 0.11764706
-0.19453904 7.971951 -0.41667241 0.44313726
-0.58361065 7.9487405 0.97897917 0.40392157
-0.19417861 7.9243865 0.64818192 0.44705883
-0.97167957 7.9209485 -0.32366064 0.24313726
0.19463599 7.9571605 -0.27682796 0.086274512
-0.58376753 7.9474883 2.134804 0.21568628
-0.19461237 7.9475985 1.450475 0.17254902
-0.58494431 7.9744983 -0.18481629 0.43921569
-0.13890313 4.8247271 -2.2492576 0.050980393
-0.94113255 7.9095488 -0.13782631 0.44313726
-0.16521955 7.9557953 -0.23037927 0.44705883
-0.51261932 7.2294621 -2.0261912 0.086274512
-0.16390437 7.8283038 -1.5646362 0.050980393
-0.55404443 7.9464102 0.0011049238 0.13333334
0.22263944 7.9283433 -0.09113092 0.39607844
-0.54614699 7.8126512 -1.2164332 0.11764706
-0.16493061 7.9392076 -1.0094718 0.10980392
-0.9408592 7.9066176 0.047241043 0.11764706
-0.16511661 7.9390059 -0.044967443 0.28627452
-0.55149162 7.9047894 -0.85182124 0.42352942
0.22317064 7.9384184 -0.74043959 0.19215687
-0.55395722 7.9442344 0.18627925 0.42352942
0.22406438 7.9642868 0.0940606 0.11764706
-0.5528295 7.9271274 -0.55415905 0.44705883
-0.16494843 7.9328294 -0.64648294 0.42745098
-0.94309175 7.9272346 0.23305318 0.41960785
-0.16524282 7.9499025 0.13996215 0.43137255
-0.94242215 7.9223924 -0.50961053 0.14901961
0.22380877 7.9554181 -0.46246025 0.21176471
-0.55313671 7.9289184 0.46365684 0.43137255
-0.16530028 7.9524913 0.32521096 0.19607843
-0.55302393 7.9298739 -0.36891264 0.12941177
-0.16535254 7.9762411 -0.41687551 0.44313726
-0.55447292 7.9504609 0.97898507 0.40784314
-0.16516595 7.9286675 0.64851356 0.44705883
-0.94221878 7.9201188 -0.3234922 0.23137255
0.22428548 7.9680128 -0.27723959 0.094117649
-0.55441296 7.9453511 2.133774 0.23921569
-0.16548118 7.9478931 1.4504807 0.13725491
-0.55594105 7.980216 -0.18490295 0.43921569
-0.12205917 4.8248372 -2.2492545 0.05882353
-0.9135139 7.9124389 -0.13782057 0.43921569
-0.13744418 7.9559765 -0.23037387 0.44705883
-0.487791 7.2385554 -2.0283415 0.070588239
-0.13657472 7.8284817 -1.5646309 0.047058824
-0.5258702 7.9399605 0.0011095001 0.13725491
0.25049296 7.9311676 -0.091171719 0.39607844
-0.51886946 7.8141646 -1.2164277 0.11372549
-0.13723244 7.9433556 -1.0099708 0.10588235
-0.91365993 7.9134865 0.047270488 0.12156863
-0.13741893 7.9431858 -0.044984762 0.29411766
-0.52410549 7.9102917 -0.8522436 0.44705883
0.25123388 7.9452024 -0.74117678 0.17647059
-0.5268631 7.9577527 0.18656549 0.42352942
0.25186718 7.963109 0.094065815 0.11764706
-0.52515197 7.9286623 -0.5541535 0.44313726
-0.13725345 7.9330096 -0.64647758 0.42745098
-0.91541111 7.9301314 0.23305891 0.42352942
-0.13760284 7.9740801 0.14038962 0.43921569
-0.9147588 7.9252872 -0.50960481 0.13725491
0.25175637 7.958231 -0.46268705 0.19607843
-0.52566671 7.9344411 0.46389547 0.43137255
-0.13757454 7.9606657 0.32554308 0.2
-0.52533674 7.9314094 -0.36890706 0.1254902
-0.13752498 7.9804173 -0.41707891 0.44313726
-0.52692628 7.9559655 0.97947872 0.40784314
-0.13748488 7.9288478 0.64851892 0.44705883
-0.9145633 7.9230127 -0.32348648 0.22745098
0.25210112 7.966835 -0.27723435 0.094117649
-0.52687788 7.950748 2.1348155 0.22352941
-0.13767566 7.9362702 1.4483323 0.41176471
-0.52764916 7.9737754 -0.18471225 0.43921569
-0.10271876 4.8321466 -2.2526577 0.050980393
-0.88374716 7.9192338 -0.13792014 0.43921569
-0.10713495 7.9560771 -0.23040782 0.44705883
-0.45999706 7.2398787 -2.0283716 0.062745102
-0.1067176 7.8285751 -1.5646645 0.047058824
-0.49581414 7.945415 0.0010778832 0.13333334
0.28052348 7.9259157 -0.091161393 0.29019609
-0.48886037 7.8116479 -1.2158449 0.10588235
-0.10696595 7.9394851 -1.0095004 0.10196079
-0.88270241 7.9083414 0.047192886 0.1254902
-0.10714324 7.9352875 -0.044973239 0.39607844
-0.49455452 7.9236579 -0.85355932 0.44705883
0.2815007 7.9439421 -0.74121249 0.19607843
-0.49614221 7.9512281 0.18634625 0.41960785
0.28258091 7.9698386 0.094124265 0.10980392
-0.49533743 7.9380875 -0.55474257 0.44313726
-0.10701122 7.9211483 -0.64553666 0.42745098
-0.88439471 7.9249969 0.23279504 0.42352942
-0.10721304 7.962184 0.14014462 0.43529412
-0.88455343 7.9281058 -0.50963503 0.12156863
0.28225994 7.960958 -0.46295479 0.19607843
-0.49502665 7.9279251 0.46339729 0.43137255
-0.1072567 7.9687619 0.32583582 0.20392157
-0.49511164 7.9328661 -0.36893916 0.11764706
-0.10712602 7.9765224 -0.41690412 0.44313726
-0.49660903 7.9574318 0.97944659 0.40784314
-0.10726643 7.9289517 0.64848506 0.44705883
-0.8839699 7.9218535 -0.3233543 0.20784314
0.28244573 7.9655728 -0.27727017 0.090196081
-0.49637967 7.9483595 2.1337473 0.22352941
-0.10742752 7.9363775 1.4482983 0.42352942
-0.49767601 7.9832277 -0.18492958 0.44313726
-0.085859708 4.8285131 -2.2509644 0.047058824
-0.85571724 7.9179511 -0.13784519 0.43921569
-0.079362758 7.9560642 -0.23040257 0.44705883
-0.43454391 7.2372551 -2.0272887 0.070588239
-0.079391047 7.8285627 -1.5646594 0.050980393
-0.46807665 7.9467583 0.0010833093 0.14509805
0.30859637 7.9325385 -0.091248341 0.39607844
-0.46159047 7.8129687 -1.2158396 0.13333334
-0.079252027 7.9394722 -1.0094951 0.10196079
-0.8547104 7.9070539 0.047174767 0.13333334
-0.079425924 7.9432745 -0.045013439 0.40000001
-0.46652251 7.9170532 -0.85269809 0.44705883
0.30943125 7.9465508 -0.74157864 0.18431373
-0.46819788 7.9485784 0.18625814 0.41960785
0.31060302 7.9724593 0.094176471 0.10588235
-0.46688139 7.9234862 -0.55362302 0.4509804
-0.079361133 7.9211354 -0.64553142 0.42745098
-0.85634464 7.923717 0.23268382 0.42352942
-0.079419352 7.9621711 0.14014988 0.43921569
-0.85573196 7.9188862 -0.50886333 0.1254902
0.31004673 7.9595857 -0.46294972 0.18431373
-0.46716368 7.9252772 0.46316966 0.43137255
-0.079431213 7.9727459 0.32600442 0.21176471
-0.46779096 7.9421906 -0.36930501 0.11764706
-0.079264894 7.9844985 -0.4173165 0.44313726
-0.46882915 7.9587774 0.97945201 0.41176471
-0.0795798 7.9329257 0.64881635 0.44705883
-0.85631245 7.9245524 -0.32334873 0.21176471
0.31024867 7.9642 -0.2772651 0.086274512
-0.46845049 7.9458442 2.1327169 0.21960784
-0.079740353 7.9284945 1.4468675 0.42352942
-0.46943361 7.9765887 -0.18473901 0.44705883
-0.069847867 4.8284512 -2.2509613 0.047058824
-0.82908762 7.9164405 -0.13777053 0.43921569
-0.052913148 7.9679575 -0.23074509 0.44705883
-0.41037607 7.234488 -2.0262065 0.078431375
-0.053409245 7.8323855 -1.5654384 0.047058824
-0.44172192 7.9479461 0.0010884533 0.15294118
0.33489972 7.9311509 -0.09124355 0.29019609
-0.43567985 7.8141365 -1.2158345 0.14901961
-0.052923996 7.9393706 -1.0094901 0.10196079
-0.82885349 7.9135065 0.047203757 0.14901961
-0.05310693 7.9391732 -0.044985749 0.29411766
-0.43940514 7.8983693 -0.85055339 0.42352942
0.33599728 7.9491363 -0.74194503 0.21568628
-0.44218361 7.957756 0.18645036 0.41960785
0.33638656 7.9590836 0.09403991 0.10588235
-0.44267869 7.9725084 -0.55696028 0.53725493
-0.0530717 7.9250207 -0.64585137 0.42745098
-0.83006406 7.9261913 0.23268913 0.42352942
-0.053037595 7.9580703 0.14008452 0.43529412
-0.83057046 7.9332838 -0.50962412 0.11372549
0.33622241 7.9542065 -0.46271294 0.1882353
-0.44053376 7.9184823 0.46270871 0.43137255
-0.052992269 7.9726439 0.32600942 0.23137255
-0.052831445 7.976408 -0.41689387 0.44313726
-0.44398355 7.9956632 0.98384875 0.43529412
-0.053272754 7.9328241 0.64882129 0.44705883
-0.82966131 7.9230475 -0.32318106 0.21176471
0.33687413 7.9667974 -0.2773993 0.090196081
-0.44226551 7.9508915 2.1337581 0.21960784
-0.053382948 7.9401979 1.4490265 0.13725491
-0.44246006 7.965795 -0.18445615 0.44705883
-0.052150913 4.8283215 -2.250958 0.043137256
-0.80006719 7.9190712 -0.13776469 0.43921569
-0.023819357 7.9557486 -0.2303921 0.44705883
-0.38370609 7.2317405 -2.0251234 0.070588239
-0.024738938 7.8282523 -1.564649 0.047058824
-0.41242981 7.9451594 0.0010936309 0.14901961
0.36443043 7.9375014 -0.091330253 0.29411766
-0.40719426 7.8192759 -1.2164434 0.14901961
-0.023825154 7.9391575 -1.0094848 0.10196079
-0.79984379 7.9161358 0.047209594 0.14901961
-0.024008356 7.9389601 -0.044980269 0.40392157
-0.41092712 7.9114933 -0.8518315 0.42352942
0.36489832 7.9435215 -0.74156857 0.17647059
-0.41285557 7.9549718 0.18636249 0.41960785
0.36578763 7.9614344 0.094092339 0.10588235
-0.41171455 7.9298644 -0.55389076 0.4509804
-0.023915298 7.9367676 -0.64682066 0.42745098
-0.80065399 7.9248424 0.23257817 0.42352942
-0.023796268 7.9658546 0.1402307 0.43921569
-0.80042946 7.9239907 -0.50885218 0.11764706
0.36560506 7.956552 -0.46293959 0.16862746
-0.41119117 7.9117079 0.46224824 0.43137255
-0.023880824 7.9604402 0.32552484 0.25098041
-0.41249359 7.9485793 -0.36947984 0.59215689
-0.023596585 7.976193 -0.41688836 0.44313726
-0.41451722 7.9929147 0.98336661 0.43529412
-0.024160571 7.9365969 0.64915276 0.44705883
-0.8009702 7.9296618 -0.32333758 0.23137255
0.36630321 7.9691453 -0.27753302 0.098039217
-0.41312033 7.9521027 2.1337638 0.23137255
-0.024207927 7.947854 1.4504678 0.10588235
-0.41151619 7.9230547 -0.18343233 0.56078434
-0.036137592 4.8281474 -2.2509551 0.047058824
-0.77311772 7.9133906 -0.13762072 0.43529412
0.0027164444 7.9674563 -0.23073463 0.44705883
-0.35986 7.2365031 -2.0261965 0.070588239
0.0012234896 7.82797 -1.5646442 0.050980393
-0.38593143 7.9421649 0.0010982527 0.40392157
0.3909989 7.9399199 -0.091371469 0.29019609
-0.38125932 7.8202624 -1.2164384 0.14509805
0.0026046708 7.9468069 -1.0104887 0.10196079
-0.77324432 7.9144382 0.047191154 0.15686275
0.0023718774 7.9426737 -0.044998035 0.41176471
-0.38483071 7.9164672 -0.85225427 0.42352942
0.39172989 7.9498963 -0.74230617 0.19607843
-0.38646996 7.955976 0.18636762 0.41960785
0.39219028 7.959856 0.09409713 0.10196079
-0.3852675 7.926877 -0.55360711 0.28235295
0.0024572909 7.9404688 -0.64714062 0.42745098
-0.77470666 7.9311166 0.23270024 0.42745098
0.0026232377 7.9655681 0.14023566 0.42745098
-0.77380496 7.9223037 -0.50859147 0.11764706
0.39223623 7.9589605 -0.46316683 0.16470589
-0.38509423 7.9166975 0.46248639 0.43137255
0.0025208071 7.9601536 0.32552978 0.25490198
-0.38453156 7.9056597 -0.3674328 0.45490196
0.0028569698 7.9759059 -0.41688341 0.44313726
-0.38786101 7.9899569 0.98288381 0.43529412
0.0022118986 7.9402981 0.64948368 0.44705883
-0.77466661 7.931953 -0.32333231 0.23921569
0.39273131 7.9675651 -0.27752823 0.094117649
-0.38688409 7.9569674 2.1348045 0.21568628
0.0022015125 7.9515033 1.4511908 0.10588235
-0.38625443 7.9520292 -0.18407512 0.58823532
-0.018380776 4.8315196 -2.2526419 0.054901961
-0.74508268 7.9277735 -0.13782296 0.43529412
0.031857356 7.9630399 -0.23061332 0.44705883
-0.33345795 7.2412696 -2.0272691 0.05882353
0.030044228 7.8354034 -1.5662068 0.050980393
-0.35616183 7.9231815 0.0011013929 0.44313726
0.41958112 7.9300952 -0.091274224 0.29411766
-0.35246205 7.8173027 -1.2158184 0.14509805
0.031669945 7.9424224 -1.0099788 0.10588235
-0.74390179 7.9128771 0.047173258 0.17647059
0.031486675 7.9422565 -0.044992581 0.40784314
-0.35567981 7.9134941 -0.85182077 0.42352942
0.42138594 7.9560008 -0.7430433 0.18431373
-0.35625738 7.9250097 0.18562485 0.4509804
0.42188531 7.965992 0.094196685 0.094117649
-0.35620821 7.9278808 -0.5536015 0.28627452
0.031499222 7.9360652 -0.64681029 0.42745098
-0.74497712 7.9255767 0.23247242 0.42352942
0.031822056 7.9651494 0.14024113 0.42745098
-0.745085 7.9287095 -0.5088411 0.13333334
0.42218649 7.9690681 -0.46385747 0.16862746
-0.35659426 7.9336638 0.46342424 0.43921569
0.031764418 7.9637318 0.32569864 0.26666668
-0.35646433 7.9346151 -0.36872655 0.15294118
0.032157987 7.9794812 -0.41708675 0.43921569
-0.35856974 7.9909682 0.98288947 0.43529412
0.031125203 7.9279227 0.64851111 0.44705883
-0.74493474 7.9264169 -0.32300174 0.40784314
0.42271405 7.9776845 -0.27794001 0.098039217
-0.35771322 7.9579749 2.1348102 0.21176471
0.031349391 7.9510856 1.4511963 0.094117649
-0.35671055 7.9410458 -0.18379182 0.44313726
-0.0015876815 4.8275919 -2.2509484 0.054901961
-0.71802932 7.9379621 -0.13795613 0.43529412
0.059731603 7.9665399 -0.23072396 0.44705883
-0.30806786 7.2382021 -2.0261865 0.05882353
0.05754821 7.8427558 -1.5677694 0.050980393
-0.32908708 7.9440298 0.0011092559 0.47450981
0.44725949 7.9282436 -0.091269232 0.40000001
-0.32517323 7.8181481 -1.215813 0.15686275
0.059471339 7.9458928 -1.0104781 0.10196079
-0.71627641 7.9150872 0.047178775 0.19215687
0.059288502 7.9457593 -0.045010109 0.41176471
-0.3281711 7.9183254 -0.8522433 0.42352942
0.44888175 7.950171 -0.74266714 0.20392157
-0.32870874 7.9298635 0.18572377 0.4509804
0.44968909 7.9641328 0.094201699 0.094117649
-0.32853311 7.9287381 -0.55359614 0.29019609
0.05927895 7.9395552 -0.64713001 0.42352942
-0.71730733 7.9277911 0.23247795 0.42352942
0.059625253 7.9646516 0.14024633 0.43137255
-0.71678197 7.922965 -0.5083248 0.12156863
0.4500007 7.9672079 -0.46385244 0.15294118
-0.3291319 7.9425049 0.46389571 0.44313726
0.059562758 7.9632335 0.32570383 0.26666668
-0.32864892 7.931479 -0.36853558 0.12941177
0.060010955 7.9789824 -0.41708153 0.44313726
-0.33055761 7.9878635 0.9824068 0.43529412
0.059033558 7.9393845 0.64949429 0.44705883
-0.717574 7.9326153 -0.32315859 0.40392157
0.45001096 7.9678464 -0.27765694 0.094117649
-0.32981876 7.9549737 2.1337798 0.21176471
0.0591041 7.9505887 1.4512016 0.094117649
-0.33004045 7.977879 -0.1846194 0.44313726
0.015181243 4.8236079 -2.2492554 0.06666667
-0.69001478 7.9360952 -0.13788125 0.43529412
0.087728202 7.9739389 -0.2309504 0.44705883
-0.28279752 7.2388968 -2.0261817 0.05882353
0.084926993 7.8421702 -1.5677643 0.050980393
-0.30114591 7.9367948 0.0011135937 0.42745098
0.47579843 7.9382658 -0.091402203 0.39607844
-0.29797941 7.8228498 -1.2164223 0.15686275
0.087302342 7.9492664 -1.0109775 0.10196079
-0.6883415 7.9132123 0.04716057 0.17254902
0.087120086 7.9491644 -0.04502764 0.42745098
-0.30042362 7.9151096 -0.8518101 0.42352942
0.47663349 7.9482183 -0.74266213 0.21176471
-0.30091986 7.9266276 0.18563554 0.4509804
0.47806555 7.9701557 0.094300993 0.094117649
-0.30095392 7.9334888 -0.55386931 0.28235295
0.087088376 7.9429479 -0.64744979 0.42745098
-0.68962616 7.9299083 0.23248346 0.42745098
0.087430313 7.9640565 0.1402515 0.42745098
-0.68882054 7.9211006 -0.50806391 0.13333334
0.4775247 7.9612684 -0.46361548 0.14901961
-0.30047679 7.9073405 0.4618035 0.45882353
0.087547868 7.9706297 0.32603574 0.40000001
-0.30116302 7.9402289 -0.36890146 0.13333334
0.088050768 7.9863729 -0.41749391 0.44313726
-0.30236208 7.9767237 0.98094821 0.43529412
0.087027252 7.9507484 0.65047747 0.44313726
-0.69076967 7.9466906 -0.32364017 0.41568628
0.47811228 7.9698763 -0.27779096 0.094117649
-0.30214375 7.959599 2.1348209 0.20784314
0.086951613 7.953928 1.4519247 0.094117649
-0.30198133 7.9706497 -0.18442893 0.44313726
0.031272486 4.8268347 -2.2509425 0.05882353
-0.66397893 7.9420071 -0.13794537 0.43529412
0.11374673 7.9572954 -0.23048221 0.43921569
-0.25879183 7.2394748 -2.0261772 0.05882353
0.11082733 7.8376045 -1.5669756 0.050980393
-0.27536288 7.9614224 0.0011217087 0.2
0.50181878 7.9323339 -0.091351494 0.39607844
-0.27194852 7.8195224 -1.2158028 0.17254902
0.11366193 7.9486127 -1.0109726 0.10196079
-0.66209668 7.9151301 0.047165789 0.22352941
0.11326811 7.9405136 -0.04497733 0.41176471
-0.27426413 7.9197173 -0.85223293 0.42352942
0.50298762 7.9462729 -0.74265736 0.16470589
-0.27499115 7.9432521 0.18601485 0.43921569
0.5047937 7.9721932 0.094352886 0.090196081
-0.27464432 7.9341221 -0.55386424 0.26274511
0.11332165 7.9383092 -0.64711994 0.42745098
-0.66332591 7.9318304 0.23248869 0.42352942
0.11394526 7.9674001 0.14032678 0.42745098
-0.66254973 7.9230208 -0.50805867 0.14901961
0.5045234 7.9672842 -0.46407473 0.16862746
-0.27479056 7.9319248 0.46320695 0.52941179
0.11387317 7.9659791 0.32587731 0.40392157
-0.27447295 7.9248838 -0.36815396 0.13725491
0.11453365 7.9857159 -0.41748899 0.43921569
-0.27581939 7.9733911 0.98046535 0.43921569
0.11328708 7.9461093 0.65015638 0.43921569
-0.66526783 7.9605765 -0.32412201 0.42352942
0.50423753 7.9639397 -0.2776472 0.094117649
-0.27548605 7.948647 2.1317186 0.21568628
0.11322376 7.9493408 1.4512116 0.094117649
-0.27563789 7.9752836 -0.1845164 0.44313726
0.048965126 4.826334 -2.2509391 0.070588239
-0.63189006 7.9001403 -0.13717689 0.40784314
0.14327566 7.9684596 -0.23082425 0.44705883
-0.23225375 7.2400203 -2.0261719 0.070588239
0.13967384 7.8407121 -1.5677541 0.094117649
-0.24625243 7.966022 0.0011278223 0.23921569
0.53152353 7.9380603 -0.091438249 0.40000001
-0.24328382 7.8201122 -1.2157973 0.19607843
0.14279732 7.9477887 -1.0109671 0.098039217
-0.63307834 7.9171491 0.047171548 0.21568628
0.14321765 7.9676771 -0.04513083 0.43529412
-0.24530643 7.9242916 -0.85265529 0.42352942
0.53305495 7.9559321 -0.74376583 0.17647059
-0.24587224 7.943851 0.18602043 0.42352942
0.53369784 7.9659472 0.094310969 0.082352944
-0.24555923 7.9347205 -0.55385864 0.25490198
0.14265971 7.9454556 -0.64776438 0.42745098
-0.63397616 7.9298639 0.23237763 0.42352942
0.14363185 7.982564 0.14061362 0.42745098
-0.63377243 7.9290237 -0.50830829 0.15686275
0.53372484 7.9650269 -0.46406949 0.15294118
-0.24541345 7.9165525 0.46228024 0.45490196
0.14355426 7.981132 0.32653624 0.41568628
-0.24549651 7.9294772 -0.36833397 0.14509805
0.14380531 7.9848881 -0.41748357 0.43921569
-0.2464406 7.966054 0.97949505 0.43921569
0.14241408 7.9452848 0.6501618 0.43137255
-0.63662297 7.9705825 -0.32444093 0.43137255
0.53437322 7.9736385 -0.27805904 0.10588235
-0.24641904 7.9531093 2.1327598 0.24705882
0.14248137 7.9524493 1.4519349 0.098039217
-0.24640174 7.9758849 -0.18451078 0.44313726
0.065090522 4.8294487 -2.2526262 0.082352944
-0.60594589 7.9058614 -0.13724102 0.40000001
0.16943152 7.9596267 -0.23058772 0.43921569
-0.2083039 7.2442822 -2.027245 0.070588239
0.16567294 7.8398848 -1.5677493 0.043137256
-0.21983503 7.9664736 0.0011328815 0.23921569
0.55784392 7.9359331 -0.091433547 0.40392157
-0.21741164 7.8245072 -1.2164068 0.15294118
0.16901891 7.9429836 -1.0104578 0.10196079
-0.60656375 7.9148908 0.047153018 0.24705882
0.16950466 7.9628382 -0.045103244 0.43529412
-0.21915033 7.932693 -0.85350597 0.42352942
0.55976182 7.9577684 -0.74413228 0.1882353
-0.21996027 7.97229 0.18668045 0.43137255
0.56011075 7.9638119 0.094315685 0.098039217
-0.21924585 7.9351697 -0.55385363 0.23529412
0.16887318 7.9406333 -0.64743465 0.41960785
-0.60741937 7.9276109 0.23226601 0.42352942
0.17010202 7.9817219 0.14061852 0.42352942
-0.60721928 7.9267769 -0.5080477 0.17254902
0.56079108 7.97085 -0.46452868 0.14901961
-0.21946815 7.936965 0.46345061 0.4509804
0.17001976 7.9802899 0.32654116 0.41176471
-0.21932366 7.9379168 -0.36870018 0.13725491
0.17028295 7.9840455 -0.41747865 0.44313726
-0.22002266 7.9665055 0.97950011 0.43921569
0.1688941 7.948431 0.65049267 0.43137255
-0.60967493 7.9643512 -0.32411098 0.43137255
0.56114018 7.9754853 -0.27819332 0.10588235
-0.22010332 7.9574232 2.133801 0.24313726
0.16898371 7.9555426 1.4526578 0.10980392
-0.22001338 7.9803352 -0.18459825 0.44313726
0.082081616 4.8324785 -2.254313 0.06666667
-0.57883209 7.9155736 -0.13737424 0.29411766
0.19750966 7.9666405 -0.23081422 0.43921569
-0.18310793 7.2523317 -2.0293958 0.05882353
0.19318227 7.8428416 -1.5685283 0.047058824
-0.19216898 7.9788527 0.0011397438 0.28627452
0.58588469 7.9375849 -0.091474593 0.29411766
-0.19000432 7.8169761 -1.2151728 0.18039216
0.19688995 7.9459734 -1.0109572 0.094117649
-0.57917535 7.9206142 0.047182202 0.40784314
0.19700347 7.9538655 -0.045052722 0.42352942
-0.19150674 7.9370489 -0.85392857 0.41960785
0.58753556 7.9554286 -0.74412733 0.19215687
-0.19208282 7.9686718 0.18659219 0.43137255
0.58927703 7.9774103 0.094509251 0.098039217
-0.19154608 7.9355488 -0.55384833 0.23529412
0.19658957 7.9396577 -0.64742953 0.42745098
-0.57998633 7.9333348 0.2323883 0.42352942
0.19737156 7.9647546 0.14034222 0.40784314
-0.57930398 7.9245253 -0.50778693 0.19215687
0.58895296 7.972486 -0.46475574 0.15294118
-0.19176164 7.9373441 0.46345592 0.44705883
0.19787504 7.9793096 0.32654628 0.41176471
-0.19161421 7.9382958 -0.36869487 0.16078432
0.19844605 7.9910483 -0.41789111 0.43921569
-0.19207035 7.9549761 0.97804147 0.44313726
0.19737397 7.9673743 0.6521278 0.43137255
-0.58162802 7.9621029 -0.32394314 0.43529412
0.58863342 7.9691577 -0.27804935 0.10588235
-0.1921857 7.9462128 2.1306989 0.26274511
0.19646282 7.946701 1.4512271 0.13333334
-0.19215578 7.9807162 -0.18459293 0.43921569
0.10115872 4.8245873 -2.250957 0.070588239
-0.54820669 7.9092422 -0.13726741 0.26666668
0.22817357 7.9735689 -0.2310815 0.43921569
-0.15530381 7.2564507 -2.0305047 0.062745102
0.22324242 7.8457108 -1.5693474 0.047058824
-0.16178221 7.9791546 0.0011058861 0.30980393
0.61683524 7.9431324 -0.091603883 0.29411766
-0.16025582 7.8251724 -1.216435 0.17647059
0.22731514 7.9488759 -1.0114973 0.098039217
-0.54830229 7.9102902 0.047079198 0.40392157
0.22746189 7.9568028 -0.045111004 0.42745098
-0.16120315 7.9293919 -0.85310656 0.40784314
0.61889797 7.9649019 -0.74527836 0.17647059
-0.16169702 7.9649754 0.1864648 0.43137255
0.61929774 7.9709959 0.09442465 0.098039217
-0.16134696 7.939837 -0.55416065 0.22352941
0.22715624 7.9465647 -0.64811486 0.41568628
-0.54998434 7.9389858 0.23247322 0.41960785
0.22835384 7.9796791 0.14058799 0.41960785
-0.54910719 7.9261794 -0.50781882 0.2
0.6189543 7.9660759 -0.46456113 0.15294118
-0.16148415 7.9336538 0.46318915 0.4509804
0.2279395 7.9702616 0.32618386 0.39607844
-0.1613373 7.9345994 -0.36854294 0.14901961
0.22903262 7.9939737 -0.41813561 0.43921569
-0.16189694 7.9711614 0.97995955 0.44313726
0.22691591 7.9463997 0.65046221 0.4509804
-0.55152786 7.9677558 -0.32413751 0.43529412
0.61969322 7.97469 -0.27836481 0.10588235
-0.16190317 7.9465232 2.1306653 0.26666668
-0.16169588 7.9730206 -0.18444172 0.44313726
0.11816023 4.827498 -2.2526443 0.05882353
-0.52037644 7.906785 -0.13719277 0.24313726
0.2553063 7.9564157 -0.2306132 0.43529412
-0.12989523 7.2412128 -2.0261891 0.070588239
0.2506305 7.8445549 -1.5693424 0.043137256
-0.13398466 7.9913411 0.0011125816 0.30980393
0.64456165 7.9406013 -0.09159907 0.39607844
-0.13293695 7.8253555 -1.2164298 0.16470589
0.25523788 7.9516683 -1.0119967 0.094117649
-0.52046824 7.9078326 0.047060791 0.40392157
0.25471163 7.9436421 -0.045037888 0.41176471
-0.13352031 7.9295769 -0.85310137 0.40392157
0.64633101 7.9583983 -0.74490231 0.1882353
-0.13384987 7.9571643 0.18628286 0.43529412
0.64749211 7.9724379 0.09447661 0.094117649
-0.13362752 7.940022 -0.55415547 0.21176471
0.25489682 7.9453936 -0.64810985 0.41568628
-0.52226514 7.9405279 0.23247854 0.41960785
0.2556836 7.9665165 0.14038193 0.40784314
-0.52100366 7.9197464 -0.50730276 0.21568628
0.64676058 7.9635372 -0.46455634 0.15294118
-0.13378584 7.9338388 0.46319431 0.4509804
0.25611413 7.9770732 0.32651564 0.41176471
-0.13361633 7.930789 -0.3683522 0.16470589
0.25658792 7.9848156 -0.41771305 0.43921569
-0.13400824 7.9594369 0.97850078 0.42352942
0.25553137 7.9651418 0.65209717 0.42745098
-0.52263367 7.9493489 -0.32332033 0.42745098
0.64715934 7.9681687 -0.27822098 0.10980392
-0.13415921 7.9467082 2.1306703 0.26666668
0.25378925 7.9287534 1.4483246 0.25490198
-0.13388021 7.9772058 -0.18452908 0.44313726
0.13500768 4.8267283 -2.2526412 0.05882353
-0.49297875 7.9122167 -0.1372568 0.22352941
0.28345263 7.9631343 -0.23083986 0.43137255
-0.10461697 7.2374415 -2.0251064 0.06666667
0.27782083 7.8393855 -1.5685537 0.039215688
-0.10606962 7.97543 0.0011157232 0.30980393
0.67304051 7.9459357 -0.091686249 0.39607844
-0.10562511 7.8254423 -1.2164248 0.17254902
0.28317648 7.9543648 -1.0124964 0.10196079
-0.49306685 7.9132652 0.0470898 0.41176471
0.28262401 7.9463711 -0.045055624 0.40784314
-0.10584456 7.9296651 -0.85309625 0.39607844
0.6741026 7.9557652 -0.74489754 0.18039216
-0.10608324 7.9612513 0.18638156 0.43529412
0.67531306 7.9697995 0.094481431 0.094117649
-0.10590364 7.9321299 -0.55359328 0.21176471
0.28281444 7.9481082 -0.64842981 0.42745098
-0.49454832 7.9419723 0.23248386 0.41568628
0.28405488 7.9772305 0.14059798 0.42352942
-0.49255663 7.9052401 -0.50627601 0.41960785
