# .PCD v0.7 - Point Cloud Data file format
VERSION 0.7
FIELDS x y z intensity
SIZE 4 4 4 4
TYPE F F F F
COUNT 1 1 1 1
WIDTH 1121
HEIGHT 1
VIEWPOINT 0 0 0 1 0 0 0
POINTS 1121
DATA ascii
10.110287 15.995221 -0.21931334 0.019607844
5.8575816 11.700123 -2.0393033 0.05882353
5.0957608 9.0693541 -1.3275089 0
7.2926111 16.47963 0.10693422 0.039215688
11.700217 20.654881 -0.13634552 0.0039215689
7.8294969 15.589489 -1.8809723 0.0039215689
10.090144 15.964239 -1.7652339 0.023529412
10.34724 20.554338 0.53832579 0.0039215689
10.108216 15.991783 0.22216302 0.011764706
10.347745 20.556396 -1.6095897 0.0039215689
11.430068 20.181759 -1.8946252 0.0078431377
7.3272209 16.556828 0.52984124 0.031372551
14.507233 25.578871 0.51598978 0.0078431377
7.296977 16.490082 -1.1556133 0.011764706
10.10646 15.989585 -1.1024958 0.019607844
8.349844 16.614365 1.0867239 0.0078431377
12.417253 21.912228 1.0295076 0.0078431377
14.52273 25.606997 -1.5426956 0.0078431377
6.4342308 12.835635 1.7687498 0.011764706
8.1216583 14.376407 1.352543 0.027450981
10.108988 15.993368 -0.66066515 0.023529412
8.1751127 16.267845 4.88937 0.0039215689
9.1423197 16.166002 3.3945858 0.0039215689
2.305526 4.1429219 -2.2269218 0.054901961
3.5143666 7.0205917 -2.2059605 0.070588239
5.1224852 9.0467319 -2.0853581 0
10.423538 20.535992 0.0020477148 0.0078431377
10.424541 16.36875 -0.22494946 0.011764706
5.890945 11.669831 -2.0374689 0.070588239
11.784573 20.643475 -0.1365481 0.0039215689
7.8829513 15.566739 -1.8814136 0.015686275
10.437173 20.562401 0.5394277 0.0039215689
10.180615 15.988238 0.22256874 0.011764706
10.434004 20.557257 -1.6123949 0.0039215689
11.508833 20.164251 -1.8965944 0.0078431377
7.4018011 16.575939 0.53122711 0.031372551
14.623833 25.585875 0.5170871 0.0078431377
10.002047 15.710366 -1.085541 0.031372551
8.4248762 16.625454 1.0892701 0.011764706
12.424139 21.75633 1.0241106 0.0078431377
10.435619 20.560152 -1.0735645 0.0039215689
14.631425 25.600023 -1.5452281 0.0078431377
6.4731388 12.806916 1.7677637 0.0039215689
8.1871538 14.380269 1.3554611 0.027450981
11.677041 26.056662 -1.1619321 0.0078431377
9.9785166 15.673495 -0.64882231 0.015686275
8.2254896 16.233526 4.8872857 0.0039215689
9.2037115 16.149008 3.3974426 0.0039215689
10.431522 20.551874 -0.53505087 0.0039215689
2.3236077 4.1408625 -2.2303061 0.06666667
14.744879 25.589968 -0.85860366 0.0039215689
3.5441484 7.0182924 -2.2092011 0.06666667
5.1677938 9.0522938 -2.0908566 0
5.8936133 11.575161 -2.0245697 0.050980393
11.736363 25.945417 0.16828142 0.0039215689
7.928133 15.521191 -1.8792862 0.0039215689
10.563902 16.459982 -1.8280764 0.062745102
10.530884 20.568233 0.54052854 0.0039215689
10.740057 16.731678 0.23337977 0.031372551
12.037994 23.492552 -1.8460796 0.0039215689
7.4728746 16.578852 0.5321458 0.031372551
11.750066 25.976583 -1.8265885 0.0078431377
8.5029945 16.634726 1.0918159 0.011764706
12.435923 21.601892 1.0188756 0.0078431377
13.125667 25.601923 -1.3394721 0.0039215689
9.6243134 16.747568 -1.0126281 0.0039215689
6.5232677 12.794571 1.7692156 0.0039215689
8.261282 14.392743 1.3593553 0.027450981
11.759654 25.997292 -1.1611412 0.0078431377
8.3175287 16.27314 4.9079804 0.0039215689
9.2777824 16.147169 3.4038863 0.0039215689
13.134688 25.619099 -0.66842246 0.0039215689
2.3380492 4.1324663 -2.23031 0.06666667
9.3407841 20.492884 -0.39142308 0.0078431377
3.570405 7.0090351 -2.2102852 0.06666667
5.207273 9.0474901 -2.0940022 0
5.9339862 11.554257 -2.02458 0.035294119
5.200881 9.0361977 -1.3305628 0
9.3354731 20.481045 0.13323322 0.0039215689
9.6920719 16.729229 -0.11096021 0.019607844
7.9896078 15.507275 -1.8810126 0.0039215689
10.15619 15.708543 -1.7485524 0.015686275
10.630297 20.584307 0.54190898 0.0039215689
12.105206 23.421804 -1.8438694 0.0039215689
9.6917524 16.72934 -1.5797719 0.023529412
7.5440588 16.58147 0.53306448 0.031372551
9.6988935 16.740711 0.33999595 0.027450981
10.033039 15.519166 -1.0772021 0.074509807
8.5941782 16.668457 1.0959907 0.023529412
9.760869 16.846672 0.79640198 0.0039215689
13.233397 25.591139 -1.3413539 0.0039215689
6.6576514 12.944058 1.7930996 0.0078431377
8.3215265 14.380772 1.3609701 0.027450981
10.041891 15.532581 -0.64592236 0.05882353
8.3528976 16.202616 4.8955407 0.0039215689
9.344017 16.13142 3.4074597 0.0039215689
13.236959 25.597668 -0.66909504 0.0039215689
2.3524592 4.1240201 -2.2303138 0.05882353
9.7564726 16.705545 -0.56251031 0.027450981
3.5930591 6.9928589 -2.2092133 0.050980393
13.339263 25.575581 0.0022578761 0.0078431377
12.449697 19.083574 -0.26426363 0.0039215689
5.9852934 11.554217 -2.0282784 0.023529412
9.7848921 16.753639 -0.11136834 0.031372551
8.0473814 15.486078 -1.8818828 0.0039215689
10.726228 20.592857 0.54310292 0.0039215689
12.563905 19.257383 0.2696479 0.0039215689
12.233215 23.467493 -1.8508613 0.0039215689
7.6153464 16.583797 0.53398305 0.027450981
9.7734947 16.73407 0.34054023 0.047058824
9.4226351 20.482832 -1.4447581 0.0078431377
10.080575 15.47378 -1.0765194 0.078431375
8.6560173 16.645172 1.0964414 0.023529412
13.356045 25.608227 -1.3447235 0.0039215689
9.7693615 16.72765 -1.0155876 0.023529412
8.3939142 14.389177 1.3645386 0.039215688
9.4309635 20.500517 -0.91841745 0.015686275
10.089468 15.487153 -0.64551854 0.094117649
9.3862982 16.074711 3.402422 0.0039215689
13.359658 25.614796 -0.67078936 0.0039215689
2.3679702 4.1190691 -2.2320077 0.050980393
9.4919109 20.45369 -0.39194417 0.023529412
9.8424025 16.724445 -0.56426829 0.027450981
3.6180274 6.9840651 -2.2102971 0.050980393
8.7894201 16.764677 0.0017933317 0.0078431377
12.45777 18.958523 -0.26311901 0.0039215689
6.0291152 11.544543 -2.0301325 0.035294119
9.5034666 20.478123 0.13359822 0.011764706
8.106123 15.473125 -1.8836085 0.0039215689
10.826228 20.617033 0.54467058 0.0039215689
12.561525 19.115271 0.26823086 0.0039215689
7.6855412 16.590807 0.53501886 0.031372551
9.5124865 20.49824 -1.4480976 0.023529412
10.127426 15.43336 -1.0760684 0.078431375
8.7242308 16.640844 1.0980566 0.023529412
9.8471842 16.732712 -1.0179034 0.047058824
6.7845716 12.971647 1.803318 0.019607844
8.4598837 14.391881 1.3674563 0.023529412
9.5175152 20.508711 -0.92022282 0.023529412
10.138563 15.45003 -0.64539301 0.070588239
8.3925562 16.011683 4.8551302 0.019607844
2.3849108 4.1132011 -2.2337019 0.05882353
9.5855932 20.458271 -0.392728 0.015686275
9.9077358 16.694853 -0.56451684 0.023529412
3.6417868 6.9670863 -2.2092257 0.05882353
5.4667597 9.2677507 -2.1583428 0.035294119
13.581482 25.60132 0.0022186523 0.0078431377
12.465074 18.819265 -0.26183659 0.0039215689
6.073245 11.525583 -2.0307579 0.027450981
8.0948849 13.663393 -2.0248833 0.023529412
9.6006575 20.489904 0.13388492 0.0078431377
8.1515465 15.421985 -1.8810536 0.0039215689
12.596015 19.015577 0.26746535 0.0039215689
8.8269529 16.687992 -1.3208072 0.011764706
7.7616596 16.594797 0.53605324 0.031372551
9.6097059 20.509892 -1.451439 0.0078431377
10.190564 15.405836 -1.0767813 0.06666667
8.8039551 16.643723 1.1003684 0.031372551
11.905672 20.035854 0.95279783 0.015686275
8.8240576 16.682356 -0.87896585 0.011764706
9.9063959 16.69281 -1.0177103 0.011764706
6.8470168 12.974449 1.8072073 0.023529412
8.5412178 14.408415 1.3720007 0.027450981
9.6216221 20.534857 -0.92300552 0.0078431377
10.203985 15.425803 -0.64596647 0.047058824
8.5130167 16.096453 4.8903203 0.0039215689
8.8238459 16.681747 -0.43817726 0.015686275
2.4004095 4.1081285 -2.2353959 0.054901961
9.68606 20.49473 -0.39406696 0.0078431377
9.9465437 16.634258 -0.56360161 0.011764706
3.6630487 6.9513302 -2.2081535 0.074509807
5.4913945 9.2392435 -2.1559982 0.023529412
12.023717 18.026987 -0.25134912 0.0039215689
6.1264086 11.532984 -2.0356855 0.031372551
8.1442499 13.643025 -2.0259054 0.027450981
12.084861 25.531641 0.16683483 0.0039215689
9.94244 16.627251 -0.11125177 0.027450981
8.1856995 15.363095 -1.8772128 0.0039215689
10.207578 15.321275 -1.7211061 0.023529412
8.8982153 16.687243 0.442646 0.019607844
12.578773 18.853889 0.26576877 0.0039215689
10.394618 17.378557 -1.6546581 0.0039215689
7.8372836 16.612036 0.53743869 0.031372551
7.8704638 16.682602 -1.1822937 0.0039215689
10.277203 15.424765 -1.0805148 0.023529412
8.8817978 16.656393 1.103147 0.027450981
11.978242 20.006289 0.95326924 0.035294119
6.8994102 12.968909 1.8096346 0.023529412
8.6074715 14.4105 1.3749185 0.035294119
12.100531 25.565224 -1.1511686 0.0078431377
10.277363 15.424827 -0.64737564 0.035294119
8.6889524 16.295881 4.9596815 0.0039215689
9.5980349 16.053976 3.4188833 0.0039215689
8.8620787 16.620447 -0.4373554 0.050980393
2.4212701 4.1056604 -2.2388182 0.050980393
12.468418 20.65251 -0.70148373 0.0078431377
3.6955843 6.9483929 -2.2114289 0.062745102
5.5976515 9.3370914 -2.1834877 0.043137256
8.9463463 16.632229 0.0017256169 0.043137256
11.320952 16.848104 -0.23543359 0.011764706
6.1863885 11.542521 -2.0412569 0.035294119
8.1925793 13.610831 -2.0254347 0.027450981
12.463233 20.64373 -0.13867697 0.015686275
8.2477875 15.344629 -1.8785341 0.0039215689
11.321199 16.849133 -1.8973155 0.023529412
8.980195 16.69446 0.44363531 0.023529412
11.323276 16.851351 0.23817235 0.0039215689
8.9754992 16.686619 -1.325598 0.023529412
12.016037 19.907959 -1.8996611 0.0078431377
7.908432 16.605919 0.53809798 0.031372551
12.061028 19.981068 0.40970427 0.0078431377
11.35597 16.900272 -1.1867816 0.0078431377
8.969348 16.674145 1.1063691 0.027450981
12.040465 19.946972 0.952425 0.043137256
8.9764185 16.688107 -0.88254917 0.023529412
10.503578 17.416603 -1.0662942 0.0039215689
6.9606829 12.968902 1.8130101 0.027450981
8.6791496 14.41075 1.3778151 0.023529412
8.7762098 16.316118 4.9751773 0.0039215689
9.7385197 16.154633 3.4475551 0.0039215689
8.9819479 16.698101 -0.44027075 0.031372551
2.438194 4.0995884 -2.2405124 0.054901961
7.9747629 16.588377 -0.31993508 0.031372551
12.47931 20.500702 -0.69790012 0.0078431377
3.7228739 6.9379191 -2.2125134 0.074509807
9.0456305 16.669256 0.0017137581 0.023529412
6.2400284 11.540314 -2.0449562 0.023529412
8.2486229 13.590605 -2.0269625 0.035294119
12.47198 20.488487 -0.13795681 0.0078431377
8.3402243 15.38033 -1.8866843 0.0039215689
11.403061 16.836885 -1.9006774 0.031372551
9.0585909 16.692753 0.44445902 0.011764706
9.0212784 16.62534 -1.3233824 0.031372551
12.105571 19.890724 -1.9022826 0.0078431377
7.9849443 16.60894 0.53913242 0.06666667
12.355525 20.298029 0.41709855 0.0078431377
7.9924612 16.625298 -1.1823485 0.035294119
9.0457306 16.66893 1.1082157 0.023529412
12.111404 19.89904 0.95224303 0.05882353
9.0221815 16.626787 -0.88107681 0.062745102
12.469406 20.484762 -1.2571161 0.0039215689
7.0195994 12.963941 1.8159242 0.031372551
8.7506437 14.409186 1.3807317 0.023529412
7.98843 16.61677 -0.75054455 0.05882353
11.419117 16.859974 -0.71117741 0.031372551
8.8693256 16.344601 4.9937997 0.0039215689
9.844923 16.195763 3.4640443 0.0039215689
9.0258169 16.633232 -0.4394502 0.023529412
2.4498723 4.0881581 -2.2388258 0.050980393
12.421289 20.254787 -0.6909436 0.0039215689
3.7514372 6.9354191 -2.2157536 0.05882353
5.65446 9.2839327 -2.1803672 0.090196081
11.499406 16.857204 -0.2367204 0.035294119
6.2725382 11.508937 -2.0431213 0.043137256
8.2853127 13.54943 -2.0249543 0.027450981
8.0484734 16.599718 0.10928036 0.050980393
12.37607 20.181232 -0.13617094 0.0039215689
8.4026995 15.37325 -1.8892665 0.0039215689
11.494888 16.851282 -1.9066397 0.039215688
11.494961 16.85054 0.23926008 0.031372551
12.148441 19.812912 -1.8987211 0.0078431377
8.050518 16.603685 0.53981858 0.054901961
12.37028 20.171612 0.41533267 0.0078431377
8.0615778 16.627153 -1.1844068 0.027450981
9.1163769 16.666584 1.1100637 0.027450981
12.179422 19.861937 0.95238882 0.050980393
12.478552 20.347866 -1.2512755 0.0039215689
7.0798016 12.971652 1.8203022 0.023529412
8.8339577 14.437539 1.3862542 0.023529412
8.064559 16.633036 -0.75250936 0.050980393
11.506631 16.867922 -0.71314573 0.023529412
8.9048252 16.281033 4.9834318 0.0039215689
9.8965111 16.159445 3.4633129 0.0039215689
2.4679556 4.0854883 -2.2422099 0.047058824
8.1175795 16.594193 -0.32114574 0.082352944
12.380053 20.031076 -0.68480134 0.0039215689
3.7737546 6.918664 -2.2146816 0.06666667
5.6909766 9.2705488 -2.1819444 0.070588239
12.808213 23.172832 0.0019950771 0.0078431377
11.58321 16.852896 -0.23724771 0.0039215689
6.3414764 11.538544 -2.0523527 0.039215688
8.328372 13.513434 -2.023957 0.035294119
8.116993 16.592791 0.10940701 0.074509807
12.38732 20.042536 -0.13554181 0.0039215689
8.4408588 15.315764 -1.8858541 0.0039215689
11.580828 16.850109 -1.9111159 0.039215688
9.2128057 16.703623 0.44638801 0
12.799782 23.158503 -1.8507376 0.0039215689
12.242789 19.810762 -1.9026432 0.0078431377
8.1208181 16.60033 0.54062045 0.05882353
12.411064 20.080503 0.41433522 0.0078431377
8.1301737 16.620138 -1.1859546 0.027450981
9.1958456 16.672804 1.1126089 0.023529412
12.231807 19.791895 0.95106703 0.0078431377
12.815402 23.186327 -1.2336849 0.0039215689
12.484138 20.198763 -1.2448083 0.0039215689
7.1443315 12.981311 1.8251672 0.027450981
8.9032478 14.436838 1.3891712 0.023529412
8.1402617 16.640369 -0.75414962 0.027450981
12.195262 17.738173 -0.75180882 0.023529412
8.9897699 16.300259 4.9989491 0.0039215689
9.9840269 16.174679 3.474062 0.0039215689
12.81822 23.191118 -0.61540782 0.0039215689
2.4783523 4.0704541 -2.2388332 0.047058824
8.203969 16.622791 -0.32227352 0.023529412
9.8773069 15.880783 -0.54393238 0
3.7978806 6.9051995 -2.2146876 0.054901961
5.75245 9.296916 -2.1929338 0.023529412
12.906617 23.159142 0.0019761045 0.0078431377
11.724274 16.93026 -0.23893733 0.0039215689
6.3855767 11.522985 -2.0535927 0.011764706
8.3818083 13.494121 -2.0254841 0.035294119
8.1998177 16.614241 0.10972123 0.023529412
10.70109 17.195618 -0.11643238 0.0039215689
8.5059309 15.306776 -1.888437 0.0039215689
11.669167 16.851816 -1.915964 0.023529412
9.2906017 16.706001 0.44730541 0
12.63664 18.239622 0.26012254 0.0039215689
12.89224 23.134321 -1.8524312 0.0039215689
12.294929 19.740631 -1.9000586 0.0078431377
8.2072229 16.628904 0.54247147 0.027450981
8.2130404 16.641438 -1.1895474 0.011764706
9.2813158 16.689127 1.1158522 0.027450981
12.358104 19.840279 0.95544851 0.0078431377
12.91774 23.179548 -1.2357508 0.0039215689
12.499429 20.066797 -1.2393869 0.0039215689
7.2070689 12.987219 1.8295445 0.027450981
8.9705181 14.432454 1.3917627 0.019607844
8.2178879 16.650963 -0.75595266 0.019607844
10.892866 15.737071 -0.66853034 0.0039215689
9.0843906 16.335941 5.0196438 0.0039215689
10.1031 16.239529 3.495575 0.0039215689
12.920592 23.184359 -0.61645007 0.0039215689
2.4983521 4.070725 -2.2439079 0.054901961
3.8238578 6.8950019 -2.2157719 0.06666667
5.7890573 9.2831612 -2.1945109 0.023529412
12.999191 23.134588 0.0019565835 0.0078431377
11.803987 16.918442 -0.23937188 0.0039215689
8.4330997 13.471239 -2.0265064 0.031372551
5.067554 9.0958872 -1.1240594 0
9.3783722 16.725441 0.44868883 0
12.654281 18.129673 0.25917247 0.0039215689
13.018064 23.168827 -1.8588655 0.0039215689
8.2831669 16.635633 0.54362285 0.027450981
10.070055 16.063181 0.33304557 0.0039215689
10.871491 15.590242 -1.1080492 0.14901961
9.3611279 16.694618 1.1183974 0.027450981
12.512634 19.93195 0.9619481 0.0078431377
14.439214 25.684084 -1.3720844 0.0039215689
7.2660346 12.985927 1.8329464 0.027450981
9.0400028 14.431141 1.3946794 0.023529412
1.6982471 3.1311867 0.96488649 0
10.159733 16.203913 3.4955602 0.0039215689
14.437366 25.680506 -0.68428308 0.0039215689
2.5086565 4.0556102 -2.240531 0.05882353
10.121008 16.020092 -0.55116898 0.015686275
3.8498108 6.8847084 -2.2168562 0.050980393
5.8024817 9.2328606 -2.1874604 0.039215688
11.911471 16.945465 -0.24036443 0.0039215689
5.0966258 9.0734606 -1.6232836 0
8.4992456 13.4716 -2.0310636 0.027450981
10.311124 20.495424 0.13557771 0.015686275
10.108051 15.99954 -0.108783 0.015686275
5.1071501 9.0917149 -1.1257805 0
10.958767 15.598759 -1.7821814 0.011764706
9.4465981 16.709724 0.44914004 0
12.662071 18.006762 0.25803596 0.0039215689
13.126512 23.171534 -1.8627902 0.0039215689
10.093484 15.977241 -1.5444916 0.023529412
8.3628731 16.64917 0.54500735 0.027450981
10.329449 20.532377 -1.4730716 0.0078431377
10.914323 15.535645 -1.1069015 0.17254902
9.4391155 16.696287 1.1207097 0.027450981
14.507033 25.595079 -1.3700614 0.0039215689
10.05767 15.920717 -0.98750889 0.0078431377
7.329011 12.991283 1.8373237 0.023529412
9.1202879 14.446339 1.3992242 0.023529412
10.351272 20.575197 -0.93763936 0.0078431377
10.930924 15.558951 -0.66423494 0.050980393
9.2613401 16.382412 5.0537834 0.0039215689
10.250039 16.221222 3.5070264 0.0039215689
14.509115 25.598425 -0.68346977 0.0039215689
2.5227971 4.0465784 -2.2405345 0.050980393
10.217865 16.04837 -0.55339253 0.0078431377
3.8776536 6.8776603 -2.2190187 0.047058824
5.8537235 9.2420187 -2.1945281 0.035294119
14.608442 25.564604 0.002026536 0.0078431377
12.016961 16.968689 -0.24131063 0.0039215689
8.55264 13.451624 -2.0325909 0.023529412
10.43174 20.555227 0.13619313 0.0078431377
10.174631 15.980751 -0.10891344 0.015686275
5.1269722 9.0528917 -1.1232191 0
11.08478 15.660722 -1.7937193 0.023529412
9.5347357 16.72842 0.45052329 0.0039215689
12.680755 17.900311 0.25713277 0.0039215689
13.239102 23.180693 -1.8672729 0.0039215689
8.4336729 16.64455 0.54580903 0.023529412
10.717281 16.826969 0.35035589 0.011764706
10.428298 20.549267 -1.4769236 0.0078431377
10.970799 15.500456 -1.107149 0.14901961
9.515234 16.694159 1.1227891 0.027450981
12.545784 19.678751 0.95392752 0.0078431377
7.3901305 12.99292 1.8412131 0.023529412
9.1943283 14.451085 1.4027921 0.023529412
10.971252 15.500918 -0.66341257 0.10588235
9.3126974 16.339693 5.050663 0.0039215689
10.33421 16.228163 3.51634 0.0039215689
14.626255 25.595932 -0.68479311 0.0039215689
2.5354974 4.0384088 -2.2405381 0.047058824
10.463614 20.458982 -0.39967301 0.035294119
10.367984 16.17049 -0.55875367 0.011764706
3.8915277 6.851882 -2.2147114 0.054901961
5.9380364 9.309041 -2.2149291 0.039215688
14.720725 25.573761 0.0020084374 0.0078431377
12.186752 17.093149 -0.24365038 0.0039215689
8.6056156 13.441133 -2.0351269 0.023529412
13.116636 25.611012 0.16972069 0.0039215689
5.1633515 9.0502872 -1.1249393 0
11.117675 15.602941 -1.7911308 0.050980393
9.6152735 16.746624 0.45181471 0.011764706
12.676323 17.775654 0.255905 0.0039215689
10.523553 16.4119 -1.5933224 0.12941177
8.5042248 16.653301 0.54696172 0.031372551
10.789614 16.823236 0.35097116 0.0078431377
13.102303 25.584139 -1.8419901 0.0078431377
11.045038 15.501387 -1.1097198 0.12941177
9.595624 16.712355 1.1260337 0.031372551
12.540344 19.534927 0.94886017 0.0078431377
9.6171694 16.750502 -0.89977449 0
10.002714 15.604846 -0.97205317 0.039215688
7.4527793 13.007219 1.8465666 0.023529412
9.2656307 14.462103 1.4066869 0.019607844
11.071143 15.537621 -0.66649574 0.1882353
9.3775291 16.333544 5.057898 0.0039215689
10.400084 16.21854 3.5213494 0.0039215689
2.5495801 4.0292821 -2.2405417 0.039215688
3.9193034 6.8446603 -2.2168741 0.050980393
5.959805 9.2715645 -2.2110162 0.05882353
12.211219 17.001621 -0.24296924 0.0039215689
5.2061272 9.0514107 -1.6288397 0
8.6416683 13.394129 -2.0326145 0.027450981
13.231776 25.614515 0.17002678 0.0039215689
5.2129421 9.0628786 -1.1288016 0
12.030314 16.75185 -1.9279375 0.023529412
12.2722 17.08585 0.24660973 0.0039215689
10.198178 15.786636 -1.5360752 0.031372551
8.5844231 16.66584 0.54834598 0.031372551
12.54499 19.393429 0.40534779 0.0078431377
13.250408 25.651356 -1.8501927 0.0078431377
11.138838 15.517513 -1.113687 0.043137256
9.6800566 16.723351 1.1290439 0.031372551
12.556161 19.410378 0.94493169 0.0078431377
10.030993 15.529403 -0.96955669 0.082352944
7.5121417 13.004884 1.8499684 0.031372551
9.3334541 14.456153 1.409278 0.019607844
13.248373 25.647112 -1.1751441 0.0078431377
11.130001 15.50511 -0.66678977 0.19215687
9.4208698 16.277102 5.0506353 0.0039215689
10.46308 16.191782 3.5234876 0.0039215689
9.6896343 16.740473 -0.44932011 0.015686275
2.5596561 4.0140429 -2.237165 0.050980393
13.339597 25.603523 -0.50226277 0.0078431377
3.9470768 6.837328 -2.2190363 0.050980393
5.9598823 9.2012463 -2.199259 0.047058824
9.7568331 16.721098 0.0015982389 0.035294119
8.6992483 13.380221 -2.0351517 0.027450981
13.348951 25.621067 0.17035617 0.0039215689
12.460742 19.117796 -0.13138618 0.0039215689
8.8394976 15.16117 -1.8927996 0.0039215689
12.098095 16.722385 -1.9294407 0.023529412
9.7623558 16.730299 0.4531827 0.035294119
9.7528763 16.71496 -1.3541888 0.031372551
10.187659 15.65066 -1.5263292 0.039215688
8.6611032 16.670944 0.54949701 0.027450981
12.559994 19.268991 0.40365195 0.0078431377
8.7577381 16.856272 -1.2177522 0.0039215689
12.266733 16.953844 -1.2199544 0.24313726
9.7606373 16.727077 1.1315886 0.035294119
12.555922 19.262562 0.93986285 0.0078431377
9.762228 16.730675 -0.90240812 0.023529412
10.078574 15.484019 -0.96894342 0.098039217
7.5434141 12.954373 1.8465433 0.019607844
9.4100933 14.463247 1.4131713 0.019607844
8.7259455 16.795362 -0.77067447 0.0039215689
11.212289 15.504703 -0.66847926 0.094117649
9.3993206 16.110636 5.0092044 0.0039215689
9.7621994 16.730429 -0.44998544 0.027450981
2.5776453 4.0108857 -2.2405493 0.047058824
10.164343 15.496458 -0.53914982 0.10196079
3.9709148 6.8232608 -2.2190425 0.050980393
5.9833112 9.1670465 -2.1961303 0.047058824
9.8355188 16.721109 0.0015846379 0.023529412
12.324876 16.90901 -0.24290903 0.05882353
8.7480803 13.35284 -2.0356691 0.027450981
12.472275 18.990501 -0.13082521 0.0039215689
12.156383 16.67981 -1.9294569 0.031372551
12.322596 16.905716 0.24522483 0.074509807
10.176303 15.514959 -1.5165827 0.011764706
8.7397776 16.679256 0.55076462 0.027450981
12.567654 19.134689 0.40174654 0.0078431377
8.7941408 16.782999 -1.214699 0.0039215689
9.8433819 16.733891 1.134366 0.039215688
12.579019 19.151678 0.93658638 0.0078431377
10.123746 15.435168 -0.96812081 0.078431375
7.5521531 12.866237 1.8377546 0.019607844
9.4802885 14.460007 1.4160876 0.027450981
13.486824 25.666588 -1.180393 0.0078431377
2.5883815 3.9925559 -2.2355185 0.035294119
8.8143053 16.674187 -0.32804769 0.011764706
10.238917 15.487226 -0.54010892 0.090196081
4.0014482 6.8157144 -2.2212384 0.047058824
6.0354581 9.1719599 -2.2024403 0.043137256
9.9089584 16.707001 0.0015532608 0.050980393
12.360517 16.830202 -0.24242029 0.050980393
6.6813664 11.303211 -2.0469365 0.11764706
8.8018522 13.328548 -2.0367103 0.031372551
8.8212233 16.686972 0.11162534 0.023529412
12.481489 18.856647 -0.13022578 0.0039215689
8.9764881 15.146369 -1.898842 0.0039215689
12.226827 16.649792 -1.9309669 0.031372551
12.355845 16.823694 0.24464254 0.047058824
10.215554 15.452506 -1.5140089 0.039215688
8.8176861 16.680128 0.55177712 0.027450981
12.564081 18.980536 0.39941412 0.0078431377
9.9250317 16.733429 1.1366607 0.039215688
12.586623 19.014198 0.93199897 0.0078431377
10.182602 15.402777 -0.96835917 0.078431375
7.563179 12.778173 1.8289424 0.023529412
9.5688591 14.47965 1.4212667 0.019607844
10.717722 16.205036 3.5506968 0.0039215689
2.6103771 3.995301 -2.2422836 0.035294119
4.0172682 6.7882638 -2.2169316 0.050980393
6.0674362 9.1505976 -2.2024486 0.054901961
9.9383345 16.624092 0.0015365161 0.039215688
12.407251 16.770668 -0.2422038 0.070588239
6.7289324 11.293125 -2.0494056 0.10196079
8.8770504 13.340349 -2.043287 0.027450981
12.480401 18.713064 -0.12954859 0.0039215689
9.0354528 15.124923 -1.90014 0.0039215689
12.313393 16.645117 -1.9354434 0.0078431377
12.414495 16.780226 0.24462648 0.062745102
8.9004545 16.694798 0.55327797 0.035294119
12.58348 18.866573 0.39792863 0.0078431377
12.410661 16.775612 -1.2165221 0.070588239
10.01015 16.742922 1.1396708 0.039215688
12.599495 18.890245 0.92807132 0.0078431377
9.9273434 16.606215 -0.90135419 0.0078431377
10.260774 15.403394 -0.97067493 0.043137256
7.5544996 12.663022 1.8162531 0.023529412
9.6482105 14.48897 1.4254856 0.023529412
8.8928089 16.68117 -0.76976377 0.035294119
12.417116 16.784107 -0.72937459 0.078431375
9.8313541 16.444191 5.1447811 0.0039215689
10.853128 16.284948 3.5765147 0.0039215689
12.412344 20.734444 -0.56144965 0.0039215689
2.6202502 3.9799151 -2.2389066 0.047058824
8.9628849 16.671547 -0.32925984 0.039215688
12.039033 17.919518 -0.6280359 0.0078431377
4.0329504 6.7607856 -2.212625 0.050980393
6.0971475 9.1258688 -2.2016728 0.047058824
12.386572 16.621387 -0.24068493 0.035294119
6.8072648 11.333532 -2.0610962 0.062745102
8.9235668 13.309037 -2.0432994 0.031372551
8.9698963 16.684294 0.11199512 0.039215688
9.0881977 15.09305 -1.9001534 0.0039215689
9.9521742 16.516127 0.45105579 0
12.43942 16.691736 0.2439578 0.019607844
12.446923 20.629036 -1.685586 0.0039215689
11.332005 16.873489 -1.6611018 0.0039215689
8.977726 16.698542 0.55442911 0.035294119
11.334942 16.877047 0.35687765 0.0078431377
8.9855461 16.713779 -1.2165536 0.019607844
12.399708 16.639271 -1.2097957 0.039215688
10.093396 16.748608 1.1424483 0.043137256
12.600473 18.749868 0.92332906 0.0078431377
10.546907 17.496992 -0.95177156 0.023529412
7.5368781 12.534506 1.8016133 0.015686275
9.7188187 14.48469 1.4284022 0.019607844
8.9833498 16.709526 -0.77254301 0.027450981
9.8927107 16.416142 5.1468372 0.0039215689
10.931946 16.279331 3.5836751 0.0039215689
12.432796 20.605276 -0.55914509 0.015686275
2.6341279 3.9705036 -2.2389104 0.050980393
9.0114441 16.622366 -0.32892597 0.070588239
4.0585361 6.7497106 -2.2137094 0.062745102
6.1289682 9.1042891 -2.2016811 0.039215688
12.487282 20.532867 0.0016632152 0.015686275
12.422834 16.549072 -0.24028224 0.070588239
6.82617 11.275738 -2.0549586 0.082352944
8.9677401 13.274285 -2.0428069 0.031372551
9.0069962 16.614023 0.11172315 0.050980393
11.402017 16.849405 -0.11714808 0.019607844
9.140831 15.060991 -1.9001669 0.015686275
6.8989615 9.2309504 -1.0786418 0.0078431377
9.9743061 16.423048 0.44945693 0
12.454241 16.590506 0.24310273 0.035294119
12.450169 20.472876 -1.6764009 0.011764706
9.0532169 16.698441 0.55546367 0.023529412
9.0151339 16.629522 -1.2127331 0.019607844
12.440878 16.573334 -1.2081841 0.0078431377
10.176803 16.753912 1.1452258 0.031372551
12.650109 18.682404 0.92217135 0.0078431377
12.454734 20.480106 -1.1165748 0.0039215689
11.411055 16.863052 -1.0677967 0.011764706
7.5578074 12.470624 1.7962385 0.0078431377
9.7917614 14.483391 1.4316442 0.019607844
12.401541 16.521038 -0.72173154 0.054901961
9.9681034 16.410934 5.1561413 0.0039215689
11.008644 16.270107 3.5901184 0.0039215689
12.442067 20.459158 -0.55637586 0.015686275
2.6500194 3.9640357 -2.2406044 0.05882353
11.478602 16.835478 -0.59283805 0.035294119
4.0881305 6.7451024 -2.2169497 0.070588239
6.1562681 9.0761328 -2.2001212 0.035294119
12.48122 20.362928 0.0016400581 0.015686275
12.42484 16.432144 -0.23922825 0.023529412
6.8779235 11.271793 -2.0586572 0.11372549
9.0185003 13.249211 -2.0438292 0.031372551
9.1829071 15.011828 -1.898039 0.0039215689
12.43399 16.444794 -1.9273132 0.0078431377
10.000095 16.336834 0.44804451 0
12.449129 16.463919 0.24187493 0.0039215689
12.467116 20.340736 -1.6691679 0.011764706
11.499126 16.865822 -1.6682912 0.043137256
9.1345892 16.708534 0.55684775 0.023529412
11.497726 16.862993 0.35824445 0.047058824
12.440641 16.453279 -1.2026197 0.0078431377
10.266643 16.769045 1.1487011 0.027450981
12.461149 20.330824 -1.1108273 0.0078431377
7.6012874 12.443933 1.7962275 0.011764706
9.8760767 14.498208 1.4365141 0.019607844
12.72662 23.230986 -1.0785273 0.0078431377
10.013159 16.356075 5.1499143 0.0039215689
11.141041 16.341682 3.6145003 0.0039215689
12.358142 20.163448 -0.54951793 0.0039215689
2.6672719 3.9609623 -2.2439888 0.054901961
11.403195 20.665382 -0.41071019 0.0078431377
11.570732 16.849724 -0.59471327 0.0078431377
4.1186047 6.744369 -2.2212682 0.06666667
6.2063971 9.0844831 -2.2071884 0.023529412
12.384111 20.056131 0.0016127685 0.0078431377
12.418488 16.311224 -0.23808026 0.023529412
6.911098 11.241977 -2.0574372 0.10588235
9.0646458 13.222263 -2.0443456 0.031372551
12.804557 23.189606 0.15614296 0.0039215689
9.2326422 14.981064 -1.8980517 0.0039215689
12.425517 16.321014 -1.9176632 0.031372551
10.0268 16.259186 0.44681931 0
12.450173 16.352444 0.24083446 0.0039215689
12.471364 20.197351 -1.6608182 0.011764706
9.2074175 16.709381 0.55788279 0.023529412
12.615108 18.361271 0.39087045 0.0078431377
12.818791 23.216074 -1.6997933 0.0078431377
12.436886 16.335606 -1.1970546 0.0078431377
10.343264 16.768602 1.1510137 0.015686275
12.471602 20.197506 -1.1058226 0.0078431377
10.867198 15.831388 -1.0071422 0.023529412
7.6508937 12.43192 1.7981672 0
9.9535637 14.507791 1.4407334 0.019607844
12.824933 23.22686 -1.0803357 0.0078431377
10.097923 16.37179 5.165432 0.0039215689
11.190706 16.297943 3.6130509 0.0039215689
3.4856508 5.7240605 -0.15572077 0
2.6852238 3.9573383 -2.2473729 0.043137256
11.494801 20.66011 -0.41142446 0.0078431377
11.677445 16.877913 -0.59717089 0.0039215689
4.1421232 6.7297096 -2.2212744 0.054901961
6.2044673 9.0142298 -2.1954312 0.047058824
12.39464 19.917591 0.0015912841 0.0078431377
12.426506 16.204182 -0.23716556 0.027450981
6.9398189 11.20079 -2.0543735 0.05882353
9.1107492 13.1903 -2.044358 0.043137256
12.918643 23.203863 0.15652099 0.0039215689
11.702865 16.914253 -0.1184914 0.0039215689
9.3123064 14.992331 -1.9036326 0.0039215689
10.047438 16.166216 0.44522068 0
12.468107 16.257959 0.240073 0.0039215689
12.488881 20.068882 -1.6538638 0.011764706
11.711594 16.927395 -1.682313 0.0039215689
9.2891273 16.718765 0.55926675 0.023529412
12.647146 18.270926 0.38987488 0.015686275
12.927052 23.219711 -1.7033926 0.0078431377
12.442631 16.225437 -1.1921874 0.0078431377
10.414449 16.752466 1.1523948 0.015686275
12.640912 18.261768 0.9077841 0.0078431377
12.474212 20.045212 -1.0998888 0.0078431377
9.1031752 14.656448 2.1243615 0.0078431377
10.024647 14.502168 1.4436495 0.019607844
12.933264 23.230536 -1.082633 0.0078431377
10.169367 16.359129 5.1726651 0.0039215689
9.9730463 16.047693 -0.43906221 0
2.7011018 3.9506693 -2.2490673 0.027450981
11.596328 20.671871 -0.41248706 0.0078431377
10.985718 15.766266 -0.55916208 0
4.1696978 6.721488 -2.2234368 0.050980393
6.240396 8.9987001 -2.1970081 0.043137256
12.419204 16.078339 -0.23597156 0.035294119
6.9472518 11.126107 -2.0451617 0.082352944
9.1772346 13.187419 -2.0489151 0.031372551
14.432569 25.697926 0.17356832 0.0039215689
11.812351 16.945114 -0.11901691 0.0039215689
9.3751879 14.976317 -1.9057875 0.0039215689
12.448769 16.117006 -1.9039404 0.031372551
10.082476 16.096985 0.4442744 0.011764706
12.460992 16.131971 0.23884559 0.0039215689
9.3670769 16.720823 0.56041747 0.023529412
12.63967 18.124914 0.38769126 0.015686275
1.4851007 2.7529197 -0.2016304 0
12.440406 16.10598 -1.1866229 0.0078431377
10.462213 16.698887 1.1512164 0.011764706
12.651807 18.142029 0.90402013 0.0078431377
10.862802 15.59112 -0.99670833 0.14901961
9.1712236 14.651215 2.1282492 0.0078431377
10.111828 14.519079 1.4488447 0.019607844
14.436275 25.705103 -1.2004225 0.0078431377
10.230532 16.329834 5.1747208 0.0039215689
11.4217 16.38649 3.6503332 0.0039215689
2.7232416 3.9528201 -2.2558324 0.023529412
11.694129 20.676214 -0.41341045 0.0078431377
4.1890044 6.7001472 -2.2212863 0.047058824
6.3147645 9.0374928 -2.2119203 0.047058824
10.113408 16.021973 0.0014213545 0.019607844
7.015727 11.148251 -2.0537789 0.050980393
9.2323704 13.168026 -2.0509474 0.035294119
14.500433 25.608904 0.17328849 0.0039215689
11.89451 16.936207 -0.11926448 0.0039215689
9.4338112 14.953326 -1.907086 0.0039215689
12.453426 16.007336 -1.8961495 0.031372551
10.106438 16.010824 0.44286236 0.019607844
12.440835 15.990476 0.23738535 0.019607844
10.096942 15.996601 -1.3239524 0.019607844
10.927872 15.568238 -1.5547948 0.047058824
9.4471407 16.726009 0.56168479 0.023529412
12.645181 17.998772 0.38592714 0.0078431377
14.452742 25.52597 -1.8801003 0.0078431377
10.52687 16.672131 1.1518992 0.0078431377
12.662029 18.02243 0.9002564 0.0078431377
10.001509 15.846241 -0.87318391 0.011764706
10.90564 15.536549 -0.99567658 0.16862746
9.2372227 14.642326 2.1316493 0.011764706
10.187752 14.519268 1.4524119 0.019607844
14.512088 25.629993 -1.1993061 0.015686275
12.453607 16.007141 -0.70869118 0.078431375
10.333073 16.365522 5.1974845 0.0039215689
11.447049 16.301283 3.6402719 0.0039215689
10.097709 15.997448 -0.43964866 0.015686275
2.7391224 3.9460061 -2.2575266 0.0078431377
11.802032 20.697483 -0.41468215 0.0078431377
11.035242 15.604012 -0.55616808 0.0039215689
4.216517 6.6917348 -2.223449 0.047058824
6.3144331 8.970418 -2.200947 0.050980393
10.145535 15.949286 0.0014056003 0.011764706
7.1078763 11.206671 -2.0691588 0.043137256
9.2759724 13.132253 -2.0504551 0.043137256
14.609622 25.5926 0.17350025 0.0039215689
12.02312 16.992125 -0.11997563 0.0039215689
9.4902296 14.926768 -1.9079559 0.0039215689
12.462384 15.904095 -1.8891019 0.031372551
10.177351 15.998789 0.44350004 0.011764706
12.489141 15.937297 0.23722996 0.031372551
11.072284 15.65645 -1.5674994 0.05882353
9.5293293 16.73432 0.56306845 0.023529412
12.656909 17.882607 0.38437283 0.015686275
14.49805 25.398951 -1.8744978 0.0078431377
10.580685 16.628328 1.1514189 0.0039215689
12.676191 17.909512 0.89681852 0.0078431377
10.966746 15.50792 -0.996319 0.18039216
9.3203878 14.65991 2.1389499 0.011764706
10.268415 14.525617 1.4566302 0.019607844
14.635251 25.637886 -1.2020938 0.0078431377
10.394297 16.33563 5.1995406 0.0039215689
11.528973 16.296265 3.6481497 0.0039215689
2.742322 3.9214461 -2.2490783 0.015686275
11.066354 15.532658 -0.55501986 0.0078431377
4.24194 6.6799707 -2.2245331 0.054901961
6.4005513 9.0245886 -2.2197812 0.082352944
10.762895 16.784016 0.0014203549 0.019607844
12.447658 15.771241 -0.23341246 0.011764706
7.1426682 11.174908 -2.0679393 0.039215688
9.32407 13.102775 -2.0509722 0.039215688
12.471548 17.492714 -0.12386231 0.0039215689
9.557375 14.9167 -1.9109674 0.0039215689
12.468317 15.797859 -1.8816825 0.047058824
10.78606 16.819727 0.46724269 0.019607844
12.460166 15.786838 0.23563023 0.015686275
10.383615 16.196825 -1.3465736 0.090196081
11.131516 15.623941 -1.5681648 0.031372551
9.6097059 16.738789 0.56433558 0.023529412
12.663336 17.760063 0.38267887 0.015686275
12.439585 15.761401 -1.1708578 0.015686275
10.59753 16.527306 1.1469831 0.0039215689
9.9883938 15.58419 -0.8626098 0.054901961
11.025471 15.475795 -0.99675214 0.15294118
9.3951893 14.663741 2.1443 0.0078431377
10.349258 14.531566 1.4608485 0.019607844
12.448256 15.772161 -0.70216262 0.015686275
10.49526 16.367184 5.2212691 0.0039215689
2.7581167 3.9145477 -2.2507725 0.015686275
9.6745968 16.716467 -0.33614492 0.027450981
11.120509 15.493692 -0.55503452 0.019607844
4.2610335 6.658422 -2.2223825 0.050980393
6.4320164 9.0019503 -2.2197897 0.082352944
12.447697 15.658715 -0.23240404 0.015686275
7.1751719 11.139723 -2.0661051 0.054901961
9.3743992 13.076339 -2.0519946 0.043137256
9.6840477 16.732491 0.11415993 0.019607844
12.251526 17.0597 -0.12109714 0.0039215689
9.618062 14.896343 -1.9126941 0.0039215689
12.468684 15.685553 -1.8735195 0.054901961
10.873054 16.825314 0.46843848 0.019607844
12.462759 15.677394 0.23463638 0.015686275
10.083352 15.611621 -1.300846 0.031372551
9.6942568 16.749809 0.5658356 0.043137256
9.6921587 16.74699 -1.240716 0.015686275
12.442173 15.652134 -1.1659901 0.015686275
10.633393 16.456493 1.1446414 0
12.288485 17.110508 0.86111051 0.0078431377
10.02749 15.525539 -0.86132187 0.094117649
11.114508 15.485548 -0.99990582 0.11764706
9.4658041 14.660571 2.1486747 0.011764706
10.430269 14.537127 1.4650664 0.019607844
9.7021389 16.763922 -0.7889393 0.039215688
12.448328 15.659671 -0.69910753 0.023529412
10.072835 15.595098 -0.4315131 0.027450981
2.7766664 3.9075849 -2.2525024 0.015686275
11.200857 15.486838 -0.55622244 0.015686275
4.2849202 6.6400361 -2.2213423 0.050980393
6.4523463 8.9601526 -2.2151163 0.070588239
12.463285 19.120207 0.0014584656 0.0078431377
12.467469 15.568154 -0.23172607 0.015686275
7.2059813 11.097818 -2.0630646 0.050980393
9.4181271 13.036848 -2.0510125 0.047058824
9.767498 16.736254 0.11438485 0.035294119
9.6706352 14.859079 -1.9122956 0.0039215689
12.488719 15.595116 -1.8679633 0.054901961
10.965219 16.833813 0.46971482 0.015686275
12.470054 15.571206 0.2336845 0.019607844
10.147161 15.586067 -1.3017118 0.027450981
9.7737045 16.746626 0.56685174 0.039215688
9.7756195 16.750643 -1.2435608 0.019607844
12.461988 15.561667 -1.1625223 0.015686275
10.700148 16.429024 1.145311 0
10.066917 15.463434 -0.8598631 0.082352944
9.5393028 14.657062 2.153033 0.0039215689
10.516584 14.545494 1.4695977 0.015686275
9.7816362 16.760698 -0.79043591 0.027450981
12.463114 15.562904 -0.69675487 0.015686275
10.546417 16.192831 5.1891284 0.019607844
11.755047 16.247078 3.6645987 0.0039215689
2.7924337 3.9005613 -2.2541964 0.011764706
9.8326054 16.713392 -0.33751532 0.098039217
4.308074 6.6248064 -2.2213483 0.047058824
6.4835868 8.9373426 -2.2151246 0.11764706
12.468247 18.982889 0.001438251 0.0078431377
12.461284 15.449741 -0.23062423 0.015686275
7.2076583 11.01629 -2.052623 0.094117649
9.4495087 12.984458 -2.0479949 0.035294119
9.7312126 14.838275 -1.9140221 0.0078431377
12.485394 15.480038 -1.8594282 0.054901961
11.056969 16.845259 0.47109714 0.015686275
12.473956 15.465212 0.2327376 0.011764706
10.166333 15.497042 -1.2972631 0.031372551
12.322429 16.904602 -1.7097639 0.05882353
12.324261 16.906345 0.36704075 0.086274512
12.458394 15.446497 -1.1571891 0.015686275
10.777241 16.421335 1.1473904 0
12.34903 16.939966 0.85683632 0.070588239
10.123039 15.4313 -0.86006296 0.086274512
10.593223 14.543836 1.4731649 0.023529412
9.8502712 16.743412 -0.7912637 0.050980393
12.474568 15.466285 -0.69439727 0.015686275
10.764692 16.400724 5.2678032 0.0039215689
11.948943 16.392982 3.7069185 0.0039215689
10.164448 15.493849 -0.43071976 0.11764706
2.7974205 3.8788924 -2.2474382 0.015686275
9.8970337 16.689039 -0.33773872 0.023529412
4.3183722 6.5902557 -2.214885 0.050980393
6.5077548 8.9049597 -2.2127798 0.10196079
12.485689 18.865759 0.0014188406 0.0078431377
12.47213 15.353258 -0.22984806 0.019607844
7.2482567 10.994125 -2.0532477 0.098039217
9.508913 12.970319 -2.0510368 0.023529412
12.353921 16.823513 -0.12038682 0.043137256
9.7939625 14.820544 -1.9161769 0.0078431377
12.49653 15.383692 -1.8531234 0.043137256
11.140066 16.842957 0.47210675 0.015686275
12.484856 15.368683 0.2319306 0.015686275
10.211523 15.447942 -1.2961613 0.031372551
12.357679 16.829178 -1.7065257 0.070588239
12.35232 16.821165 0.36611658 0.047058824
12.471824 15.3532 -1.1534836 0.011764706
10.790256 16.316895 1.1427224 0
12.360613 16.832222 0.85356259 0.031372551
10.174629 15.392318 -0.85989082 0.082352944
12.363046 16.836226 -1.0956002 0.023529412
8.5813951 12.996435 1.9179914 0.011764706
10.672339 14.545033 1.4770577 0.019607844
9.8820229 16.664087 -0.78916341 0.019607844
12.472851 15.354299 -0.69134158 0.015686275
10.839001 16.388559 5.2760715 0.0039215689
12.027127 16.379438 3.713361 0.0039215689
2.8131056 3.8717828 -2.2491324 0.015686275
9.928422 16.609615 -0.3368476 0.019607844
4.3392034 6.5717115 -2.2138128 0.050980393
6.5107121 8.8441887 -2.2033753 0.05882353
12.493554 18.735445 0.0013991389 0.0078431377
12.482453 15.256886 -0.22907175 0.015686275
7.3702111 11.093288 -2.0766203 0.05882353
9.9360352 16.622084 0.11427134 0.0039215689
12.410181 16.77685 -0.1203794 0.078431375
9.8367739 14.772822 -1.9144771 0.015686275
12.504612 15.28438 -1.8464468 0.035294119
11.22996 16.850245 0.47339582 0.015686275
12.497773 15.275355 0.23117025 0.011764706
10.278711 15.431862 -1.2978488 0.019607844
12.406829 16.772915 -1.7052398 0.10196079
9.9485378 16.642673 0.56680834 0.015686275
12.396639 16.758463 0.36568159 0.039215688
10.401195 17.395741 -1.2995993 0.027450981
12.479681 15.253829 -1.149313 0.015686275
10.804898 16.215883 1.1382871 0
12.414521 16.782331 0.85322106 0.031372551
10.25054 15.389668 -0.86176485 0.054901961
8.6267061 12.966175 1.9179797 0.019607844
10.765867 14.565048 1.4829035 0.023529412
10.432596 17.447735 -0.82805914 0.043137256
12.470506 15.242515 -0.68828589 0.015686275
10.904746 16.363237 5.2801986 0.0039215689
12.180508 16.466593 3.7427645 0.0039215689
2.8266046 3.8617082 -2.249136 0.015686275
12.450128 20.63719 -0.41962618 0.023529412
12.463501 16.726465 -0.60710466 0.027450981
4.3578076 6.5499082 -2.2116623 0.054901961
6.4945197 8.7583876 -2.1876955 0.043137256
12.479507 15.145222 -0.22806264 0.015686275
7.4022565 11.057435 -2.0747857 0.094117649
6.8255568 9.2000637 -1.4622142 0
12.435321 20.612545 0.14178754 0.019607844
12.406325 16.64996 -0.11979226 0.039215688
9.8905106 14.741458 -1.9149187 0.0078431377
12.502002 15.172924 -1.8382829 0.031372551
11.320053 16.857103 0.47468472 0.019607844
12.499993 15.169799 0.23022367 0.015686275
9.9734011 16.552914 0.56492972 0.015686275
12.407113 16.650837 0.36426848 0.039215688
12.43036 20.605057 -1.5427732 0.0078431377
12.479362 15.145359 -1.1444446 0.015686275
10.843561 16.151361 1.1364112 0
12.415524 16.661892 0.84929597 0.023529412
8.636364 12.883112 1.9101669 0.019607844
10.850113 14.57182 1.487447 0.015686275
10.55976 17.520336 -0.83328027 0.035294119
12.477739 15.143243 -0.68578833 0.015686275
10.996409 16.376068 5.2967491 0.0039215689
12.294543 16.499331 3.7599699 0.0039215689
11.337803 16.883749 -0.4727757 0.0078431377
2.8437619 3.8578825 -2.2525203 0.015686275
12.451775 20.486361 -0.41741383 0.015686275
12.408155 16.537983 -0.60176957 0.015686275
4.3751731 6.5288305 -2.2095115 0.050980393
6.5447869 8.7647657 -2.1947629 0.039215688
12.491244 15.057456 -0.22737852 0.015686275
7.4144354 10.996657 -2.0680323 0.090196081
12.44939 20.482231 0.14116237 0.019607844
9.9594803 14.737953 -1.918786 0.0078431377
12.511444 15.082221 -1.8323489 0.031372551
11.411884 16.872154 0.47616062 0.019607844
12.501566 15.069678 0.22932455 0.015686275
12.441501 16.582586 -1.6945323 0.035294119
9.9886379 16.454704 0.56270254 0.011764706
12.411694 16.542328 0.36278641 0.047058824
12.434111 20.457907 -1.5348639 0.0078431377
12.47582 15.039268 -1.1395754 0.011764706
10.881348 16.091982 1.1347686 0
12.424989 16.559782 0.84618622 0.031372551
11.406817 16.865248 -0.94885236 0.019607844
12.391444 16.516001 -1.0830895 0.031372551
8.6410828 12.798378 1.901867 0.023529412
10.927189 14.573732 1.4913399 0.015686275
12.439046 20.465755 -0.97548521 0.015686275
12.484371 15.049369 -0.68342954 0.015686275
11.031105 16.310547 5.2874169 0.0039215689
12.304173 16.398561 3.7463222 0.0039215689
2.8550172 3.8448148 -2.2508335 0.015686275
12.37431 20.200754 -0.41248497 0.0078431377
12.444036 16.465691 -0.60073847 0.035294119
4.4305964 6.5609503 -2.2256906 0.050980393
6.5966945 8.7697468 -2.2018309 0.047058824
11.47375 16.836613 0.0012981923 0.050980393
12.489706 14.949215 -0.22641568 0.019607844
7.4371314 10.947658 -2.0637388 0.10588235
12.342527 20.148918 0.13915677 0.0039215689
10.013107 14.706151 -1.9192277 0.0078431377
12.507662 14.971133 -1.824185 0.015686275
12.502643 14.964465 0.22837822 0.011764706
11.483755 16.851753 -1.4273139 0.039215688
12.4366 16.456287 -1.6860874 0.0039215689
9.9810171 16.313969 0.55907667 0.0078431377
12.416131 16.428616 0.3612338 0.039215688
12.444741 20.315578 -1.5274667 0.0078431377
12.489715 14.949532 -1.136102 0.011764706
10.94648 16.066849 1.1356847 0
12.429523 16.446074 0.84258723 0.039215688
11.497237 16.871246 -0.95147216 0.035294119
8.6497898 12.715513 1.8940542 0.023529412
11.004523 14.570194 1.4949068 0.015686275
12.434958 20.299465 -0.96964616 0.015686275
12.490548 14.95037 -0.68093175 0.011764706
11.105446 16.297211 5.2956848 0.0039215689
11.486375 16.855211 -0.47419986 0.031372551
2.8728263 3.8403535 -2.2542181 0.011764706
12.400455 20.085848 -0.41103953 0.0078431377
4.4469047 6.5357046 -2.2224619 0.054901961
6.6511002 8.7775869 -2.2096834 0.086274512
11.571089 16.852188 0.001284422 0.019607844
12.495318 14.850332 -0.22559243 0.015686275
7.4932647 10.947421 -2.0686672 0.082352944
6.9175172 9.1254616 -1.4617349 0
12.347393 20.00013 0.13841426 0.0078431377
12.431263 16.330057 -0.11844669 0.043137256
10.080194 14.693788 -1.9222391 0.0078431377
12.508404 14.866335 -1.8167645 0.011764706
12.508307 14.865535 0.22752516 0.011764706
12.450355 16.35556 -1.6802458 0.0039215689
10.002056 16.22105 0.55708194 0.0078431377
12.417498 16.311897 0.35961145 0.031372551
12.458741 20.18021 -1.5205808 0.0078431377
12.490246 14.844637 -1.1314658 0.011764706
10.986612 16.005314 1.1340415 0
12.433417 16.332531 0.8389883 0.031372551
10.83863 15.791772 -0.89270127 0.035294119
12.440893 16.342983 -1.0774698 0.0039215689
8.6535158 12.626211 1.8852663 0.023529412
11.098926 14.588452 1.5007522 0.015686275
12.450942 20.167418 -0.96543384 0.015686275
12.485862 14.839303 -0.67787558 0.015686275
11.188613 16.29627 5.308095 0.0039215689
12.387261 16.271185 3.7369633 0.027450981
2.8840005 3.8271999 -2.2525313 0.019607844
12.411107 19.947271 -0.40910619 0.0078431377
12.446397 16.232286 -0.59541911 0.0039215689
4.4542937 6.4977775 -2.2149203 0.050980393
6.6673312 8.7354469 -2.2049851 0.082352944
12.657778 18.289082 0.0013091301 0.023529412
12.510767 14.763769 -0.22495529 0.015686275
7.6013985 11.021551 -2.0877366 0.082352944
12.359859 19.865116 0.13776545 0.0039215689
12.432025 16.21347 -0.11792859 0.047058824
10.12915 14.655019 -1.9218243 0.0039215689
12.508569 14.761717 -1.8093437 0.011764706
12.636151 18.257799 0.5188666 0.011764706
12.523808 14.778929 0.22685847 0.015686275
10.915229 15.784752 -1.3433846 0.031372551
12.453822 16.242302 -1.6731021 0.0039215689
10.028933 16.138353 0.55543679 0.011764706
12.425527 16.204874 0.35819885 0.031372551
12.478301 20.055143 -1.5144616 0.0078431377
12.497964 14.749041 -1.127527 0.015686275
11.02645 15.943693 1.1323984 0
12.439113 16.22233 0.83555239 0.023529412
12.449091 16.235952 -1.0732994 0.0039215689
8.6635265 12.546815 1.8779414 0.023529412
11.181423 14.590442 1.50497 0.015686275
9.9631557 16.033726 -0.76907492 0.0078431377
12.498699 14.749752 -0.67579627 0.023529412
11.260877 16.279093 5.3153276 0.0039215689
12.388726 16.155937 3.7204447 0.023529412
11.720226 16.941576 -0.47897172 0.0039215689
2.8951209 3.8140142 -2.2508445 0.015686275
4.4437914 6.4346404 -2.1987534 0.039215688
6.6737337 8.6809063 -2.1971493 0.062745102
12.668747 18.169214 0.0012903952 0.023529412
12.517959 14.668166 -0.22417839 0.015686275
7.6171451 10.96235 -2.0815985 0.082352944
9.883997 12.815727 -2.0642524 0.043137256
12.434586 16.100237 -0.11743356 0.050980393
10.18938 14.632364 -1.9235507 0.0078431377
12.502975 14.651227 -1.8011792 0.011764706
12.644729 18.13475 0.51661456 0.015686275
12.518033 14.668103 0.22581936 0.011764706
10.862632 15.59274 -1.330289 0.054901961
10.055361 16.05566 0.5537917 0.015686275
12.432969 16.097988 0.35678631 0.039215688
12.502577 14.650536 -1.1233556 0.011764706
11.068292 15.885255 1.1309879 0
12.444199 16.112284 0.83211654 0.023529412
10.792673 15.492756 -0.88007945 0.16470589
8.6685371 12.460998 1.8696413 0.027450981
11.264075 14.592031 1.5091876 0.015686275
12.518879 14.66939 -0.6741358 0.023529412
11.359778 16.29957 5.3349843 0.0039215689
12.406441 16.062637 3.7089491 0.015686275
10.987485 15.77055 -0.44691381 0
10.098951 16.001068 -0.32949191 0.023529412
4.4817781 6.4408836 -2.2063067 0.050980393
6.6943336 8.6449652 -2.19402 0.054901961
12.672112 18.03969 0.0012715438 0.023529412
12.519407 14.566642 -0.22330825 0.015686275
7.6736054 10.961292 -2.0865273 0.050980393
9.9262304 12.777786 -2.0637596 0.039215688
10.087533 15.982916 0.11145943 0.023529412
12.453755 16.009237 -0.11710085 0.11764706
10.22893 14.580231 -1.921423 0.015686275
12.525408 14.574106 -1.7971044 0.0039215689
12.652603 18.011871 0.51436269 0.015686275
12.527328 14.575661 0.22505975 0.015686275
10.889381 15.51538 -1.3269559 0.12156863
12.453953 16.010031 -1.6581638 0.043137256
10.079191 15.969607 0.55203015 0.027450981
12.434892 15.984949 0.35523424 0.039215688
10.103086 16.007929 -1.2140433 0.011764706
12.514487 14.561243 -1.119882 0.011764706
12.443745 15.996102 0.82835519 0.023529412
10.844389 15.451493 -0.87990761 0.1254902
8.6822157 12.38827 1.8632915 0.011764706
11.354241 14.602635 1.5143814 0.015686275
9.9505625 15.767646 -0.75966632 0.027450981
12.507293 14.552768 -0.67080003 0.015686275
11.436672 16.287991 5.3442874 0.0039215689
12.413957 15.957006 3.6945834 0.027450981
11.003262 15.676333 -0.44534782 0
