# .PCD v0.7 - Point Cloud Data file format
VERSION 0.7
FIELDS x y z intensity
SIZE 4 4 4 4
TYPE F F F F
COUNT 1 1 1 1
WIDTH 1085
HEIGHT 1
VIEWPOINT 0 0 0 1 0 0 0
POINTS 1085
DATA ascii
-9.2926807 -6.8832822 -2.3395395 0.035294119
-50.821159 -41.055332 0.0053454153 0.11372549
-36.710144 -24.169016 -0.51099163 0.019607844
-14.443356 -10.631125 -2.2991009 0.070588239
-51.605614 -46.031826 0.40921581 0.05882353
-51.493877 -37.590054 -0.36695999 0.050980393
-15.837357 -12.886875 -2.2120297 0.039215688
-19.841215 -13.113497 -2.2321446 0.0078431377
-116.49368 -93.934128 3.4979382 0.074509807
-92.238174 -60.562092 1.29259 0.062745102
-20.997133 -17.041456 -1.8981402 0.027450981
-20.695393 -15.180313 -2.1047931 0.039215688
-92.640205 -82.515808 3.6262398 0.24705882
-87.046875 -63.459209 1.8903079 0.10980392
-21.119774 -18.926725 -1.8230981 0.0078431377
-27.923168 -18.410408 -1.9543301 0.015686275
-25.432709 -20.612886 -1.5285403 0.0078431377
-30.910435 -22.613194 -2.0118058 0.019607844
-25.503441 -20.669584 -0.76441157 0.05882353
-3.8775663 -2.9236119 -2.3277476 0.062745102
-24.432747 -21.733953 -0.57008624 0.047058824
-36.603836 -26.579445 -1.3175044 0.023529412
-6.2384825 -5.1247263 -2.2964072 0.086274512
-9.2951889 -6.8397398 -2.3348444 0.039215688
-50.809341 -40.78249 0.0052753957 0.11372549
-36.899872 -24.127226 -0.51260448 0.019607844
-10.751196 -8.7350435 -2.1746795 0.074509807
-14.470254 -10.580521 -2.2981064 0.05882353
-51.911839 -46.011959 0.41043568 0.05882353
-51.404255 -37.277603 -0.36554483 0.050980393
-15.902609 -12.856403 -2.2154715 0.054901961
-19.872303 -13.044052 -2.2310503 0.0078431377
-116.84754 -93.614632 3.499588 0.074509807
-119.16792 -77.67717 1.6658388 0.062745102
-21.022528 -16.952444 -1.8956544 0.027450981
-20.707441 -15.089004 -2.101238 0.047058824
-111.56329 -98.71389 4.3534164 0.24705882
-86.898994 -62.934212 1.8827159 0.10980392
-21.164179 -18.84654 -1.8218443 0.0078431377
-28.385817 -18.585663 -1.9824694 0.015686275
-25.6159 -20.627211 -1.5356272 0.0078431377
-30.98456 -22.517786 -2.0120473 0.019607844
-36.685383 -23.987946 -1.5332891 0.031372551
-25.683788 -20.681265 -0.76786929 0.082352944
-3.8877497 -2.9094718 -2.3277524 0.047058824
-24.40926 -21.560911 -0.56782532 0.094117649
-36.884811 -26.586126 -1.3242794 0.023529412
-6.2804632 -5.121501 -2.3050382 0.086274512
-9.3158216 -6.8043771 -2.3340712 0.047058824
-50.901276 -40.564495 0.0052094348 0.11372549
-37.319847 -24.214718 -0.51727957 0.019607844
-11.004452 -8.8738899 -2.2189417 0.047058824
-14.532891 -10.547867 -2.3021619 0.054901961
-52.315697 -46.043564 0.41228709 0.05882353
-51.55032 -37.109016 -0.36571947 0.050980393
-15.92248 -12.780439 -2.2120659 0.062745102
-19.907682 -12.967534 -2.2299585 0.015686275
-117.17362 -93.205605 3.499449 0.074509807
-21.05658 -16.858517 -1.8934503 0.027450981
-20.698444 -14.971881 -2.095084 0.054901961
-5.1610293 -4.6736965 0.20667391 0
-86.757462 -62.371098 1.8748341 0.10980392
-21.226837 -18.769327 -1.8216147 0.0078431377
-28.363314 -18.429541 -1.9764615 0.015686275
-25.809771 -20.634012 -1.5429035 0.0078431377
-31.056486 -22.404249 -2.0116653 0.019607844
-34.643356 -22.486086 -1.4451137 0.031372551
-25.865421 -20.677956 -0.77114487 0.05882353
-3.8954358 -2.8924835 -2.326067 0.039215688
-24.418756 -21.410273 -0.56625998 0.094117649
-6.3233943 -5.1169114 -2.3136702 0.074509807
-9.3343096 -6.7650208 -2.3325143 0.06666667
-51.106159 -40.421608 0.0051519135 0.11372549
-37.576725 -24.185051 -0.51964092 0.019607844
-10.94379 -8.7594643 -2.2005186 0.050980393
-14.581151 -10.500818 -2.303694 0.054901961
-52.728443 -46.063667 0.41413465 0.05882353
-15.984833 -12.733687 -2.2142265 0.062745102
-19.948372 -12.889566 -2.2292392 0.015686275
-102.02928 -80.566948 3.0388052 0.074509807
-21.083765 -16.753433 -1.8904111 0.027450981
-20.759676 -14.899923 -2.0957596 0.062745102
-112.36031 -97.99324 4.3567567 0.24705882
-86.763947 -61.894341 1.8699621 0.10980392
-21.295492 -18.690784 -1.821642 0.0078431377
-28.541624 -18.395939 -1.9841622 0.015686275
-102.02872 -80.564972 7.589366 0.078431375
-25.998192 -20.627714 -1.5496243 0.0078431377
-34.611103 -22.285013 -1.4404166 0.031372551
-26.044676 -20.664099 -0.77423698 0.047058824
-3.9020476 -2.8769004 -2.3243811 0.047058824
-24.426102 -21.273684 -0.56483036 0.094117649
-21.911427 -15.609477 -0.78539485 0.050980393
-6.3372955 -5.0929842 -2.3125997 0.054901961
-9.3663015 -6.7402687 -2.3348775 0.082352944
-51.460377 -40.424 0.0051175426 0.11372549
-37.825459 -24.167105 -0.52199841 0.019607844
-10.919874 -8.6811447 -2.190083 0.047058824
-14.606174 -10.444982 -2.302196 0.043137256
-80.951118 -70.169945 0.63335109 0.10980392
-52.307838 -37.100372 -0.36935347 0.050980393
-16.001921 -12.660441 -2.21082 0.078431375
-19.964123 -12.805691 -2.2262886 0.015686275
-117.94424 -92.480309 3.5028124 0.074509807
-21.11721 -16.665653 -1.8884841 0.027450981
-20.883844 -14.883387 -2.1032619 0.062745102
-4.7399497 -4.2440138 0.18914905 0
-87.262619 -61.813538 1.8761746 0.10980392
-21.42075 -18.674356 -1.8270313 0.0078431377
-28.636164 -18.322079 -1.9865165 0.015686275
-2.6354151 -1.9805436 0.13978088 0
-22.017643 -15.684786 -1.4223853 0.015686275
-34.597111 -22.113783 -1.4368303 0.031372551
-9.4589224 -6.8042703 2.1500514 0
-26.2264 -20.665823 -0.7776044 0.023529412
-3.9155359 -2.864044 -2.3260763 0.039215688
-24.455368 -21.141703 -0.56375074 0.11764706
-22.060144 -15.592735 -0.78867203 0.062745102
-6.3620048 -5.0738311 -2.3147635 0.06666667
-9.4037895 -6.7142863 -2.3380258 0.05882353
-51.804031 -40.386654 0.0050738482 0.11372549
-43.451153 -27.521692 -0.59790474 0.035294119
-10.907931 -8.6064873 -2.1814926 0.035294119
-14.657356 -10.399872 -2.3042328 0.054901961
-81.60836 -70.216103 0.6363669 0.10980392
-52.653042 -37.054787 -0.37088731 0.050980393
-16.079622 -12.625488 -2.2151208 0.070588239
-19.98735 -12.716934 -2.2237115 0.027450981
-6.0083632 -4.7981677 0.1823234 0
-21.143501 -16.560585 -1.8854448 0.019607844
-20.788132 -14.700793 -2.0883291 0.047058824
-113.09933 -97.254738 4.3587017 0.24705882
-87.832397 -61.733826 1.8834276 0.10980392
-21.495115 -18.600298 -1.8275695 0.0078431377
-28.541025 -18.114086 -1.9753987 0.015686275
-6.4347425 -4.6304951 0.32881591 0
-26.349798 -20.606359 -1.5619489 0.0078431377
-22.10442 -15.624005 -1.4242939 0.031372551
-5.0298524 -4.0375428 0.80844831 0
-7.7434163 -5.5484328 0.78924686 0
-24.156633 -20.885448 -1.3034981 0.015686275
-5.0574389 -3.6639838 1.1638558 0
-26.390387 -20.637638 -0.78023338 0.023529412
-3.9225359 -2.8477013 -2.3243909 0.039215688
-24.495539 -21.027082 -0.56301665 0.11764706
-22.19647 -15.572179 -0.79159993 0.015686275
-6.36443 -5.0392423 -2.3093815 0.06666667
-9.4368267 -6.687561 -2.3403895 0.054901961
-52.09037 -40.317406 0.0050274921 0.11372549
-43.862232 -27.566671 -0.60226405 0.035294119
-10.909745 -8.5460443 -2.1759744 0.035294119
-14.690311 -10.345794 -2.3037453 0.039215688
-82.763046 -70.706184 0.64333177 0.10980392
-53.11031 -37.098774 -0.37324578 0.050980393
-16.161381 -12.597856 -2.2202768 0.047058824
-19.997864 -12.625368 -2.2200189 0.027450981
-118.74866 -91.74511 3.5068216 0.074509807
-123.06115 -77.153496 1.7002409 0.062745102
-21.172743 -16.464161 -1.8829616 0.011764706
-20.868763 -14.648064 -2.0912797 0.047058824
-3.747905 -3.3371766 0.14991277 0
-88.910522 -62.027355 1.9017575 0.10980392
-28.621004 -18.024363 -1.9765927 0.015686275
-5.1879535 -4.1306429 0.39416951 0
-26.560759 -20.621073 -1.5701553 0.0078431377
-22.155542 -15.543888 -1.4241105 0.039215688
-3.7236845 -3.000845 0.60356635 0
-24.211143 -20.784861 -1.3025531 0.015686275
-34.615555 -21.77746 -1.4311965 0.062745102
-4.986237 -3.5872622 1.1451885 0
-26.607906 -20.657185 -0.78453028 0.023529412
-3.9324541 -2.833405 -2.3243957 0.035294119
-24.547428 -20.922773 -0.56256038 0.14117648
-35.611046 -24.728521 -1.2631991 0.023529412
-6.3758678 -5.011723 -2.3072331 0.10588235
-9.4407549 -6.6406097 -2.3356953 0.035294119
-36.191631 -22.587669 -0.49635929 0.019607844
-10.967751 -8.5289555 -2.1815188 0.05882353
-14.700227 -10.275815 -2.2997241 0.062745102
-79.519989 -67.462166 0.61623365 0.10980392
-7.6667075 -5.4136815 -0.055043325 0
-16.195787 -12.533522 -2.2190118 0.062745102
-20.0249 -12.544389 -2.2181835 0.027450981
-119.09358 -91.3489 3.5074286 0.074509807
-123.40108 -76.767204 1.7010843 0.062745102
-21.214251 -16.377436 -1.8815933 0.019607844
-20.864016 -14.536004 -2.0857759 0.039215688
-113.52837 -96.252403 4.3489728 0.24705882
-21.8438 -18.634325 -1.8460149 0.0078431377
-28.476845 -17.79521 -1.9624524 0.015686275
-9.1459942 -7.1325674 0.68386149 0
-26.727741 -20.600538 -1.5757608 0.0078431377
-24.210344 -20.637653 -1.2986834 0.015686275
-34.650616 -21.630594 -1.429563 0.15686275
-6.6171889 -5.1950216 2.2903869 0
-26.797318 -20.653564 -0.78799284 0.011764706
-3.9478078 -2.8238943 -2.3277805 0.035294119
-24.589127 -20.81753 -0.56196368 0.094117649
-35.600555 -24.546383 -1.2599874 0.019607844
-6.386322 -4.9853296 -2.3050842 0.10196079
-9.4530239 -6.6020494 -2.333353 0.035294119
-22.756748 -17.438 0.0019558759 0.039215688
-36.130161 -22.382994 -0.49454406 0.019607844
-11.036867 -8.5230913 -2.1895211 0.031372551
-14.744038 -10.233188 -2.3012545 0.05882353
-59.507565 -50.180912 0.46003482 0.062745102
-16.224602 -12.469557 -2.2173178 0.054901961
-20.046051 -12.464814 -2.2159758 0.027450981
-104.89239 -79.919861 3.081809 0.074509807
-123.9001 -76.508163 1.70432 0.062745102
-21.24939 -16.291941 -1.8799449 0.011764706
-20.925257 -14.475202 -2.0870996 0.054901961
-113.90201 -95.92115 4.3509436 0.24705882
-7.1757588 -5.0383759 0.15572596 0
-21.923807 -18.576641 -1.8475728 0.019607844
-28.634268 -17.760908 -1.9692209 0.015686275
-18.664343 -12.923274 -1.1958458 0.082352944
-5.2291603 -4.1039891 0.83281988 0
-24.376534 -20.639011 -1.3039099 0.015686275
-34.691536 -21.496126 -1.4283458 0.1254902
-27.047075 -20.702038 -0.79330885 0.011764706
-3.9517207 -2.8075078 -2.3260937 0.035294119
-18.711029 -12.860732 -0.66368437 0.0039215689
-6.3761444 -4.9439173 -2.2964554 0.094117649
-9.4406223 -6.546452 -2.3255033 0.027450981
-36.123016 -22.206495 -0.49338973 0.019607844
-11.574491 -8.869978 -2.289067 0.023529412
-14.802881 -10.199123 -2.3052747 0.06666667
-79.414803 -66.452599 0.61208719 0.10980392
-16.268152 -12.414854 -2.217715 0.039215688
-20.079596 -12.390268 -2.2152147 0.027450981
-104.94663 -79.387657 3.0756261 0.074509807
-21.293482 -16.210127 -1.8790649 0.011764706
-21.927174 -18.451069 -1.84266 0.0078431377
-28.655502 -17.637691 -1.9666343 0.015686275
-31.742535 -24.101793 -1.8600057 0.027450981
-18.696383 -12.850933 -1.1951923 0.094117649
-5.0789461 -3.9631329 0.80794442 0
-24.540377 -20.632917 -1.3088788 0.015686275
-35.307472 -26.793938 -1.0312803 0.019607844
-3.9524889 -2.7870076 -2.3210278 0.039215688
-26.430218 -22.053551 -0.6002543 0.023529412
-6.3502207 -4.888679 -2.2813714 0.090196081
-9.4536705 -6.5062714 -2.3231621 0.039215688
-36.138775 -22.042309 -0.49259731 0.043137256
-11.608547 -8.831295 -2.2896957 0.023529412
-14.831822 -10.142349 -2.3042827 0.074509807
-79.350677 -65.929298 0.60972112 0.10980392
-90.193008 -61.092316 -0.62701082 0.16862746
-16.333666 -12.374096 -2.2207313 0.031372551
-20.095491 -12.302967 -2.2122653 0.035294119
-91.897308 -69.028893 2.6865957 0.074509807
-21.35313 -16.137495 -1.8793696 0.011764706
-18.74386 -12.787068 -1.8627118 0.050980393
-83.621658 -69.469437 3.1775973 0.24705882
-21.914627 -18.310123 -1.836301 0.015686275
-28.856852 -17.621927 -1.9761939 0.015686275
-31.925573 -24.064556 -1.8658041 0.011764706
-18.711348 -12.764861 -1.1933329 0.10196079
-24.710709 -20.628164 -1.3141079 0.015686275
-34.837597 -21.25267 -1.4283464 0.062745102
-35.394394 -26.665133 -1.0311375 0.019607844
-3.9652052 -2.7746174 -2.3227227 0.039215688
-25.47575 -21.111572 -0.57709467 0.023529412
-18.70076 -12.661764 -0.66024595 0.035294119
-6.3610687 -4.8612852 -2.2792232 0.10196079
-9.4763269 -6.4726353 -2.3231733 0.05882353
-89.964478 -67.09037 0.0085892603 0.24705882
-36.167534 -21.886538 -0.49199021 0.019607844
-11.642475 -8.7924824 -2.2903244 0.023529412
-14.850661 -10.078861 -2.3017762 0.086274512
-79.32093 -65.437767 0.60763919 0.10980392
-42.320808 -28.510935 -0.29437661 0.039215688
-16.402285 -12.335406 -2.2241757 0.031372551
-20.131495 -12.22804 -2.2115457 0.062745102
-21.43174 -16.078945 -1.8813466 0.011764706
-18.960527 -12.836481 -1.8796443 0.054901961
-115.36844 -95.111588 4.368876 0.24705882
-21.999981 -18.250681 -1.8381163 0.0078431377
-29.013966 -17.578184 -1.982733 0.015686275
-32.035023 -23.971457 -1.8673291 0.011764706
-18.725943 -12.67884 -1.1914735 0.10196079
-24.890566 -20.630095 -1.3198246 0.015686275
-35.007454 -21.188091 -1.4322896 0.031372551
-35.577076 -26.607679 -1.033777 0.019607844
-3.9718513 -2.7581522 -2.3210375 0.047058824
-25.450199 -20.940922 -0.57490408 0.023529412
-18.841356 -12.660083 -0.66363519 0.054901961
-6.3903923 -4.8476114 -2.2835429 0.10980392
-9.5151863 -6.4497914 -2.3271058 0.098039217
-51.648766 -38.289845 0.0047176136 0.10980392
-36.216251 -21.743147 -0.49166119 0.019607844
-11.682635 -8.7582407 -2.2921822 0.023529412
-14.931993 -10.057158 -2.3088615 0.06666667
-79.319702 -64.972565 0.60579383 0.10980392
-42.363483 -28.324743 -0.29403579 0.039215688
-16.435652 -12.270389 -2.2229114 0.031372551
-20.156963 -12.146881 -2.2097111 0.043137256
-92.537811 -68.503273 2.6910422 0.074509807
-21.503786 -16.015295 -1.882766 0.019607844
-18.981995 -12.754151 -1.8773904 0.027450981
-115.71832 -94.722885 4.3694339 0.24705882
-22.054285 -18.165598 -1.8373772 0.027450981
-29.407648 -17.674908 -2.0053048 0.015686275
-32.131359 -23.868387 -1.868111 0.011764706
-18.813311 -12.641582 -1.1942137 0.086274512
-25.070736 -20.631016 -1.3255416 0.015686275
-35.184151 -21.12669 -1.4365119 0.031372551
-6.943346 -4.7357421 1.5585703 0
-35.79517 -26.575422 -1.0374368 0.019607844
-3.9784317 -2.7416759 -2.3193521 0.047058824
-25.395821 -20.748034 -0.5720883 0.023529412
-6.4041696 -4.822402 -2.2824728 0.11764706
-9.5310984 -6.4116158 -2.3255486 0.10980392
-51.656307 -38.016464 0.0046433136 0.10980392
-36.271282 -21.603767 -0.49142489 0.039215688
-11.700388 -8.7074604 -2.2897382 0.023529412
-14.943833 -9.9890633 -2.3053453 0.062745102
-79.409348 -64.583794 0.60465729 0.10980392
-42.535503 -28.224627 -0.29459158 0.039215688
-16.471966 -12.207644 -2.222075 0.039215688
-20.171835 -12.059605 -2.2067621 0.035294119
-92.776352 -68.17926 2.6909308 0.074509807
-21.61425 -15.979667 -1.8875302 0.019607844
-20.898888 -13.92487 -2.0605021 0.031372551
-116.11965 -94.375748 4.3719759 0.24705882
-22.058668 -18.040113 -1.8325506 0.0078431377
-29.273371 -17.455475 -1.9920945 0.015686275
-32.085613 -23.660955 -1.8607172 0.011764706
-6.481535 -4.8780222 1.0132766 0
-25.235689 -20.61834 -1.3304465 0.015686275
-35.43993 -21.111204 -1.4439406 0.031372551
-36.071507 -26.584543 -1.0427663 0.019607844
-3.9875035 -2.7279007 -2.3193569 0.05882353
-36.457127 -24.033415 -1.2725607 0.023529412
-6.4481483 -4.8209853 -2.2921824 0.11764706
-9.5359144 -6.3686481 -2.3216383 0.070588239
-51.662476 -37.757248 0.0045729647 0.10980392
-36.325493 -21.47266 -0.49123281 0.039215688
-11.726006 -8.6657171 -2.2891371 0.019607844
-14.960293 -9.9280024 -2.3028383 0.05882353
-42.645592 -28.093824 -0.29475415 0.039215688
-16.493073 -12.138335 -2.2195256 0.047058824
-20.187687 -11.97794 -2.2041831 0.035294119
-131.68077 -77.577759 1.7881836 0.062745102
-21.680027 -15.916733 -1.8886698 0.027450981
-20.938286 -13.850548 -2.0598752 0.039215688
-116.46002 -94.012184 4.3728914 0.24705882
-115.84238 -76.123055 2.4304466 0.10980392
-22.09973 -17.951267 -1.8310437 0.0078431377
-22.847023 -13.542446 -1.5543613 0.0078431377
-32.225258 -23.598558 -1.8642845 0.011764706
-18.898922 -12.512073 -1.1942571 0.011764706
-25.425287 -20.631802 -1.3368125 0.015686275
-22.748011 -13.483981 -0.92763764 0.0078431377
-36.356632 -26.60784 -1.048465 0.019607844
-3.997478 -2.7126398 -2.3193619 0.039215688
-36.782894 -24.053869 -1.2808499 0.023529412
-6.4720206 -4.8012047 -2.2943466 0.11764706
-9.5887794 -6.3522854 -2.3287084 0.070588239
-2.6041663 -2.0044672 -8.2218437e-05 0
-22.754515 -13.374724 -0.30806273 0.0039215689
-11.748083 -8.6151037 -2.2873082 0.015686275
-15.069746 -9.9201002 -2.3139632 0.062745102
-80.233124 -64.326492 0.6072945 0.10980392
-53.01292 -34.618454 -0.36523199 0.050980393
-16.576134 -12.105132 -2.2246835 0.031372551
-20.217699 -11.895206 -2.2027214 0.035294119
-131.44606 -76.791588 1.7810113 0.062745102
-21.052395 -13.814407 -2.0660801 0.039215688
-116.84755 -93.619026 4.3743758 0.24705882
-22.196552 -17.894453 -1.8336271 0.0078431377
-29.808414 -17.490978 -2.0200455 0.015686275
-32.27269 -23.451563 -1.8620954 0.011764706
-32.161404 -21.045774 -2.0197926 0.019607844
-8.7603893 -5.8119755 0.87026829 0
-25.60685 -20.622736 -1.3423694 0.015686275
-36.031868 -21.121958 -1.4620057 0.031372551
-8.3215208 -6.136405 2.80812 0
-36.648376 -26.614336 -1.0540761 0.019607844
-4.0099688 -2.7000411 -2.3210571 0.031372551
-25.890419 -20.700563 -0.57836413 0.023529412
-36.833046 -23.903042 -1.2797319 0.023529412
-6.4981294 -4.7847266 -2.2975886 0.11764706
-9.6141901 -6.3203092 -2.329504 0.070588239
-51.736351 -37.245449 0.0044278251 0.10980392
-36.689384 -21.333168 -0.49414757 0.019607844
-11.784506 -8.5780582 -2.2885518 0.019607844
-15.084282 -9.8539219 -2.3109517 0.050980393
-82.370842 -65.56559 0.62161589 0.10980392
-52.975521 -34.330601 -0.36421299 0.050980393
-16.650599 -12.069791 -2.2289846 0.023529412
-20.23497 -11.810002 -2.2001433 0.035294119
-131.0625 -75.955055 1.772071 0.35294119
-21.537256 -15.576177 -1.8667039 0.027450981
-21.187557 -13.796491 -2.0745604 0.054901961
-117.20805 -93.237366 4.3755159 0.24705882
-22.274506 -17.828686 -1.8349317 0.0078431377
-29.620451 -17.242203 -2.0033495 0.015686275
-7.1075559 -4.7001543 0.353201 0
-32.529655 -23.463976 -1.8721689 0.011764706
-32.439346 -21.065014 -2.0325856 0.019607844
-25.794466 -20.624615 -1.3484125 0.015686275
-36.364864 -21.145658 -1.4725028 0.031372551
-3.9944901 -2.6705015 -2.3075395 0.047058824
-8.2031803 -6.6053238 -0.18559322 0
-6.5170999 -4.7648206 -2.2986746 0.10588235
-9.5888748 -6.2581782 -2.3185356 0.050980393
-51.888901 -37.094002 0.0043716589 0.10980392
-36.971497 -21.332336 -0.49701673 0.019607844
-11.819327 -8.5429525 -2.2897944 0.019607844
-15.120218 -9.8054209 -2.3114734 0.078431375
-82.295761 -65.061096 0.61932576 0.10980392
-42.930721 -27.639597 -0.29485866 0.039215688
-16.716446 -12.032406 -2.2324283 0.023529412
-20.267115 -11.7383 -2.1994226 0.035294119
-21.858515 -15.696302 -1.8898634 0.011764706
-102.00681 -80.611206 3.7987123 0.24705882
-22.339775 -17.7591 -1.8354689 0.0078431377
-29.892151 -17.266626 -2.0177889 0.015686275
-32.451862 -20.920095 -2.029067 0.019607844
-9.4388103 -6.8454256 1.4493115 0
-25.975679 -20.627516 -1.3542919 0.015686275
-36.694767 -21.173712 -1.4829986 0.031372551
-6.9942913 -5.1032586 2.3576312 0
-8.0179071 -5.2493525 1.7738423 0
-4.0099063 -2.6598387 -2.310925 0.06666667
-26.304644 -20.737253 -0.58446962 0.023529412
-34.795586 -22.25098 -1.204102 0.06666667
-6.5494175 -4.7525682 -2.3040724 0.10588235
-9.6139727 -6.2261791 -2.3193314 0.039215688
-11.829717 -8.4873505 -2.2861209 0.023529412
-15.140966 -9.7434645 -2.3094721 0.062745102
-82.242126 -64.553322 0.61712551 0.10980392
-43.350903 -27.695139 -0.29711798 0.039215688
-16.755102 -11.971087 -2.2320206 0.031372551
-20.294128 -11.658998 -2.1979597 0.035294119
-21.955526 -15.649265 -1.8935131 0.019607844
-21.220436 -13.61226 -2.0687549 0.047058824
-118.06348 -92.61129 4.3835235 0.24705882
-119.08712 -75.89151 2.4754324 0.10980392
-22.392206 -17.673029 -1.8347297 0.0078431377
-30.025105 -17.203094 -2.0227029 0.015686275
-9.3978767 -6.7662845 0.68306369 0
-21.939926 -15.638015 -1.2599225 0.086274512
-32.56176 -20.829687 -2.0314052 0.019607844
-8.9764452 -6.467967 1.3761351 0
-3.8351326 -2.5477164 0.3875598 0
-37.028961 -21.193321 -1.4934969 0.031372551
-22.003679 -15.682896 -0.63037801 0.062745102
-4.0436883 -2.660717 -2.3244519 0.05882353
-26.474741 -20.720825 -0.58665532 0.023529412
-34.778389 -22.069012 -1.2008911 0.06666667
-6.5691214 -4.7312942 -2.3051581 0.090196081
-9.6323318 -6.1898894 -2.3185582 0.035294119
-52.69659 -37.115788 0.0042958264 0.10980392
-37.551311 -21.316532 -0.50285357 0.019607844
-11.8431 -8.4340525 -2.2830622 0.023529412
-15.171531 -9.6878347 -2.3089852 0.06666667
-53.136837 -33.661911 -0.36310732 0.050980393
-16.793531 -11.909646 -2.2316124 0.039215688
-20.32777 -11.583573 -2.1972396 0.027450981
-7.0360579 -5.058269 0.20519271 0
-22.003489 -15.567348 -1.892982 0.019607844
-21.220631 -13.507704 -2.0642269 0.054901961
-118.38605 -92.198021 4.3833795 0.24705882
-22.422251 -17.569658 -1.8322023 0.0078431377
-29.998064 -17.04847 -2.0169282 0.015686275
-22.014002 -15.574514 -1.2610638 0.094117649
-32.691689 -20.751554 -2.0349982 0.019607844
-26.374603 -20.643219 -1.3675172 0.015686275
-37.360256 -21.208887 -1.5038565 0.031372551
-4.0498805 -2.6440644 -2.3227665 0.043137256
-26.626047 -20.688797 -0.58842444 0.023529412
-34.794224 -21.90867 -1.1988413 0.06666667
-6.591918 -4.7121444 -2.3073225 0.06666667
-9.6705008 -6.166048 -2.3224909 0.027450981
-37.942993 -21.362705 -0.50711811 0.019607844
-11.943806 -8.4417849 -2.2965982 0.019607844
-15.181718 -9.6194744 -2.3054688 0.06666667
-22.675377 -17.638187 0.16984811 0.0039215689
-16.84153 -11.854907 -2.2324886 0.031372551
-20.3785 -11.517794 -2.1983778 0.027450981
-22.064243 -15.494416 -1.8935658 0.011764706
-21.22036 -13.403316 -2.0596986 0.054901961
-118.83057 -91.878937 4.3877869 0.24705882
-22.455004 -17.468729 -1.8299303 0.0078431377
-30.147957 -16.993828 -2.0230043 0.015686275
-22.137075 -15.544958 -1.2649928 0.05882353
-26.55722 -20.635927 -1.3732367 0.015686275
-4.0530815 -2.62744 -2.3210814 0.039215688
-26.840965 -20.707375 -0.59156054 0.023529412
-34.809601 -21.751022 -1.1968254 0.06666667
-6.6180453 -4.6973472 -2.3116317 0.050980393
-9.7023182 -6.1400557 -2.3256245 0.019607844
-53.451092 -37.092346 0.0043750638 0.11372549
-38.307823 -21.39325 -0.5109877 0.019607844
-12.054713 -8.4580536 -2.3125648 0.023529412
-15.175124 -9.5429611 -2.2999039 0.070588239
-16.886305 -11.800179 -2.2333212 0.031372551
-20.42947 -11.453983 -2.1998549 0.027450981
-22.101978 -15.407896 -1.8924164 0.019607844
-21.233486 -13.30988 -2.0567503 0.062745102
-104.55039 -65.113701 2.1593604 0.10980392
-22.47155 -17.358347 -1.8265606 0.0078431377
-22.745691 -12.74151 -1.52639 0.0078431377
-7.8396134 -5.541338 0.56779057 0
-5.3180065 -3.41307 0.26348254 0
-18.603004 -12.987264 -1.0622126 0.13725491
-22.6588 -12.692996 -0.91147137 0.05882353
-7.5861974 -4.8229189 1.6661588 0
-4.0684004 -2.6164768 -2.3244669 0.039215688
-34.841084 -21.601482 -1.1953574 0.06666667
-6.631228 -4.6714296 -2.3105621 0.050980393
-9.7236929 -6.1055431 -2.3256361 0.023529412
-22.694412 -12.608293 -0.30324417 0.0039215689
-12.048324 -8.3907042 -2.305819 0.035294119
-15.235359 -9.505991 -2.3039608 0.035294119
-22.708916 -17.413118 0.16923156 0.078431375
-6.8730259 -4.3460298 -0.04800009 0
-16.927393 -11.740554 -2.2333419 0.031372551
-20.455379 -11.374301 -2.1983926 0.015686275
-113.582 -62.723953 1.51757 0.062745102
-21.225531 -13.201575 -2.0515721 0.054901961
-22.493889 -17.250183 -1.8235229 0.0078431377
-18.65152 -12.9239 -1.0624213 0.10196079
-32.727268 -20.297632 -2.0241632 0.019607844
-26.93602 -20.630688 -1.3853974 0.015686275
-22.674971 -12.597775 -0.91038269 0.078431375
-4.0744195 -2.5997591 -2.3227816 0.054901961
-35.358032 -26.844648 -0.77392197 0.10196079
-34.906048 -21.47286 -1.1950507 0.062745102
-6.6602283 -4.6563239 -2.3148825 0.047058824
-9.7315674 -6.0627642 -2.322511 0.023529412
-54.422726 -37.203613 0.0043053334 0.11372549
-12.08734 -8.3546677 -2.3076775 0.019607844
-15.288759 -9.4645758 -2.3070083 0.031372551
-22.740841 -17.311434 0.16899085 0.023529412
-54.870827 -33.693951 -0.37181443 0.050980393
-16.97485 -11.685267 -2.2342191 0.031372551
-20.470501 -11.288844 -2.1958153 0.027450981
-9.7434092 -6.7564783 0.27974409 0
-18.651133 -12.827359 -1.5917053 0.062745102
-21.230684 -13.101818 -2.0476947 0.054901961
-105.0788 -79.520302 3.8499236 0.24705882
-22.518936 -17.14448 -1.8207407 0.015686275
-8.4095793 -5.252584 0.41021851 0
-18.670111 -12.84011 -1.0609573 0.10196079
-32.869473 -20.22646 -2.0285938 0.019607844
-35.416794 -26.889412 -1.8139215 0.035294119
-22.813505 -12.569728 -0.9141739 0.078431375
-4.0834703 -2.5849147 -2.3227866 0.039215688
-34.984203 -21.352362 -1.1952085 0.062745102
-6.654108 -4.6173339 -2.3073447 0.082352944
-9.7292051 -6.0138988 -2.3170331 0.023529412
-89.984756 -60.977879 0.0072120302 0.24705882
-22.732662 -12.421646 -0.30264795 0.031372551
-12.113158 -8.3096046 -2.3070779 0.047058824
-15.31831 -9.4084864 -2.3065217 0.035294119
-90.384705 -67.924133 0.66702718 0.10980392
-74.307526 -45.235485 -0.50200069 0.16078432
-17.012239 -11.623113 -2.2338119 0.054901961
-20.481771 -11.201527 -2.1928663 0.027450981
-18.699099 -12.763809 -1.5920068 0.10588235
-21.245621 -13.0084 -2.0447931 0.047058824
-22.530743 -17.029236 -1.8169364 0.015686275
-30.284401 -16.51783 -2.0168171 0.015686275
-18.658552 -12.736202 -1.0578208 0.11764706
-33.004742 -20.150402 -2.0326064 0.019607844
-34.982891 -26.369314 -1.7871538 0.035294119
-22.881842 -12.502756 -0.91517675 0.078431375
-5.8940282 -3.6833434 1.294366 0
-4.0858126 -2.5670385 -2.319411 0.035294119
-35.568802 -26.623678 -0.77463329 0.39215687
-35.065094 -21.241846 -1.1955966 0.043137256
-6.6661882 -4.5925183 -2.3062744 0.090196081
-9.8767405 -6.0579829 -2.3468459 0.023529412
-90.462105 -60.863647 0.0071309791 0.24705882
-22.787823 -12.353196 -0.30285889 0.023529412
-12.104554 -8.2445745 -2.3003311 0.06666667
-15.32564 -9.3427191 -2.3030055 0.043137256
-90.77948 -67.750099 0.66817021 0.10980392
-74.505089 -45.017155 -0.50240713 0.16078432
-17.047392 -11.563839 -2.2334034 0.039215688
-20.455679 -11.098999 -2.1862004 0.035294119
-21.261328 -12.920831 -2.0422153 0.047058824
-22.535875 -16.915697 -1.812875 0.015686275
-30.416376 -16.458361 -2.0219634 0.015686275
-18.71064 -12.680363 -1.0584002 0.10196079
-33.191113 -20.112446 -2.039963 0.019607844
-5.7262373 -3.9602067 0.87271893 0
-35.759251 -26.765919 -1.8221326 0.035294119
-22.986546 -12.460327 -0.91771209 0.05882353
-18.666298 -12.650402 -0.52687037 0.070588239
-4.0947504 -2.5521536 -2.319416 0.047058824
-35.16991 -21.137178 -1.1966836 0.019607844
-6.672564 -4.5622034 -2.3030486 0.094117649
-9.9079275 -6.028903 -2.3492105 0.027450981
-90.993546 -60.759857 0.0070472178 0.24705882
-22.848454 -12.282385 -0.30311757 0.0039215689
-12.116818 -8.1907015 -2.2972727 0.039215688
-15.36497 -9.2926311 -2.3040333 0.047058824
-91.169792 -67.546349 0.66918921 0.10980392
-37.487801 -22.523138 -0.25305957 0.023529412
-17.077728 -11.497037 -2.2321401 0.047058824
-20.483757 -11.021295 -2.1851091 0.035294119
-21.282354 -12.831604 -2.0399642 0.047058824
-92.402794 -68.457199 3.3599145 0.24705882
-22.530596 -16.788851 -1.8077931 0.0078431377
-30.42432 -16.325161 -2.0187452 0.015686275
-18.781389 -12.632092 -1.0599098 0.086274512
-33.240555 -19.983553 -2.0387478 0.019607844
-6.2950568 -4.3094735 0.95465302 0
-7.4358459 -4.5493608 0.72393906 0
-4.1063094 -2.5398347 -2.321111 0.043137256
-36.068336 -26.614136 -0.78159881 0.050980393
-35.346401 -21.083126 -1.2003242 0.019607844
-6.6780219 -4.5330968 -2.2998223 0.090196081
-3.4757538 -2.4133501 -6.1329687e-05 0
-35.452637 -18.85607 -0.46809033 0.019607844
-12.190061 -8.1804361 -2.3058918 0.031372551
-15.364995 -9.2228203 -2.2995071 0.050980393
-87.147339 -64.124947 0.63804036 0.10980392
-37.493496 -22.357288 -0.25264117 0.023529412
-17.09586 -11.426597 -2.2295909 0.039215688
-20.502596 -10.943416 -2.1832738 0.035294119
-18.897228 -12.618351 -1.5979273 0.074509807
-21.300793 -12.746135 -2.0377114 0.047058824
-22.53467 -16.675661 -1.8037317 0.0078431377
-30.450056 -16.208658 -2.0169199 0.015686275
-18.749874 -12.520657 -1.0558426 0.035294119
-33.2929 -19.864479 -2.0379491 0.019607844
-35.773109 -26.397694 -1.8137689 0.035294119
-35.023415 -18.629183 -1.3895086 0.019607844
-35.953445 -23.904308 -1.0055064 0.019607844
-4.1124701 -2.5222907 -2.3194261 0.047058824
-36.375732 -26.63423 -0.78616267 0.050980393
-35.599171 -21.056238 -1.2062923 0.019607844
-9.9227381 -5.9424524 -2.3429604 0.05882353
-75.020439 -49.359421 0.0055416087 0.23921569
-35.486107 -18.706787 -0.46766955 0.019607844
-12.23318 -8.1437426 -2.3083661 0.039215688
-15.378181 -9.1537285 -2.2964971 0.054901961
-87.158745 -63.641926 0.63630128 0.10980392
-17.154255 -11.374138 -2.2317536 0.047058824
-118.13287 -62.064915 1.5599419 0.062745102
-22.335777 -14.77541 -1.8814548 0.027450981
-21.309578 -12.645094 -2.0341604 0.047058824
-92.878471 -67.809235 3.3596859 0.24705882
-21.950438 -16.122108 -1.7526585 0.0078431377
-30.774477 -16.235453 -2.0343878 0.015686275
-5.5781827 -3.774158 0.4007923 0
-11.251064 -6.7233844 0.54043239 0
-18.899187 -12.519191 -1.0616283 0.06666667
-33.362045 -19.739658 -2.0377815 0.019607844
-35.953606 -26.326967 -1.8180407 0.035294119
-35.031284 -18.468481 -1.3871807 0.019607844
-36.278172 -23.927549 -1.0121403 0.019607844
-4.1181202 -2.5054846 -2.3177407 0.050980393
-36.64994 -26.637754 -0.79009944 0.050980393
-22.790377 -13.408612 -0.77293843 0.0039215689
-6.6489706 -4.443996 -2.2793562 0.10196079
-9.9332609 -5.901238 -2.3406193 0.047058824
-74.649315 -48.74292 0.0054092021 0.23921569
-35.512154 -18.561888 -0.46720016 0.019607844
-12.251597 -8.0939102 -2.3065372 0.035294119
-15.379203 -9.0813751 -2.2919714 0.043137256
-22.761782 -13.391705 -0.15337998 0.039215688
-17.170525 -11.298383 -2.2287776 0.054901961
-20.548582 -10.778634 -2.1799784 0.054901961
-22.454082 -14.740308 -1.8870573 0.011764706
-21.305391 -12.54188 -2.0296321 0.047058824
-24.862389 -18.110811 -1.9783069 0.015686275
-30.81325 -16.118107 -2.0332615 0.015686275
-33.58252 -19.711109 -2.0470231 0.019607844
-35.099083 -18.347322 -1.3873609 0.019607844
-8.9268036 -5.9261322 2.9105093 0
-36.599365 -23.955137 -1.0187727 0.019607844
-4.1299796 -2.492305 -2.3194363 0.039215688
-21.96513 -15.896916 -0.4739916 0.0078431377
-36.153561 -21.042479 -1.2200842 0.019607844
-6.7064958 -4.4473433 -2.2933791 0.15294118
-9.9028912 -5.8364267 -2.3288672 0.05882353
-53.575859 -34.7477 0.0037125109 0.10980392
-35.558964 -18.428043 -0.46700925 0.019607844
-12.279779 -8.0504885 -2.3065519 0.047058824
-15.455445 -9.0528879 -2.2985532 0.035294119
-86.824409 -62.473061 0.63045585 0.21960784
-22.753016 -13.279484 -0.15303822 0.11764706
-17.199844 -11.231293 -2.227514 0.047058824
-20.579008 -10.702582 -2.1792591 0.054901961
-22.492002 -14.652567 -1.8859695 0.019607844
-21.304197 -12.440846 -2.025429 0.039215688
-22.004097 -15.925346 -1.7481136 0.0078431377
-30.855129 -16.002522 -2.0323675 0.015686275
-1.5500501 -1.1128607 0.11931147 0
-33.773712 -21.94622 -1.8808067 0.043137256
-22.144863 -16.026213 -1.1176721 0.043137256
-35.173576 -18.229582 -1.38782 0.019607844
-16.235781 -9.5029774 3.4580967 0.0039215689
-36.870831 -23.948217 -1.0240136 0.019607844
-4.1355124 -2.4754608 -2.3177509 0.039215688
-36.455589 -21.047031 -1.2277942 0.019607844
-6.699286 -4.4087386 -2.285841 0.11764706
-9.8585901 -5.7640848 -2.3139775 0.05882353
-53.797817 -34.624672 0.0036554525 0.10980392
-35.712101 -18.348734 -0.4682112 0.019607844
-12.321113 -8.0155087 -2.3090258 0.039215688
-15.504153 -9.0081654 -2.301096 0.035294119
-86.703194 -61.927544 0.62789947 0.10980392
-17.26907 -11.189915 -2.2313881 0.039215688
-20.573685 -10.608321 -2.1748233 0.062745102
-22.485914 -14.536733 -1.8812575 0.047058824
-21.312925 -12.345939 -2.0222015 0.047058824
-22.049797 -15.840885 -1.7473743 0.0078431377
-30.900133 -15.888664 -2.0317061 0.015686275
-33.883739 -21.849169 -1.8827062 0.043137256
-35.276142 -18.126112 -1.3893949 0.019607844
-4.1468496 -2.4629526 -2.3194461 0.043137256
-22.017336 -15.706575 -0.47286296 0.16470589
-36.789158 -21.075972 -1.2366641 0.019607844
-6.7431107 -4.4045472 -2.2955515 0.098039217
-9.8844681 -5.7346702 -2.3155575 0.05882353
-53.726791 -34.32732 0.0035804149 0.10980392
-35.954678 -18.321896 -0.47061852 0.019607844
-12.344294 -7.9719052 -2.3084252 0.050980393
-15.523603 -8.9502268 -2.2995992 0.035294119
-87.012581 -61.713066 0.62855202 0.32156864
-38.350536 -21.965973 -0.25599998 0.023529412
-17.326212 -11.144826 -2.2339768 0.039215688
-20.580339 -10.525047 -2.1718729 0.062745102
-22.560926 -14.478657 -1.8835136 0.011764706
-21.308731 -12.248942 -2.017997 0.047058824
-8.3765049 -4.87396 0.17191473 0
-30.977587 -15.798175 -2.0333672 0.015686275
-130.44669 -74.479126 6.1327233 0.24705882
-33.8549 -21.671711 -1.8771685 0.05882353
-33.773296 -19.356531 -2.0465131 0.019607844
-8.2752333 -5.3791366 1.2301692 0
-5.0386147 -2.9705129 0.4897455 0
-21.826099 -15.571428 -1.0964345 0.0078431377
-35.414497 -18.048235 -1.392502 0.019607844
-13.396772 -8.6399508 4.3115273 0.0039215689
-35.066578 -22.443102 -0.96999437 0.019607844
-4.1529293 -2.4471409 -2.3194535 0.039215688
-22.097855 -15.643779 -0.47338504 0.090196081
-22.704317 -12.935422 -0.76406193 0.0039215689
-6.7660346 -4.3854132 -2.2987871 0.11372549
-10.011717 -5.7596636 -2.3406563 0.039215688
-53.869217 -34.143009 0.0036514252 0.10980392
-36.257927 -18.310131 -0.47372261 0.019607844
-12.323662 -7.8965592 -2.2998128 0.070588239
-15.563664 -8.8986797 -2.3011096 0.039215688
-87.535652 -61.605675 0.63088626 0.36862746
-38.364952 -21.789652 -0.25555834 0.023529412
-17.397535 -11.102062 -2.2382436 0.039215688
-20.608639 -10.44558 -2.1711307 0.043137256
-22.59053 -14.38272 -1.8818183 0.0039215689
-21.301855 -12.142909 -2.0134337 0.039215688
-30.989378 -15.662753 -2.0305741 0.015686275
-33.809341 -21.470432 -1.8704376 0.043137256
-33.872181 -19.250093 -2.0483737 0.019607844
-7.9025936 -5.1022358 1.173594 0
-21.886484 -15.495541 -1.0967261 0.0078431377
-35.691612 -18.025826 -1.4008634 0.031372551
-35.033867 -22.243734 -0.96689051 0.039215688
-4.1614475 -2.4320133 -2.3194587 0.039215688
-6.7943554 -4.369338 -2.3031077 0.14509805
-10.035181 -5.7259841 -2.3414526 0.035294119
-53.798279 -33.835186 0.0035711587 0.10980392
-36.650974 -18.346947 -0.47803766 0.019607844
-12.317662 -7.8318839 -2.2936816 0.047058824
-15.566944 -8.8281565 -2.2970896 0.047058824
-88.019218 -61.486736 0.63270754 0.34117648
-74.029808 -41.613239 -0.49083 0.16470589
-17.449661 -11.049104 -2.2399778 0.047058824
-20.630716 -10.365864 -2.1696687 0.043137256
-103.41406 -64.938217 2.8521776 0.074509807
-22.61693 -14.288326 -1.8798949 0.011764706
-21.3302 -12.060065 -2.0121586 0.031372551
-31.161804 -15.612644 -2.038281 0.015686275
-33.799442 -21.298618 -1.8658323 0.011764706
-33.949615 -19.136993 -2.049042 0.019607844
-36.112114 -18.078791 -1.4148525 0.031372551
-35.050308 -22.082468 -0.96526325 0.039215688
-4.1659021 -2.4166083 -2.3177731 0.039215688
-35.586277 -24.765347 -0.75640678 0.10196079
-22.761662 -12.767829 -0.76318491 0.05882353
-6.8113203 -4.3494506 -2.3041935 0.10980392
-10.042842 -5.6881495 -2.3391109 0.027450981
-54.026562 -33.741547 0.0035202941 0.10980392
-37.002457 -18.37649 -0.48188466 0.019607844
-12.358985 -7.8030357 -2.2967687 0.031372551
-15.58767 -8.7747908 -2.296097 0.054901961
-88.488174 -61.400639 0.63458616 0.33333334
-74.006401 -41.294296 -0.48989564 0.16470589
-17.457277 -10.976854 -2.2365718 0.054901961
-20.652472 -10.295146 -2.1685758 0.035294119
-5.5891228 -2.8484735 0.074713565 0
-22.648161 -14.20821 -1.8788049 0.0039215689
-21.371469 -11.994377 -2.0125072 0.031372551
-31.174906 -15.496413 -2.0359898 0.015686275
-7.732439 -4.9218755 0.54275584 0
-33.886543 -21.204437 -1.8669853 0.011764706
-22.715427 -12.742302 -1.3722398 0.0039215689
-36.437508 -18.097553 -1.4253516 0.031372551
-35.055008 -21.931526 -0.96353877 0.039215688
-4.1084962 -2.3631327 -2.2822821 0.06666667
-35.644848 -24.602936 -0.75569135 0.050980393
-22.7195 -12.629445 -0.76019448 0.070588239
-6.8148618 -4.3144937 -2.2998908 0.098039217
-10.054309 -5.6431828 -2.3367715 0.039215688
-4.8169274 -3.0805323 -1.3980898e-05 0
-37.388878 -18.388357 -0.48601988 0.019607844
-12.415764 -7.7714553 -2.301703 0.027450981
-15.583034 -8.6931114 -2.2905641 0.039215688
-89.006851 -61.254505 0.63648885 0.25882354
-74.076866 -40.960854 -0.48941693 0.16470589
-17.485764 -10.90071 -2.2348833 0.054901961
-20.677547 -10.208089 -2.1671162 0.043137256
-22.688969 -14.112082 -1.8777205 0.0039215689
-21.361517 -11.880737 -2.0073309 0.023529412
-113.62436 -62.77644 2.2740946 0.10980392
-31.374058 -15.444399 -2.0450954 0.015686275
-5.824553 -3.7023101 0.41075075 0
-34.090122 -21.149042 -1.8737229 0.011764706
-7.1507459 -4.0403833 0.68314892 0
-18.621367 -12.910296 -0.92777532 0.1882353
-36.894505 -18.146664 -1.4404625 0.031372551
-35.084522 -21.762484 -0.96210128 0.039215688
-4.1517038 -2.3673062 -2.3008809 0.062745102
-35.6479 -24.421434 -0.75399816 0.050980393
-22.77397 -12.555207 -0.76057047 0.06666667
-6.8200278 -4.2840271 -2.2966652 0.11764706
-10.073946 -5.6074371 -2.3367836 0.023529412
-54.842113 -33.692196 0.0034198998 0.10980392
-55.135788 -26.837297 -0.71430624 0.047058824
-12.456298 -7.7357111 -2.3041773 0.039215688
-15.64461 -8.6551895 -2.2951267 0.050980393
-89.510941 -61.141113 0.63844895 0.22745098
-74.198341 -40.689911 -0.4893676 0.16470589
-17.486399 -10.816144 -2.230195 0.062745102
-22.744896 -14.036353 -1.8783062 0.0039215689
-21.378376 -11.792091 -2.00508 0.023529412
-31.399033 -15.32023 -2.043273 0.015686275
-34.081955 -20.979225 -1.8693037 0.011764706
-22.794205 -12.566488 -1.3714608 0.035294119
-18.62339 -12.815336 -0.92568582 0.20392157
-37.288498 -18.17771 -1.4533384 0.031372551
-35.139809 -21.626741 -0.96158755 0.039215688
-4.1591225 -2.3536949 -2.3008857 0.054901961
-22.848444 -12.502117 -0.76175714 0.074509807
-6.8334556 -4.262023 -2.2966728 0.12156863
-10.077729 -5.5677152 -2.3336577 0.031372551
-75.122437 -45.787277 0.0047221929 0.23921569
-41.705013 -20.158056 -0.54017293 0.019607844
-12.467035 -7.6877656 -2.3017323 0.043137256
-15.685677 -8.6130133 -2.2971635 0.070588239
-90.000687 -61.060871 0.64046657 0.16470589
-74.448845 -40.522835 -0.49025545 0.16470589
-17.5135 -10.756462 -2.2293582 0.047058824
-20.701731 -10.048823 -2.162703 0.043137256
-22.833208 -13.991219 -1.8819556 0.0039215689
-21.418827 -11.726213 -2.0054286 0.023529412
-18.746302 -12.812423 -1.4633412 0.054901961
-31.486591 -15.239999 -2.0458632 0.015686275
-34.175014 -20.88809 -1.8708283 0.011764706
-23.002071 -12.585755 -1.3815259 0.011764706
-18.653635 -12.749482 -0.9252193 0.20392157
-37.766857 -18.262768 -1.4696976 0.031372551
-6.4328074 -4.0168643 2.072705 0
-35.193916 -21.507364 -0.96125501 0.05882353
-4.2028346 -2.3566952 -2.3194847 0.05882353
-35.720352 -24.114571 -0.75213873 0.047058824
-22.915237 -12.429019 -0.76248324 0.078431375
-6.8424349 -4.2323232 -2.2945254 0.13333334
-10.091161 -5.5263767 -2.3321018 0.035294119
-75.145882 -45.424248 0.0046161944 0.23921569
-41.778618 -20.004427 -0.54022455 0.019607844
-12.501898 -7.6454587 -2.302978 0.043137256
-15.661238 -8.5247269 -2.2891049 0.06666667
-90.476212 -60.89949 0.64213699 0.086274512
-17.528969 -10.677179 -2.2263839 0.047058824
-20.698877 -9.9533796 -2.1586401 0.054901961
-24.886656 -15.114418 -2.0453618 0.0039215689
-21.45113 -11.641318 -2.0044799 0.023529412
-18.83621 -12.771924 -1.466688 0.070588239
-31.571072 -15.1376 -2.0477619 0.015686275
-34.20002 -20.731102 -1.868084 0.011764706
-34.211876 -18.510426 -2.0454803 0.019607844
-6.7847633 -3.7455289 0.6453504 0
-18.723463 -12.695987 -0.92638177 0.1882353
-38.082516 -18.242308 -1.4793692 0.031372551
-35.279358 -21.381718 -0.96148604 0.05882353
-4.2142353 -2.3430994 -2.3211801 0.039215688
-35.804321 -23.989109 -0.75218338 0.098039217
-23.088993 -12.417996 -0.76681012 0.062745102
-6.8571701 -4.2077937 -2.294534 0.10196079
-10.055033 -5.4609418 -2.3195653 0.050980393
-75.664406 -45.376671 0.004547745 0.23921569
-41.746944 -19.809994 -0.53897285 0.019607844
-12.538688 -7.6072402 -2.3048372 0.043137256
-15.680402 -8.4637785 -2.2876091 0.062745102
-91.021065 -60.804546 0.64437699 0.047058824
-17.569551 -10.617346 -2.2268333 0.047058824
-20.744307 -9.8855476 -2.1597798 0.054901961
-24.908453 -15.008392 -2.0428829 0.0039215689
-21.49164 -11.565744 -2.0045056 0.031372551
-18.850794 -12.685541 -1.4644116 0.070588239
-31.573183 -15.002791 -2.0445447 0.015686275
-34.327042 -20.643793 -1.8711003 0.011764706
-34.219906 -18.360165 -2.0421746 0.019607844
-38.720642 -18.380211 -1.5015935 0.031372551
-35.381241 -21.274239 -0.96227187 0.078431375
-4.225595 -2.3294544 -2.3228755 0.035294119
-36.054611 -23.973721 -0.7557047 0.050980393
-6.8618808 -4.1773152 -2.2913082 0.10196079
-9.9977722 -5.3848181 -2.3023226 0.054901961
-76.85424 -45.72419 0.0045208987 0.23921569
-41.765137 -19.639782 -0.53837138 0.019607844
-12.520985 -7.5365782 -2.2968616 0.050980393
-15.751938 -8.4306536 -2.2936871 0.062745102
-91.49295 -60.658009 0.64609861 0.21960784
-76.187622 -40.420307 -0.49909356 0.16078432
-17.572308 -10.535032 -2.2225733 0.054901961
-20.782293 -9.8141479 -2.1601758 0.035294119
-24.943539 -14.910554 -2.0415196 0.0039215689
-21.514267 -11.480712 -2.0029049 0.062745102
-7.069119 -4.7930131 0.25309086 0
-31.596432 -14.878323 -2.0427222 0.015686275
-34.419514 -20.535463 -1.8722577 0.011764706
-34.244957 -18.219431 -2.0399144 0.019607844
-7.0715165 -4.3005981 1.0350099 0
-7.1983504 -3.9019902 0.68115163 0
-39.009026 -18.349434 -1.5102879 0.031372551
-5.9586992 -3.2456095 1.2655389 0
-35.537823 -21.198978 -0.96454322 0.05882353
-4.2332978 -2.3148427 -2.3228805 0.031372551
-36.327785 -23.980806 -0.75978059 0.050980393
-6.8591051 -4.1441736 -2.2859259 0.11372549
-10.085027 -5.3875217 -2.3180203 0.047058824
-22.824705 -13.549148 0.0010650696 0.0078431377
-41.76836 -19.471952 -0.537628 0.019607844
-12.498235 -7.4663391 -2.2882705 0.054901961
-15.769269 -8.3722486 -2.2921901 0.070588239
-52.937382 -27.888174 -0.34670186 0.043137256
-17.590017 -10.466022 -2.220453 0.047058824
-20.807501 -9.7412367 -2.1594558 0.074509807
-22.854427 -13.567308 -1.8681275 0.0039215689
-21.492216 -11.377208 -1.9973994 0.086274512
-7.5026898 -5.0433755 0.26766166 0
-117.99137 -62.046425 2.3345077 0.023529412
-26.142954 -17.290176 -2.0164638 0.015686275
-31.638353 -14.769514 -2.0422926 0.015686275
-34.539062 -20.451048 -1.8750863 0.011764706
-34.294579 -18.099611 -2.0393257 0.019607844
-6.3434396 -3.8392644 0.92917275 0
-19.033588 -12.619192 -0.9352293 0.070588239
-9.6521292 -5.1587329 2.024065 0
-35.756081 -21.167711 -0.96857649 0.019607844
-4.2321086 -2.2936423 -2.3178151 0.050980393
-36.61982 -23.980062 -0.76407009 0.050980393
-6.8642721 -4.1125298 -2.2827005 0.11764706
-10.076871 -5.3353882 -2.3117585 0.047058824
-41.803116 -19.30139 -0.53721476 0.019607844
-12.470915 -7.3879337 -2.2784514 0.090196081
-15.79985 -8.3137512 -2.2922101 0.070588239
-92.8927 -60.654293 0.65273774 0.10980392
-52.950535 -27.647161 -0.34619078 0.043137256
-17.617958 -10.39482 -2.2191911 0.031372551
-20.839447 -9.6626005 -2.1591098 0.054901961
-59.100967 -27.254705 0.76069087 0.039215688
-25.016016 -14.716706 -2.0390713 0.0039215689
-21.494869 -11.277469 -1.9938481 0.039215688
-26.102474 -17.12603 -2.0085754 0.015686275
-31.695904 -14.654482 -2.0425642 0.015686275
-22.852568 -13.452542 -1.2413465 0.0039215689
-34.445724 -18.017412 -2.0443897 0.019607844
-40.443699 -18.676659 -1.5606017 0.031372551
-8.3654251 -4.4433289 1.7556614 0
-22.76778 -13.402794 -0.61730498 0.0039215689
-4.2425156 -2.2814438 -2.3195102 0.039215688
-36.93 -24.016468 -0.76897925 0.050980393
-35.181709 -18.259195 -1.1570522 0.050980393
-6.8938193 -4.1000528 -2.2880988 0.098039217
-10.097071 -5.3049502 -2.3125539 0.050980393
-22.753782 -13.297953 0.0010009489 0.05882353
-41.878105 -19.176046 -0.53744459 0.019607844
-12.593214 -7.4056745 -2.2962918 0.031372551
-15.829417 -8.2653399 -2.2927325 0.062745102
-75.635086 -49.068386 0.53046584 0.10980392
-53.058456 -27.491135 -0.34638619 0.043137256
-17.63677 -10.330882 -2.2174978 0.031372551
-20.840712 -9.5833063 -2.1561582 0.054901961
-5.3651285 -3.2125766 0.14903586 0
-25.062128 -14.637488 -2.0390987 0.0039215689
-21.71439 -11.304461 -2.0107872 0.023529412
-26.176258 -17.056402 -2.010138 0.015686275
-22.106348 -10.160205 -1.4260918 0.0078431377
-34.677467 -20.214279 -1.8751684 0.011764706
-34.594437 -17.956211 -2.0498657 0.019607844
-34.72728 -22.591051 -1.6915281 0.035294119
-40.545822 -18.568853 -1.5623183 0.031372551
-36.300606 -21.155378 -0.97943169 0.019607844
-4.2479281 -2.2652745 -2.3195193 0.039215688
-37.243423 -24.0277 -0.77366191 0.050980393
-35.241718 -18.128094 -1.1569282 0.011764706
-6.9225502 -4.0837922 -2.2934933 0.090196081
-10.11698 -5.2691665 -2.313344 0.050980393
-22.761168 -13.192149 0.0010108275 0.074509807
-22.111229 -10.065166 -0.28457668 0.0039215689
-12.607008 -7.3530612 -2.294446 0.023529412
-15.821284 -8.1887321 -2.2876856 0.062745102
-74.905502 -48.209797 0.52424586 0.10980392
-53.166306 -27.301964 -0.3464379 0.043137256
-17.612881 -10.232031 -2.2102118 0.031372551
-20.869053 -9.5048294 -2.1557963 0.035294119
-25.084854 -14.529284 -2.0368536 0.0039215689
-21.734896 -11.215337 -2.0091603 0.015686275
-7.0370793 -3.6919582 0.14143051 0
-26.265715 -16.979437 -2.0124085 0.015686275
-31.82095 -14.450744 -2.044466 0.015686275
-8.4233112 -4.4013705 0.39370531 0
-34.803589 -20.118708 -1.8781185 0.011764706
-34.685345 -17.843645 -2.0515316 0.019607844
-34.645237 -22.359753 -1.6836826 0.10980392
-40.796284 -18.503901 -1.5694417 0.031372551
-36.586197 -21.14361 -0.98506898 0.019607844
-4.2594366 -2.2506714 -2.3212152 0.047058824
-37.540386 -24.023588 -0.77802336 0.050980393
-35.361412 -18.025274 -1.1587167 0.011764706
-6.9073586 -4.0405574 -2.2837999 0.10196079
-10.136225 -5.2313914 -2.3133571 0.035294119
-42.08744 -18.900433 -0.5384351 0.019607844
-12.60984 -7.2924399 -2.2901597 0.031372551
-15.829961 -8.1192608 -2.2846763 0.06666667
-74.555397 -47.599056 0.52047801 0.10980392
-53.358768 -27.153301 -0.34710675 0.047058824
-17.622629 -10.150987 -2.2068093 0.031372551
-20.896481 -9.424366 -2.1550796 0.043137256
-130.47346 -74.502937 3.5071347 0.074509807
-22.297735 -10.050176 0.28678969 0.58039218
-26.398479 -16.927429 -2.0178106 0.015686275
-31.910156 -14.349658 -2.0468309 0.015686275
-130.38199 -74.448914 8.7602749 0.078431375
-34.963875 -20.039837 -1.8828123 0.011764706
-34.775452 -17.728384 -2.0530405 0.019607844
-34.65617 -22.186874 -1.680315 0.070588239
-41.564487 -18.666933 -1.5962797 0.031372551
-36.868401 -21.125589 -0.99059486 0.019607844
-4.2705078 -2.2367914 -2.3229108 0.043137256
-35.774754 -22.722967 -0.7400279 0.047058824
-35.549152 -17.963974 -1.1628277 0.019607844
-6.9784184 -4.0480399 -2.3021364 0.090196081
-10.129897 -5.1830144 -2.3078794 0.047058824
-42.617596 -18.958534 -0.54438919 0.019607844
-12.645542 -7.2535896 -2.2920196 0.035294119
-15.847573 -8.0579786 -2.2831812 0.082352944
-74.802246 -47.389187 0.52094769 0.10980392
-53.660503 -27.070473 -0.34851208 0.047058824
-17.657957 -10.088783 -2.2068315 0.023529412
-21.005718 -9.3846178 -2.1629102 0.027450981
-23.354382 -13.310798 -1.8896981 0.0039215689
-21.84309 -11.072561 -2.0118175 0.039215688
-26.551888 -16.894272 -2.0250003 0.019607844
-31.945454 -14.231088 -2.0459394 0.015686275
-35.096214 -19.95245 -1.8862023 0.011764706
-34.844261 -17.60985 -2.0535014 0.019607844
-34.638809 -22.00535 -1.6758072 0.10980392
-42.035095 -18.70084 -1.611816 0.031372551
-4.2742715 -2.2211814 -2.3212254 0.05882353
-35.834385 -17.965881 -1.1703053 0.019607844
-6.9776683 -4.0179887 -2.2978318 0.11372549
-10.177718 -5.1663637 -2.3149498 0.047058824
-43.149342 -19.031507 -0.55043209 0.019607844
-12.651037 -7.203588 -2.2889605 0.035294119
-15.915418 -8.0288486 -2.2892578 0.05882353
-74.943977 -47.149151 0.52081555 0.10980392
-54.038776 -27.047625 -0.35046601 0.047058824
-17.682631 -10.028804 -2.2059948 0.023529412
-21.031452 -9.3164186 -2.1625612 0.035294119
-21.767181 -10.948149 -2.0017567 0.047058824
-26.543972 -16.772013 -2.0204303 0.019607844
-32.106995 -14.181492 -2.0534129 0.015686275
-1.1367557 -0.73746514 0.087604649 0.0039215689
