# .PCD v0.7 - Point Cloud Data file format
VERSION 0.7
FIELDS x y z intensity
SIZE 4 4 4 4
TYPE F F F F
COUNT 1 1 1 1
WIDTH 1113
HEIGHT 1
VIEWPOINT 0 0 0 1 0 0 0
POINTS 1113
DATA ascii
33.832424 -23.651991 -0.47465408 0.062745102
13.114727 -7.3755727 -2.3381646 0.05882353
15.926272 -10.01141 -2.3913293 0.035294119
5.1201572 -3.2169256 -0.034221638 0
17.42137 -9.7982988 -2.1497676 0.11764706
17.609934 -12.309658 -2.0022728 0.05882353
18.776566 -10.560671 -1.503078 0.070588239
18.144588 -11.406208 -1.7462482 0.062745102
5.6327581 -2.8138013 0.18409283 0
30.639215 -21.419371 -2.1716192 0.050980393
32.334824 -18.18795 -1.7226691 0.047058824
32.470718 -20.413956 -2.0044215 0.019607844
33.568497 -16.778723 -1.5234441 0.019607844
33.041035 -23.098665 -1.401953 0.062745102
4.2057419 -2.661448 -2.3185756 0.039215688
8.4999094 -4.282352 -0.16468209 0
33.892658 -21.465157 -1.1617229 0.043137256
7.2082758 -4.084374 -2.3171251 0.06666667
9.9909439 -6.3257976 -2.3626652 0.035294119
9.0960569 -5.1546049 0.0015310263 0.0039215689
33.766876 -23.773252 -0.47483954 0.039215688
13.128017 -7.4404511 -2.3449223 0.039215688
15.896339 -10.066277 -2.3918338 0.070588239
17.402618 -9.8638487 -2.1514788 0.094117649
17.617865 -12.402369 -2.0078421 0.050980393
18.737968 -10.620896 -1.5027993 0.050980393
18.126871 -11.479099 -1.7481978 0.070588239
18.889011 -9.5189447 -1.3523464 0.070588239
30.62352 -21.559925 -2.1755643 0.031372551
32.854813 -18.624155 -1.7536567 0.019607844
32.510826 -20.589903 -2.0111027 0.019607844
5.6089649 -3.1776659 0.79213816 0
33.484112 -16.875544 -1.5221446 0.019607844
32.983864 -23.221903 -1.4027885 0.031372551
4.1990147 -2.6787815 -2.3202655 0.043137256
33.881157 -21.632259 -1.1640394 0.043137256
7.1899142 -4.1088405 -2.3160474 0.074509807
9.9478579 -6.3496943 -2.3579619 0.035294119
33.705612 -23.915359 -0.47520924 0.019607844
13.059484 -7.4649606 -2.3375497 0.035294119
15.862682 -10.126594 -2.3923388 0.054901961
17.387066 -9.9393978 -2.1540456 0.094117649
17.637247 -12.512941 -2.0152669 0.043137256
18.723164 -10.703355 -1.5047482 0.070588239
18.098118 -11.554029 -1.7494978 0.094117649
18.871784 -9.5971489 -1.3536221 0.062745102
30.625711 -21.729782 -2.181366 0.031372551
6.406311 -3.6607809 0.43062574 0
32.556351 -20.786301 -2.0186193 0.019607844
33.375721 -16.974585 -1.5200338 0.039215688
32.921352 -23.358818 -1.4037634 0.031372551
34.972179 -19.994261 -0.93155509 0.035294119
4.1930571 -2.6953695 -2.3219104 0.047058824
6.693748 -3.4320276 -0.13004756 0
33.910023 -21.817446 -1.1670932 0.043137256
7.1859102 -4.139668 -2.3191888 0.050980393
9.9227028 -6.3822422 -2.3570385 0.062745102
90.010735 -64.343758 -1.2708682 0.082352944
12.944684 -7.4591651 -2.3213921 0.047058824
15.840956 -10.190478 -2.3941195 0.054901961
17.380199 -10.015901 -2.1572115 0.094117649
17.668348 -12.627686 -2.0235305 0.023529412
18.710249 -10.782574 -1.5064194 0.12156863
18.071451 -11.625746 -1.7505231 0.062745102
18.859837 -9.6738768 -1.3548793 0.062745102
30.602022 -21.873695 -2.1845849 0.031372551
6.4805236 -4.1673145 0.31499517 0
32.468361 -18.713079 -1.7396104 0.06666667
6.7627416 -4.3489165 0.65739882 0
33.334408 -17.100086 -1.520342 0.039215688
32.875748 -23.499147 -1.4047616 0.031372551
7.4825635 -4.8121114 1.6229035 0
34.899055 -20.114193 -0.93092304 0.015686275
4.1749692 -2.7033298 -2.3168406 0.054901961
58.47884 -30.245859 -1.1388625 0.17254902
33.928078 -21.98848 -1.1702191 0.062745102
7.1821356 -4.1692653 -2.3224218 0.043137256
9.9113598 -6.4214993 -2.3593903 0.043137256
89.488495 -64.419884 -1.2665092 0.082352944
12.943802 -7.515933 -2.3256919 0.050980393
15.830383 -10.258046 -2.3976512 0.05882353
17.360643 -10.081458 -2.1589227 0.094117649
17.781528 -12.797886 -2.0413475 0.0078431377
18.643333 -10.826509 -1.5039138 0.16470589
18.096363 -11.726797 -1.7566955 0.043137256
18.841837 -9.7436886 -1.3558997 0.11764706
30.597372 -22.024033 -2.1894574 0.031372551
11.384925 -6.6104579 0.76858068 0
32.381939 -18.806585 -1.7383119 0.078431375
32.310558 -20.940042 -2.0116379 0.05882353
33.30592 -17.225212 -1.5216388 0.039215688
32.833321 -23.633713 -1.4062922 0.062745102
33.898521 -19.687492 -0.90596712 0.039215688
4.1655073 -2.7178719 -2.3168409 0.05882353
57.993488 -30.251858 -1.1314578 0.17254902
33.924763 -22.154865 -1.1727666 0.086274512
7.1575656 -4.1884561 -2.3191888 0.047058824
9.911871 -6.4710569 -2.3648777 0.043137256
88.900436 -64.468857 -1.2613693 0.082352944
12.958417 -7.585021 -2.3330634 0.062745102
15.811091 -10.324077 -2.4001739 0.050980393
6.6569252 -3.4705415 0.044805199 0
152.46628 -99.57917 -1.0300015 0.16862746
17.34594 -10.15404 -2.1614895 0.10980392
18.068832 -13.100697 -2.0795779 0.015686275
171.0979 -100.18021 4.644475 0.074509807
18.629532 -10.905621 -1.5058626 0.10980392
18.108725 -11.824761 -1.7618934 0.043137256
152.58569 -99.657204 3.2094784 0.10980392
18.804171 -9.807539 -1.3556439 0.094117649
30.584961 -22.177578 -2.1940982 0.031372551
9.208065 -5.3890843 0.62284404 0
32.288513 -18.903341 -1.736828 0.06666667
32.203823 -21.030842 -2.0095515 0.05882353
33.295197 -17.367233 -1.5239087 0.039215688
32.757099 -23.752861 -1.4065723 0.031372551
33.846844 -19.81579 -0.90642929 0.023529412
4.1646023 -2.7390859 -2.3219106 0.047058824
69.992996 -36.838734 -1.3682133 0.18431373
33.883411 -22.305426 -1.1741565 0.062745102
7.1487994 -4.2185631 -2.3213441 0.050980393
9.8848104 -6.5051689 -2.364094 0.039215688
6.3381705 -3.7399206 0.0011707478 0
71.280388 -52.090244 -1.0140578 0.082352944
12.961162 -7.6505356 -2.3385923 0.050980393
15.799661 -10.399399 -2.4042101 0.039215688
17.342852 -10.237752 -2.165767 0.10196079
170.12698 -100.45081 4.6280813 0.074509807
18.603182 -10.981928 -1.5069762 0.094117649
18.101892 -11.915153 -1.7654673 0.043137256
18.789295 -9.8875351 -1.3571746 0.10196079
30.564728 -22.334282 -2.1985071 0.015686275
7.0707726 -4.6524835 0.34605026 0
32.212124 -19.017475 -1.736457 0.06666667
32.246632 -21.227793 -2.017067 0.019607844
33.280834 -17.515194 -1.5261786 0.05882353
32.737598 -23.922281 -1.4094932 0.031372551
34.504002 -20.370741 -0.92602438 0.015686275
4.1550155 -2.7535913 -2.3219109 0.043137256
57.443466 -30.489779 -1.1249512 0.17254902
33.865311 -22.463335 -1.1762412 0.062745102
7.1274104 -4.2395363 -2.3191888 0.039215688
9.8783865 -6.5504599 -2.3680136 0.043137256
70.676163 -52.028084 -1.008044 0.082352944
12.958152 -7.7098675 -2.3428922 0.043137256
15.759955 -10.452277 -2.4037063 0.050980393
17.324097 -10.308383 -2.1679058 0.10980392
18.109329 -13.328796 -2.0951693 0.050980393
5.4814444 -3.2598975 0.14934348 0
18.581877 -11.056988 -1.5083683 0.086274512
18.090088 -11.998088 -1.7683915 0.043137256
10.411528 -5.5243435 0.34477866 0
18.747612 -9.9493027 -1.3566638 0.094117649
30.560541 -22.495272 -2.2038441 0.015686275
32.195637 -21.355667 -2.0185289 0.019607844
33.286564 -17.666847 -1.5292598 0.039215688
32.702179 -24.071943 -1.4115803 0.031372551
34.40863 -20.476728 -0.92537755 0.015686275
4.1463447 -2.766618 -2.3219111 0.035294119
35.062458 -18.750931 -0.68775994 0.027450981
33.854424 -22.609579 -1.1783258 0.062745102
7.1206636 -4.2658539 -2.3213441 0.039215688
9.8479738 -6.5749121 -2.3656626 0.035294119
70.515579 -52.252232 -1.0080948 0.082352944
12.916918 -7.7403655 -2.3398209 0.054901961
15.713842 -10.492908 -2.4016891 0.054901961
5.5819993 -3.7255628 -0.037918594 0
17.322329 -10.381147 -2.1717558 0.10196079
18.092968 -13.404581 -2.0981395 0.078431375
18.57785 -11.13376 -1.5108742 0.074509807
18.098719 -12.085848 -1.7729398 0.043137256
113.61536 -60.765091 3.7697484 0.24705882
153.59676 -102.58923 3.2527776 0.10980392
18.723303 -10.011905 -1.3571737 0.078431375
30.544262 -22.631573 -2.2077887 0.015686275
9.4945793 -5.6888833 0.64616174 0
2.722558 -1.8156552 0.133727 0
32.743298 -19.625105 -1.7720737 0.019607844
32.158283 -21.476664 -2.0204089 0.019607844
33.290806 -17.803366 -1.5320165 0.039215688
32.67136 -24.20787 -1.4135282 0.031372551
34.426449 -20.634056 -0.92759609 0.015686275
4.1356912 -2.7825015 -2.3219113 0.035294119
34.969082 -18.874002 -0.68734401 0.027450981
33.780624 -22.74832 -1.1787903 0.086274512
7.1174169 -4.3011189 -2.3256547 0.06666667
9.8194027 -6.6104698 -2.3648791 0.035294119
3.2043593 -1.9350096 0.00060703728 0
70.811104 -52.893616 -1.0152221 0.082352944
12.876955 -7.7837524 -2.3379781 0.035294119
15.683311 -10.5598 -2.4032032 0.050980393
113.43825 -61.231678 0.7693097 0.10980392
6.2842646 -4.2295904 -0.042805966 0
17.299358 -10.457855 -2.1738949 0.078431375
18.044556 -13.47632 -2.0985122 0.086274512
18.565693 -11.223577 -1.5133799 0.086274512
18.091864 -12.181961 -1.7768388 0.043137256
10.636586 -5.7393098 0.353553 0
152.53827 -102.7314 3.2386839 0.10980392
18.407217 -9.9339066 -1.3370119 0.05882353
30.514727 -22.791687 -2.2119663 0.015686275
11.061605 -6.68607 0.75458962 0
32.712151 -19.777542 -1.7744856 0.019607844
32.2048 -21.686993 -2.0285504 0.019607844
6.5312977 -4.3959746 0.64370209 0
33.278477 -17.961418 -1.5346111 0.039215688
32.616604 -24.361834 -1.4151987 0.031372551
34.408566 -20.80332 -0.92926025 0.015686275
4.1259527 -2.796906 -2.3219113 0.039215688
57.437183 -31.261683 -1.1311744 0.17254902
33.618301 -22.809954 -1.1758983 0.043137256
7.0595999 -4.2998633 -2.311645 0.062745102
9.7832861 -6.6358809 -2.3617442 0.035294119
34.134079 -25.681528 -0.49062505 0.019607844
12.839581 -7.8224688 -2.3361354 0.023529412
15.659488 -10.623377 -2.4052217 0.054901961
17.28652 -10.532652 -2.1768897 0.094117649
18.003769 -13.544001 -2.099256 0.086274512
18.543442 -11.298686 -1.5147723 0.094117649
18.095413 -12.276365 -1.7813872 0.035294119
7.0992417 -4.8145642 0.15102935 0
18.386452 -10.005719 -1.3380322 0.035294119
30.505178 -22.950871 -2.2170713 0.015686275
32.677036 -19.912392 -1.776341 0.039215688
32.228062 -21.86655 -2.0348134 0.019607844
33.296314 -18.121405 -1.5383412 0.039215688
32.579281 -24.511578 -1.417286 0.062745102
34.386959 -20.954506 -0.93064702 0.035294119
4.1221504 -2.8153684 -2.3252914 0.035294119
110.68964 -60.74968 -2.1841908 0.24705882
33.591282 -22.963257 -1.1777517 0.086274512
7.0511112 -4.328496 -2.3138006 0.10196079
9.7341566 -6.6522646 -2.3554738 0.047058824
83.123543 -63 -1.1980507 0.082352944
12.812197 -7.8672242 -2.3361356 0.023529412
15.655066 -10.700355 -2.4102671 0.039215688
17.276756 -10.609566 -2.1803119 0.10980392
17.956383 -13.606747 -2.0992575 0.05882353
18.503889 -11.363331 -1.5147725 0.10588235
18.082067 -12.359692 -1.7843115 0.035294119
30.494894 -23.110268 -2.2221766 0.015686275
6.1183639 -3.7555714 0.41904566 0
5.5104237 -3.764559 0.27282298 0
32.61414 -20.030502 -1.7767125 0.027450981
32.194401 -22.008205 -2.0375285 0.019607844
32.724823 -17.958673 -1.5148208 0.019607844
32.560421 -24.67585 -1.4202073 0.062745102
7.5466762 -5.1567516 1.6674227 0
4.1093125 -2.8276699 -2.323602 0.043137256
110.10598 -60.930408 -2.1768553 0.24705882
33.540554 -23.100775 -1.178795 0.086274512
7.0392342 -4.3550963 -2.3148782 0.10980392
9.7237988 -6.6950898 -2.3586094 0.05882353
82.845886 -63.246071 -1.1972306 0.082352944
12.697279 -7.8577929 -2.3201642 0.039215688
15.601281 -10.743669 -2.4077454 0.047058824
9.5408058 -5.2775178 0.065072656 0
17.270052 -10.688636 -2.1841621 0.070588239
17.984751 -13.727334 -2.1081667 0.05882353
18.457323 -11.423637 -1.5142158 0.098039217
18.078215 -12.449861 -1.7882105 0.035294119
30.69426 -16.98387 -2.2424896 0.019607844
30.458471 -23.250484 -2.2254262 0.015686275
32.666321 -20.219929 -1.7833911 0.027450981
32.179886 -22.163496 -2.0414958 0.019607844
32.515388 -24.820875 -1.4220167 0.062745102
34.314632 -21.240343 -0.93268156 0.035294119
4.0994172 -2.8419816 -2.323602 0.043137256
109.65514 -61.181854 -2.1721494 0.24705882
33.476139 -23.229095 -1.1793755 0.086274512
7.0174532 -4.3755484 -2.3127229 0.086274512
9.7100363 -6.7356849 -2.3609617 0.062745102
82.580223 -63.500729 -1.1965945 0.082352944
12.72678 -7.9376178 -2.3306074 0.039215688
15.579983 -10.809358 -2.4102685 0.039215688
17.256256 -10.763576 -2.1871569 0.10196079
17.93988 -13.792442 -2.1085396 0.070588239
83.404259 -64.13446 1.241116 0.062745102
18.454575 -11.511215 -1.5172788 0.047058824
18.132908 -12.581066 -1.7979567 0.027450981
18.988308 -10.59251 -1.3898388 0.0078431377
30.437273 -23.402903 -2.2298355 0.015686275
32.69046 -20.393036 -1.7885858 0.039215688
32.151554 -22.309835 -2.0446284 0.019607844
32.577709 -18.174984 -1.5138466 0.019607844
32.463409 -24.961016 -1.4235481 0.031372551
34.267418 -21.376913 -0.93342167 0.054901961
4.0904684 -2.8548329 -2.3236022 0.039215688
108.91502 -61.218365 -2.1612864 0.24705882
33.416107 -23.343294 -1.1798401 0.062745102
6.9873629 -4.3873129 -2.3073344 0.086274512
9.6920433 -6.7683897 -2.3617461 0.047058824
34.758663 -26.900251 -0.50483382 0.019607844
12.718515 -7.9880624 -2.3336792 0.090196081
15.490649 -10.819604 -2.4016933 0.043137256
17.249296 -10.834647 -2.1905794 0.086274512
17.924807 -13.870659 -2.1118813 0.070588239
83.20237 -64.396149 1.2411094 0.062745102
18.509548 -11.626438 -1.524796 0.035294119
18.22402 -12.729289 -1.8109511 0.011764706
18.923616 -10.634495 -1.3875418 0.0039215689
30.407812 -23.532612 -2.2330852 0.015686275
8.414115 -5.8756046 0.41960022 0
32.707439 -20.54664 -1.7930385 0.039215688
32.146797 -22.456474 -2.0488043 0.019607844
33.384491 -18.762901 -1.5540736 0.039215688
33.292122 -25.765112 -1.4634383 0.031372551
34.22718 -21.501467 -0.93416172 0.054901961
4.077383 -2.8677015 -2.3218677 0.039215688
4.6002841 -2.6054018 -0.091321059 0
33.350296 -23.479406 -1.1799985 0.086274512
6.9520798 -4.4005084 -2.3007782 0.10588235
9.6803703 -6.8128839 -2.3647428 0.050980393
34.672791 -27.037285 -0.50444543 0.043137256
12.749625 -8.0726767 -2.3445511 0.094117649
15.431795 -10.862584 -2.3984313 0.050980393
17.236715 -10.914804 -2.1937423 0.086274512
17.902479 -13.958289 -2.114938 0.062745102
32.884338 -25.642527 0.49244177 0.011764706
18.510988 -11.721936 -1.5281354 0.027450981
19.318529 -13.599326 -1.9243444 0.023529412
30.657017 -17.377743 -2.2522283 0.019607844
30.328016 -23.648798 -2.2330513 0.015686275
32.709911 -20.715538 -1.796792 0.06666667
32.107098 -22.604029 -2.0510023 0.019607844
33.378437 -18.920599 -1.5564811 0.039215688
33.254555 -25.93119 -1.4653922 0.031372551
7.8441277 -4.9655766 2.4883084 0
34.209305 -21.665266 -0.93528783 0.054901961
4.0643907 -2.8798027 -2.3201783 0.050980393
57.782867 -33.023235 -1.1503292 0.17254902
33.29422 -23.614166 -1.1809263 0.086274512
6.9496665 -4.4330235 -2.305089 0.094117649
9.6661282 -6.8534245 -2.367095 0.043137256
34.678856 -27.2372 -0.50591773 0.019607844
12.704711 -8.1064835 -2.34148 0.094117649
15.44233 -10.950806 -2.4059987 0.047058824
17.221977 -10.989865 -2.1967371 0.078431375
17.910023 -14.064965 -2.1216199 0.054901961
32.244202 -25.324772 0.48417184 0.011764706
18.537231 -11.829403 -1.5337031 0.015686275
19.335978 -13.712794 -1.9308413 0.031372551
30.641224 -17.510386 -2.2555451 0.019607844
20.579475 -16.16188 -1.5193123 0.0078431377
32.681187 -20.857523 -1.799204 0.05882353
32.070354 -22.745991 -2.0537174 0.019607844
33.353828 -19.060778 -1.5584267 0.039215688
33.217285 -26.089081 -1.4677577 0.031372551
34.194149 -21.823259 -0.93695164 0.094117649
4.0572639 -2.8960645 -2.3218682 0.035294119
57.369225 -33.05299 -1.1443841 0.17254902
33.253883 -23.760447 -1.1824327 0.15294118
6.9373889 -4.4593225 -2.3061669 0.10196079
9.6357632 -6.8825464 -2.3655279 0.050980393
34.702766 -27.452372 -0.50766557 0.019607844
12.669688 -8.1464882 -2.3402522 0.05882353
15.404013 -11.004627 -2.4059997 0.043137256
5.3658485 -3.0890815 0.037015237 0
17.220306 -11.073565 -2.2014425 0.094117649
17.970139 -14.21387 -2.1346107 0.027450981
32.045818 -25.35029 0.48251492 0.011764706
18.519318 -11.909132 -1.535652 0.05882353
19.346382 -13.821914 -1.9366889 0.031372551
30.628336 -17.645117 -2.2591174 0.019607844
20.30685 -16.062639 -1.5033144 0.0078431377
7.2282615 -4.64645 0.50168508 0
32.678749 -21.01685 -1.8030995 0.047058824
32.000511 -22.864752 -2.0543456 0.019607844
8.8192549 -5.669827 1.2887181 0
33.280167 -19.173079 -1.5581025 0.05882353
33.163635 -26.234617 -1.4694284 0.062745102
34.117767 -21.942469 -0.93695289 0.074509807
4.0476379 -2.9094875 -2.3218684 0.039215688
57.172832 -33.192833 -1.1426561 0.17254902
33.184643 -23.877581 -1.1827823 0.086274512
6.9096313 -4.4739084 -2.3018565 0.094117649
9.6224384 -6.9213195 -2.3678801 0.062745102
5.8151798 -3.7648137 0.0011742513 0
34.77422 -27.696873 -0.51005584 0.019607844
12.659189 -8.1991873 -2.3433239 0.031372551
15.360991 -11.050994 -2.4049921 0.039215688
17.216864 -11.152218 -2.2057199 0.10980392
18.05686 -14.380072 -2.1505702 0.015686275
33.51955 -26.697462 0.50603479 0.011764706
19.866133 -12.868752 -1.6508894 0.031372551
19.352213 -13.923237 -1.9418868 0.031372551
5.961937 -3.4589088 0.20166214 0
30.614532 -17.772629 -2.2624345 0.019607844
9.5754385 -6.2011847 0.66611427 0
32.327198 -20.942579 -1.7875233 0.05882353
33.181835 -19.26325 -1.5564812 0.082352944
33.120232 -26.379303 -1.4713771 0.031372551
34.08844 -22.083738 -0.93815494 0.11372549
4.0286503 -2.9171984 -2.3167992 0.035294119
56.911659 -33.307343 -1.139753 0.17254902
33.130226 -24.01438 -1.183826 0.10980392
6.8842964 -4.4916677 -2.298624 0.082352944
9.5759907 -6.9387341 -2.3623943 0.035294119
34.852028 -27.958241 -0.51262993 0.019607844
12.633802 -8.2454729 -2.3439386 0.047058824
15.290197 -11.081242 -2.3999493 0.043137256
17.201143 -11.227454 -2.208715 0.10196079
18.056257 -14.482876 -2.1565101 0.015686275
152.6689 -99.673325 4.2734551 0.074509807
33.307602 -26.719173 0.50423586 0.011764706
19.874554 -12.97291 -1.6553439 0.031372551
19.361595 -14.032806 -1.9477345 0.031372551
30.600542 -17.9076 -2.2660069 0.019607844
19.518034 -15.655689 -1.4527678 0.0078431377
32.217091 -21.031252 -1.7854846 0.039215688
31.740644 -23.006985 -2.0476732 0.019607844
33.159241 -19.405191 -1.5585893 0.082352944
20.062943 -16.092892 -0.89372039 0.0078431377
34.058022 -22.233189 -0.93944967 0.094117649
4.0267138 -2.9383435 -2.3218691 0.031372551
56.785748 -33.51366 -1.1396843 0.17254902
33.064583 -24.15214 -1.1846386 0.10980392
6.8323913 -4.4935584 -2.2867701 0.039215688
9.4966497 -6.934433 -2.3490703 0.047058824
34.805313 -28.131039 -0.51346046 0.019607844
12.626608 -8.3069153 -2.3482389 0.05882353
15.262295 -11.146554 -2.401968 0.047058824
6.0796261 -4.4381633 -0.042458929 0
17.189774 -11.310083 -2.2125649 0.10196079
18.034025 -14.573979 -2.1602232 0.0078431377
32.997932 -26.67008 0.50101966 0.011764706
19.896868 -13.091716 -1.6611902 0.031372551
19.361538 -14.14129 -1.9529328 0.031372551
7.4865003 -4.415988 0.25433055 0
30.565641 -18.037882 -2.2683036 0.019607844
19.926353 -16.103659 -1.4875532 0.015686275
32.343391 -21.283171 -1.7967983 0.0078431377
31.739967 -23.184416 -2.0531011 0.019607844
6.381588 -4.1969123 0.93871325 0
33.153286 -19.565176 -1.5616707 0.082352944
32.992794 -26.665857 -1.4741637 0.031372551
34.096558 -22.436995 -0.94277674 0.054901961
4.0164328 -2.9523656 -2.3218696 0.039215688
56.781841 -33.77914 -1.1419663 0.17254902
33.00906 -24.288725 -1.1856827 0.086274512
6.8712411 -4.5535555 -2.3050904 0.050980393
9.516614 -7.0000734 -2.3600445 0.082352944
34.762737 -28.297798 -0.51429087 0.019607844
12.561299 -8.3268948 -2.3414826 0.035294119
15.236077 -11.209153 -2.4039869 0.035294119
70.895302 -52.170082 -0.49671629 0.16078432
17.180021 -11.389785 -2.2164152 0.094117649
18.010841 -14.659455 -2.1635659 0.015686275
32.969769 -26.838118 0.50200748 0.011764706
19.917559 -13.205178 -1.6667581 0.035294119
19.357014 -14.241856 -1.9574814 0.031372551
5.7529659 -3.419925 0.19580992 0
137.87538 -101.46232 3.0168693 0.10980392
30.540226 -18.166899 -2.2711105 0.019607844
19.774019 -16.094944 -1.4803672 0.023529412
138.02292 -101.57101 7.0105333 0.24705882
32.601902 -21.616751 -1.8153446 0.019607844
31.742495 -23.356609 -2.0585294 0.019607844
33.143185 -19.715509 -1.5644275 0.082352944
32.93671 -26.811134 -1.4758348 0.031372551
34.101349 -22.611115 -0.94508773 0.074509807
4.0090151 -2.9685104 -2.32356 0.039215688
56.797352 -34.057339 -1.1446632 0.17254902
32.94656 -24.420452 -1.1864952 0.10980392
6.8553042 -4.577497 -2.3050907 0.054901961
9.4795179 -7.0238891 -2.35691 0.094117649
34.716328 -28.462067 -0.5150755 0.019607844
12.538729 -8.3750668 -2.3427117 0.047058824
15.22236 -11.281157 -2.4080236 0.035294119
167.7679 -100.60394 1.1701424 0.10980392
70.767395 -52.457718 -0.49710619 0.16078432
17.173227 -11.471765 -2.2206933 0.094117649
17.987278 -14.744946 -2.166908 0.0078431377
154.22578 -103.04812 4.3474803 0.074509807
32.835678 -26.920059 0.50138927 0.011764706
19.934381 -13.31673 -1.6720477 0.043137256
19.348818 -14.340185 -1.9617052 0.031372551
5.8952961 -3.5325036 0.20107669 0
30.582756 -18.337021 -2.2790208 0.019607844
19.717718 -16.163855 -1.4803697 0.023529412
32.586052 -21.770367 -1.8186842 0.039215688
31.683237 -23.483906 -2.0599928 0.019607844
7.3383374 -5.4366732 0.74683833 0
33.320946 -19.979055 -1.5761027 0.019607844
32.907837 -26.979155 -1.4787567 0.031372551
14.134507 -10.474855 3.2100818 0.0039215689
34.022213 -22.73 -0.9450894 0.094117649
3.9962435 -2.9796045 -2.3218703 0.035294119
34.933678 -21.103979 -0.70540833 0.047058824
32.910252 -24.563042 -1.1881176 0.10980392
6.846478 -4.6044898 -2.3072462 0.10196079
9.4404564 -7.0435386 -2.3529916 0.086274512
34.689613 -28.633039 -0.5160895 0.019607844
12.481375 -8.3967228 -2.3371842 0.047058824
15.172147 -11.322066 -2.4060073 0.035294119
70.682793 -52.759087 -0.49774426 0.16078432
17.161489 -11.546397 -2.2241158 0.094117649
17.981281 -14.839994 -2.1721056 0.0078431377
32.277382 -26.641743 0.49420571 0.011764706
19.949697 -13.422846 -1.6770589 0.043137256
19.34269 -14.435258 -1.9659292 0.031372551
30.569611 -18.467222 -2.2825933 0.019607844
19.691721 -16.252016 -1.4824591 0.031372551
5.8746367 -3.9504912 0.41328809 0
6.4642267 -4.8219457 0.32978535 0
32.566723 -21.913984 -1.8216531 0.047058824
33.346874 -20.145235 -1.5804814 0.082352944
33.797363 -22.742207 -0.94093418 0.054901961
3.9852958 -2.9942143 -2.3218706 0.035294119
34.869755 -21.240181 -0.7056855 0.047058824
32.855148 -24.709919 -1.1893934 0.062745102
6.8454957 -4.6403489 -2.3126349 0.10588235
9.4145765 -7.0780749 -2.3529925 0.070588239
11.881561 -8.0564966 0.0024303359 0
34.609035 -28.780437 -0.51646143 0.019607844
12.430889 -8.4290848 -2.3334997 0.054901961
15.05444 -11.320333 -2.393903 0.035294119
70.527306 -53.046631 -0.49802196 0.16078432
17.15855 -11.635996 -2.2292495 0.10980392
17.948208 -14.923612 -2.174706 0.0078431377
152.05975 -103.14353 4.3065977 0.074509807
31.908907 -26.53479 0.49004471 0.011764706
19.979624 -13.549622 -1.6837404 0.031372551
19.343815 -14.546779 -1.9714524 0.031372551
6.239954 -4.6902161 0.13751335 0
30.528992 -18.595739 -2.2846353 0.019607844
19.662724 -16.3496 -1.4847808 0.023529412
7.4430408 -5.0457268 0.525006 0
32.542397 -22.071314 -1.8248074 0.039215688
31.496168 -23.687679 -2.058538 0.019607844
33.306946 -20.288099 -1.5821036 0.082352944
20.123463 -16.732815 -0.90943223 0.0078431377
33.697231 -22.854689 -0.94047421 0.13333334
3.9719303 -3.0059016 -2.3201811 0.035294119
34.822666 -21.378496 -0.70623934 0.047058824
32.787819 -24.838926 -1.1900907 0.086274512
6.819715 -4.6576796 -2.3094025 0.094117649
9.3866873 -7.10851 -2.3522098 0.043137256
31.239782 -26.163229 -0.46754116 0.019607844
12.447077 -8.5036325 -2.3420997 0.050980393
15.021159 -11.377591 -2.3949132 0.031372551
17.144093 -11.713755 -2.232672 0.10196079
17.886845 -14.978483 -2.1735952 0.0078431377
32.11964 -26.900255 0.49471641 0.011764706
19.988209 -13.65754 -1.6884737 0.035294119
19.334229 -14.645495 -1.9756764 0.031372551
9.32658 -5.723743 0.32022396 0
7.4763193 -5.6611476 0.16521263 0
30.497915 -18.723063 -2.2871873 0.019607844
19.611656 -16.423246 -1.4852473 0.023529412
4.6424589 -3.5140128 0.23805936 0
32.517933 -22.220833 -1.8277766 0.039215688
31.464233 -23.836058 -2.0618794 0.019607844
33.263168 -20.420952 -1.5834014 0.05882353
32.972878 -27.614862 -1.4946077 0.031372551
33.637054 -22.985697 -0.94103038 0.074509807
3.9671774 -3.0241311 -2.3235614 0.043137256
32.729519 -24.97504 -1.191135 0.043137256
6.8097606 -4.6858091 -2.3115582 0.10980392
9.3867607 -7.1602535 -2.3584812 0.054901961
7.4103699 -5.0994124 0.0015218813 0.0039215689
34.557072 -29.147696 -0.51871997 0.019607844
12.427084 -8.5537386 -2.3439431 0.050980393
15.034977 -11.470864 -2.4034896 0.035294119
17.129305 -11.791556 -2.2360947 0.10196079
17.834452 -15.040813 -2.1735976 0.0078431377
150.38409 -103.54713 4.2794924 0.074509807
31.860455 -26.872931 0.49216136 0.011764706
19.996283 -13.765685 -1.6932067 0.043137256
19.333698 -14.75158 -1.9808749 0.031372551
30.469709 -18.852495 -2.2899947 0.019607844
19.468746 -16.419493 -1.4787571 0.015686275
32.479656 -22.361382 -1.8300037 0.050980393
31.422119 -23.977232 -2.064595 0.019607844
83.505806 -63.72683 8.5928459 0.16862746
33.222271 -20.555851 -1.5848615 0.082352944
20.015322 -16.880596 -0.90985453 0.0078431377
33.625778 -23.150581 -0.94297224 0.074509807
3.9551525 -3.0343547 -2.3218277 0.039215688
34.721191 -21.634321 -0.70652479 0.047058824
32.708324 -25.121563 -1.1926804 0.019607844
6.8080387 -4.715941 -2.315779 0.050980393
9.3210421 -7.1562395 -2.3473721 0.047058824
31.925768 -27.099787 -0.4799509 0.019607844
12.394022 -8.5882149 -2.342531 0.047058824
14.970915 -11.49627 -2.3987172 0.035294119
17.128498 -11.870217 -2.2405367 0.094117649
17.793549 -15.101905 -2.1740508 0.015686275
31.806694 -26.998743 0.49316901 0.011764706
20.002489 -13.862516 -1.6970708 0.043137256
19.331888 -14.84623 -1.9851142 0.031372551
12.006795 -7.4792519 0.41414607 0
83.424995 -64.080406 1.8552468 0.10980392
30.45813 -18.977665 -2.293092 0.019607844
19.475264 -16.529657 -1.4828445 0.031372551
13.912807 -9.6411266 0.98864603 0
83.403015 -64.063606 4.3036318 0.24705882
32.452301 -22.492884 -1.8318949 0.05882353
31.375515 -24.097717 -2.0659592 0.019607844
7.9103818 -5.4801731 1.1828945 0
33.225731 -20.702377 -1.5875841 0.062745102
20.136248 -17.090839 -0.91744351 0.0078431377
33.62225 -23.303925 -0.94437271 0.11372549
3.9497385 -3.0532503 -2.3252079 0.039215688
34.638275 -21.759289 -0.70645702 0.047058824
6.7780776 -4.7320189 -2.3114691 0.050980393
9.2606306 -7.1639271 -2.338752 0.050980393
31.917414 -27.294594 -0.48133165 0.019607844
12.385142 -8.6494112 -2.3468313 0.05882353
14.944367 -11.56319 -2.4012408 0.035294119
83.194885 -64.389771 -0.59230858 0.16862746
17.120739 -11.957953 -2.2452424 0.094117649
31.807833 -27.200912 0.49472401 0.011764706
20.010424 -13.976852 -1.7020817 0.043137256
19.308868 -14.941367 -1.9883639 0.023529412
5.2488389 -3.2945971 0.18135825 0
83.173737 -64.373482 1.8548837 0.10980392
30.428934 -19.114641 -2.2961543 0.019607844
19.469172 -16.647629 -1.487021 0.015686275
7.9328499 -5.5388675 0.56499636 0
32.412224 -22.641405 -1.8343073 0.050980393
31.309093 -24.229647 -2.0674233 0.019607844
5.5079613 -3.8447175 0.82552862 0
33.281609 -20.906919 -1.5939071 0.062745102
19.62385 -16.779953 -0.89689308 0.0078431377
33.566116 -23.447594 -0.94520634 0.13333334
3.9304783 -3.0603144 -2.3201389 0.047058824
34.541836 -21.867216 -0.70604402 0.094117649
33.470554 -26.089977 -1.2272633 0.11372549
6.7426176 -4.7423301 -2.3050039 0.06666667
9.2510319 -7.2082496 -2.3426716 0.047058824
31.894672 -27.468472 -0.48243722 0.019607844
12.403358 -8.7266989 -2.3560452 0.062745102
14.894525 -11.607949 -2.3997297 0.027450981
6.8514709 -4.3348999 0.048563562 0
17.108162 -12.038229 -2.2490928 0.094117649
17.694078 -15.236608 -2.1751702 0.043137256
5.2400374 -3.6847796 0.15012412 0
31.43388 -27.071611 0.49036849 0.011764706
20.010462 -14.081054 -1.7062577 0.035294119
19.306904 -15.047881 -1.9935621 0.023529412
30.378889 -19.231403 -2.297431 0.019607844
19.583401 -16.864021 -1.5002388 0.023529412
8.5012398 -5.9802213 0.6069873 0
32.365665 -22.777391 -1.836164 0.050980393
31.262127 -24.368244 -2.0699308 0.019607844
33.242191 -21.044333 -1.5955293 0.039215688
19.746887 -17.004871 -0.90522897 0.0078431377
33.490601 -23.569208 -0.94539362 0.13333334
3.9226243 -3.0762367 -2.3218291 0.039215688
34.445065 -21.974731 -0.70563096 0.14509805
19.797344 -15.541656 -0.72783607 0.027450981
6.7354507 -4.7725034 -2.3082376 0.082352944
9.2289019 -7.2429023 -2.3434567 0.039215688
131.55937 -93.284332 0.029457875 0.24705882
34.795811 -30.17956 -0.52792007 0.019607844
12.405066 -8.7927866 -2.3621881 0.050980393
14.853918 -11.659851 -2.3997314 0.031372551
32.128017 -25.224131 -0.22998686 0.019607844
17.101727 -12.12316 -2.2537985 0.086274512
17.734055 -15.379162 -2.186676 0.027450981
31.532562 -27.348888 0.49338934 0.011764706
20.023033 -14.194652 -1.711547 0.031372551
19.295025 -15.147173 -1.9977859 0.023529412
20.333773 -12.970911 -1.5410681 0.0078431377
19.503302 -16.913942 -1.4986192 0.023529412
12.936399 -9.1696301 0.92612201 0
32.315304 -22.911009 -1.8378352 0.050980393
31.217722 -24.50927 -2.0726464 0.019607844
33.195492 -21.177422 -1.5968276 0.039215688
32.796185 -28.444923 -1.5081029 0.031372551
33.404869 -23.683636 -0.94530398 0.13333334
3.9118621 -3.0898933 -2.3218296 0.035294119
34.378239 -22.101305 -0.70583975 0.094117649
19.77747 -15.637935 -0.7291106 0.0039215689
6.6811352 -4.7690988 -2.2953069 0.043137256
9.2035627 -7.2750564 -2.3434579 0.035294119
34.747478 -30.350819 -0.52879715 0.043137256
12.374297 -8.8360186 -2.3621891 0.050980393
14.813126 -11.711613 -2.3997333 0.050980393
32.152714 -25.425438 -0.23080172 0.019607844
17.091665 -12.205883 -2.2580764 0.078431375
17.752247 -15.503841 -2.1955848 0.027450981
31.858614 -27.827183 0.5000037 0.011764706
20.009081 -14.289957 -1.71461 0.031372551
19.27643 -15.241619 -2.0013604 0.023529412
32.389748 -25.61294 0.72818649 0.027450981
20.285015 -13.039635 -1.5408138 0.023529412
19.495268 -17.026564 -1.5025638 0.043137256
8.3618031 -5.969758 0.59998727 0
32.270897 -23.049208 -1.8398772 0.050980393
31.200905 -24.67259 -2.07724 0.019607844
33.151619 -21.312603 -1.5982879 0.039215688
20.157558 -17.605165 -0.92967844 0.0078431377
33.335007 -23.80938 -0.94567603 0.094117649
3.9010522 -3.1035118 -2.32183 0.043137256
34.310951 -22.227684 -0.70604861 0.14509805
19.991716 -15.921103 -0.7390579 0.0039215689
6.6394343 -4.7743735 -2.2866867 0.050980393
9.1750422 -7.3046761 -2.3426752 0.035294119
34.686367 -30.511538 -0.52949101 0.019607844
12.33696 -8.8745241 -2.3609619 0.050980393
14.79388 -11.780538 -2.4032657 0.035294119
31.894819 -25.40292 -0.22958975 0.019607844
17.081238 -12.288683 -2.2623546 0.070588239
17.733902 -15.597266 -2.2000406 0.035294119
31.569088 -27.769119 0.49697188 0.011764706
20.017376 -14.401652 -1.7196211 0.031372551
19.244936 -15.326183 -2.0036361 0.023529412
32.39399 -25.800585 0.73029828 0.027450981
20.232672 -13.106005 -1.5403045 0.023529412
19.435713 -17.094494 -1.5025673 0.043137256
33.012764 -26.293526 1.726946 0.043137256
32.206455 -23.173365 -1.8408071 0.050980393
19.907255 -15.853802 -1.3289274 0.0039215689
33.110573 -21.449913 -1.5999105 0.039215688
32.905941 -28.945133 -1.522419 0.031372551
33.271168 -23.939594 -0.94623297 0.015686275
3.8963957 -3.1209514 -2.3252103 0.035294119
34.263847 -22.35881 -0.70660281 0.094117649
19.667446 -15.76966 -0.72900003 0.0039215689
6.6454 -4.8121705 -2.2942302 0.047058824
9.1599493 -7.3424087 -2.3450277 0.027450981
9.0574427 -6.5601959 0.0020176016 0.0039215689
34.653866 -30.687376 -0.53055137 0.043137256
12.301063 -8.9107304 -2.3597345 0.050980393
14.782592 -11.851859 -2.4078069 0.035294119
152.5282 -99.543221 1.0919417 0.10980392
31.69183 -25.413435 -0.22873794 0.019607844
17.066154 -12.363913 -2.2657773 0.070588239
17.744696 -15.711427 -2.2078357 0.035294119
31.428921 -27.831211 0.49620995 0.011764706
20.034126 -14.514766 -1.7251886 0.023529412
19.218889 -15.409861 -2.0062366 0.023529412
32.41745 -25.995432 0.73276293 0.027450981
20.229214 -13.199191 -1.5433667 0.015686275
19.393866 -17.172075 -1.5037299 0.050980393
32.981506 -26.447853 1.7298857 0.043137256
32.152081 -23.296434 -1.8421075 0.039215688
7.1545334 -5.7341514 0.74986595 0
33.092808 -21.594526 -1.6025056 0.039215688
32.764885 -29.014324 -1.5203414 0.031372551
33.246647 -24.08967 -0.94780529 0.015686275
3.8798373 -3.1299593 -2.3218312 0.039215688
34.362694 -22.594727 -0.71026564 0.047058824
6.6410065 -4.8444052 -2.2985413 0.035294119
9.1312132 -7.3718548 -2.3442452 0.019607844
34.627132 -30.880016 -0.53179556 0.06666667
12.298615 -8.9745712 -2.3652635 0.043137256
14.704088 -11.873447 -2.4017565 0.035294119
153.34618 -100.84205 1.1003032 0.10980392
32.19413 -26.001442 -0.23302157 0.019607844
17.013256 -12.416355 -2.2644958 0.054901961
17.743246 -15.820969 -2.2145181 0.035294119
31.507692 -28.097807 0.49899384 0.011764706
20.057467 -14.638705 -1.7315915 0.015686275
19.202194 -15.506893 -2.0101359 0.031372551
19.443808 -12.783613 0.68135387 0.0039215689
32.44162 -26.201397 0.73536831 0.027450981
20.236382 -13.3048 -1.5474495 0.015686275
19.482811 -17.372549 -1.5153253 0.023529412
6.9751072 -5.6303277 0.36666304 0
32.086704 -23.420286 -1.8430376 0.039215688
19.997755 -16.149548 -1.3422843 0.0039215689
8.335269 -6.0813475 1.2683251 0
33.043941 -21.727455 -1.603804 0.039215688
3.8688879 -3.143466 -2.3218317 0.047058824
34.383629 -22.780794 -0.71233982 0.098039217
19.625109 -15.962055 -0.7315495 0.0039215689
6.6271591 -4.869822 -2.2996194 0.035294119
9.0871677 -7.388813 -2.3395438 0.019607844
7.3421845 -5.3957052 0.001637864 0.0039215689
34.486393 -30.971281 -0.53129768 0.019607844
12.286318 -9.0314789 -2.3689494 0.039215688
14.684101 -11.942214 -2.4052889 0.043137256
10.88785 -7.2114782 0.078250021 0
31.144403 -25.333637 -0.2260664 0.019607844
16.851261 -12.388473 -2.2486739 0.062745102
17.723469 -15.914727 -2.2189741 0.035294119
137.84306 -101.36417 4.0125389 0.074509807
20.09304 -14.77244 -1.7391074 0.0039215689
19.157228 -15.58136 -2.0111127 0.023529412
32.41201 -26.364941 0.73677444 0.027450981
20.279659 -13.434875 -1.5543382 0.015686275
19.870649 -17.843361 -1.5503367 0.015686275
33.087482 -26.914518 1.7452506 0.043137256
32.020847 -23.543966 -1.8439674 0.039215688
19.922668 -16.204113 -1.3410354 0.027450981
7.3832645 -5.4259467 1.1262577 0
3.1744611 -2.5786202 0.33431068 0
33.007874 -21.869143 -1.605751 0.039215688
19.654167 -17.648951 -0.91761023 0.0078431377
33.129196 -24.359056 -0.94928879 0.13333334
3.8550873 -3.1546366 -2.3201425 0.050980393
34.313881 -22.907328 -0.71254909 0.098039217
33.56699 -27.49975 -1.2549316 0.019607844
6.613215 -4.8952017 -2.3006978 0.035294119
9.0643559 -7.4229584 -2.3403289 0.019607844
70.835365 -52.469559 0.01605124 0.23921569
34.369175 -31.08341 -0.53116679 0.043137256
12.216606 -9.0460625 -2.3615806 0.047058824
14.620838 -11.975779 -2.4017606 0.050980393
32.841007 -26.904947 -0.23906699 0.019607844
16.78874 -12.432998 -2.24611 0.062745102
17.715067 -16.019226 -2.2249146 0.035294119
37.112812 -33.565163 0.59146398 0.023529412
27.932272 -20.687866 -2.4240012 0.054901961
19.118143 -15.660755 -2.0127394 0.031372551
32.310497 -26.470306 0.73655826 0.027450981
20.302359 -13.552115 -1.5596964 0.015686275
19.719398 -17.832237 -1.5433854 0.0078431377
32.693462 -26.784134 1.7293812 0.043137256
31.951313 -23.665094 -1.8447124 0.039215688
19.726942 -16.159618 -1.3316503 0.019607844
5.0495896 -4.1334958 0.53360593 0
32.994488 -22.026382 -1.6088328 0.039215688
32.634178 -29.514002 -1.5285537 0.031372551
33.079315 -24.500719 -0.95030755 0.11372549
3.8440523 -3.1680562 -2.320143 0.050980393
34.207161 -23.009087 -0.71199858 0.047058824
33.510883 -27.649818 -1.2564398 0.023529412
6.5930009 -4.915935 -2.2996206 0.035294119
9.0414143 -7.4570322 -2.3411143 0.023529412
70.62294 -52.694954 0.01603744 0.23921569
34.278202 -31.219332 -0.53144848 0.019607844
12.184957 -9.0886326 -2.3615818 0.035294119
14.634038 -12.072184 -2.4108412 0.039215688
32.426041 -26.754627 -0.23672929 0.019607844
16.799427 -12.531941 -2.2533817 0.054901961
17.71204 -16.129223 -2.2315972 0.035294119
27.859888 -20.785223 -2.4240041 0.039215688
19.057211 -15.722299 -2.0120926 0.031372551
7.5949574 -5.1060815 0.26788893 0
32.258003 -26.616001 0.73747039 0.027450981
20.291365 -13.647393 -1.5625038 0.015686275
19.783974 -18.016573 -1.5533583 0.015686275
32.411732 -26.742899 1.7193998 0.043137256
31.871714 -23.778851 -1.844901 0.039215688
19.670416 -16.228359 -1.3316531 0.019607844
32.281605 -26.63559 3.4238784 0.027450981
32.967144 -22.174864 -1.6112664 0.039215688
32.545731 -29.641178 -1.5292544 0.031372551
33.041668 -24.651894 -0.95169586 0.074509807
3.8357587 -3.1837552 -2.3218334 0.047058824
33.974354 -23.025112 -0.70882326 0.047058824
33.469509 -27.812607 -1.2585263 0.023529412
6.5696425 -4.9342718 -2.2974665 0.035294119
9.0123129 -7.486022 -2.3403316 0.023529412
70.665573 -53.111771 0.01608175 0.23921569
34.213234 -31.379335 -0.53214306 0.019607844
12.11524 -9.1025934 -2.354213 0.047058824
14.607067 -12.135856 -2.4133654 0.031372551
32.723129 -27.192329 -0.23959474 0.019607844
16.79373 -12.619163 -2.2585154 0.054901961
17.702589 -16.234011 -2.2375376 0.035294119
27.793547 -20.887123 -2.4245636 0.011764706
18.989948 -15.778514 -2.0107965 0.023529412
5.4754663 -3.7080238 0.19353342 0
32.30331 -26.843456 0.74063951 0.027450981
20.303078 -13.758436 -1.5670968 0.0078431377
19.659168 -18.02882 -1.5484936 0.035294119
7.4739747 -5.6140962 0.54585993 0
32.204456 -26.761343 1.7133436 0.043137256
31.804485 -23.901941 -1.8458313 0.027450981
19.647444 -16.324993 -1.333951 0.027450981
31.863436 -26.477987 3.3892987 0.027450981
32.929241 -22.316696 -1.6132137 0.019607844
5.1401706 -4.268013 1.2187392 0
32.987381 -24.791088 -0.95262259 0.035294119
3.8249912 -3.1971064 -2.3217907 0.047058824
6.5527477 -4.9571557 -2.297379 0.035294119
8.9895029 -7.5199351 -2.3409827 0.019607844
34.153778 -31.544683 -0.53233445 0.019607844
12.086912 -9.1471958 -2.3546453 0.047058824
14.561944 -12.184206 -2.4126308 0.039215688
31.922884 -26.715864 -0.23388055 0.019607844
16.768972 -12.692092 -2.2608197 0.062745102
17.692993 -16.33893 -2.2431817 0.039215688
27.615858 -20.90451 -2.4149332 0.027450981
18.898438 -15.81398 -2.0065937 0.023529412
150.91315 -103.05904 5.3542724 0.24705882
31.608644 -26.452885 0.7273432 0.027450981
20.301437 -13.86072 -1.5703539 0.0078431377
19.561275 -18.064798 -1.545385 0.023529412
4.7899661 -3.6226072 0.3506591 0
31.991638 -26.77351 1.7074997 0.043137256
31.718039 -24.010387 -1.8451293 0.039215688
19.697903 -16.483191 -1.3409327 0.019607844
32.098213 -26.862804 3.424736 0.027450981
32.874603 -22.447266 -1.6138245 0.039215688
32.432323 -29.95443 -1.5331481 0.031372551
33.863838 -25.635052 -0.97995102 0.078431375
3.813808 -3.2104194 -2.3217914 0.047058824
33.760406 -23.225422 -0.70718086 0.094117649
33.418564 -28.166672 -1.2634059 0.023529412
6.53234 -4.9776444 -2.2963021 0.039215688
8.9422054 -7.5335536 -2.3354983 0.023529412
34.090321 -31.707281 -0.53307498 0.019607844
12.080053 -9.2084885 -2.3595598 0.039215688
14.49505 -12.214482 -2.4085987 0.050980393
31.609236 -26.641495 -0.23226814 0.019607844
16.756191 -12.774651 -2.2650979 0.062745102
17.673763 -16.435835 -2.248009 0.039215688
5.1243525 -3.9039602 0.15102676 0
27.612516 -21.053995 -2.4210579 0.027450981
18.830925 -15.869554 -2.0052981 0.031372551
31.867764 -26.859478 0.7354551 0.027450981
28.839487 -19.839512 -2.2362764 0.019607844
19.691071 -18.312458 -1.5606875 0.043137256
31.627676 -24.116093 -1.8447624 0.039215688
19.624973 -16.538956 -1.3398933 0.0039215689
32.792751 -22.559597 -1.6136651 0.039215688
19.612787 -18.239677 -0.93007475 0.0078431377
33.751888 -25.736113 -0.97930938 0.078431375
3.7998142 -3.2213473 -2.3201025 0.047058824
33.764587 -23.402349 -0.70897824 0.094117649
33.423676 -28.371117 -1.2673417 0.023529412
6.5149255 -5.0003972 -2.2963028 0.035294119
8.8829613 -7.5367775 -2.326879 0.023529412
4.8234367 -3.7011411 0.0011405977 0
34.064079 -31.905365 -0.53441089 0.019607844
12.063508 -9.262619 -2.3626318 0.035294119
14.470475 -12.280395 -2.4116271 0.035294119
149.93288 -103.93174 1.0961339 0.10980392
31.729494 -26.932863 -0.23384677 0.019607844
16.720959 -12.840311 -2.2663827 0.070588239
17.671507 -16.549141 -2.2550621 0.039215688
83.421669 -64.077606 2.4681802 0.074509807
119.0127 -111.48305 1.9296514 0.062745102
27.434435 -21.070019 -2.4118795 0.011764706
18.799728 -15.955813 -2.007899 0.031372551
3.9349852 -2.7241056 0.14006244 0
31.752468 -26.952419 0.73495537 0.027450981
19.557083 -18.315542 -1.5551291 0.015686275
83.330971 -64.00808 6.1397529 0.078431375
31.715586 -26.921156 1.7027441 0.043137256
31.549644 -24.231199 -1.8451372 0.039215688
31.457062 -26.701763 3.3761168 0.027450981
32.726948 -22.683018 -1.614316 0.039215688
19.254337 -18.031979 -0.91605729 0.0078431377
33.6777 -25.865931 -0.97977501 0.11764706
3.7968137 -3.2416408 -2.3251724 0.039215688
33.741714 -23.561266 -0.71022362 0.14509805
6.4913383 -5.0183744 -2.2941487 0.039215688
8.8088989 -7.5269365 -2.3143411 0.019607844
83.305855 -64.452148 0.020541536 0.24705882
33.623734 -31.713915 -0.52924371 0.019607844
12.027977 -9.3022346 -2.3620193 0.023529412
14.418475 -12.323076 -2.4101169 0.043137256
31.538006 -26.960258 -0.23313341 0.019607844
16.707491 -12.922919 -2.2706614 0.078431375
17.651299 -16.646235 -2.2598894 0.027450981
83.184837 -64.358612 2.4677939 0.074509807
118.33189 -111.62331 1.9248906 0.062745102
27.281822 -21.104591 -2.404927 0.011764706
18.771193 -16.044638 -2.0108247 0.039215688
6.6002941 -4.6059017 0.23565544 0
31.752428 -27.143641 0.73713773 0.027450981
19.568554 -18.454922 -1.5611602 0.0078431377
30.980467 -26.483669 1.6682179 0.043137256
31.480667 -24.353384 -1.846068 0.019607844
31.339422 -26.790663 3.3735011 0.027450981
32.68689 -22.824558 -1.6162634 0.039215688
20.174145 -19.026245 -0.96298701 0.0078431377
3.3726392 -2.8791389 0.80868816 0
33.612511 -26.00289 -0.98051763 0.05882353
3.785475 -3.2548559 -2.3251731 0.050980393
33.73777 -23.734121 -0.71188319 0.098039217
33.467182 -28.812437 -1.276601 0.023529412
6.4828973 -5.0480886 -2.2973824 0.039215688
8.7290668 -7.5115523 -2.300236 0.023529412
83.033035 -64.70565 0.020518551 0.24705882
33.515724 -31.83383 -0.52929747 0.019607844
11.998549 -9.3465748 -2.3626351 0.035294119
14.399427 -12.394026 -2.4141538 0.047058824
31.264868 -26.91618 -0.23181328 0.019607844
16.712471 -13.020257 -2.2775052 0.070588239
17.639284 -16.751617 -2.26583 0.027450981
117.86903 -111.96681 1.9236791 0.062745102
20.749512 -16.166443 -1.833969 0.0039215689
18.751326 -16.14126 -2.0147243 0.054901961
31.848421 -27.418703 0.7415787 0.027450981
28.581181 -20.105909 -2.2324581 0.062745102
4.9215975 -3.8314323 0.36419016 0
31.581387 -27.188822 1.7056774 0.043137256
19.5173 -16.800844 -1.3444924 0.027450981
32.652779 -22.970701 -1.6185349 0.039215688
19.359846 -18.386187 -0.92717296 0.0078431377
20.046782 -15.618835 -0.58633935 0.019607844
3.7691817 -3.262624 -2.321794 0.047058824
33.658875 -23.845852 -0.71188611 0.047058824
19.032692 -16.493797 -0.72802407 0.0039215689
6.4630895 -5.0671625 -2.2963054 0.039215688
8.6359386 -7.4813476 -2.2822123 0.023529412
33.537167 -32.066418 -0.53132033 0.019607844
12.02035 -9.4277725 -2.3730769 0.027450981
14.391231 -12.470281 -2.419704 0.043137256
30.921549 -26.799612 -0.22993107 0.019607844
16.694231 -13.095227 -2.2809281 0.062745102
17.629692 -16.854044 -2.2717702 0.019607844
20.560801 -16.129227 -1.8220072 0.0039215689
18.733847 -16.234673 -2.0186238 0.039215688
31.044125 -26.905918 0.72491533 0.027450981
28.628347 -20.281336 -2.2413871 0.019607844
19.846529 -18.974045 -1.5936203 0.035294119
31.382328 -27.199142 1.699782 0.043137256
19.582216 -16.970116 -1.3528388 0.027450981
6.3234663 -4.9577365 0.98768735 0
32.609028 -23.101942 -1.6201581 0.062745102
32.366421 -30.946764 -1.5551209 0.031372551
19.972855 -15.667929 -0.5856961 0.031372551
3.7605014 -3.278127 -2.3234849 0.043137256
33.429932 -29.178902 -1.2827395 0.023529412
6.4393191 -5.0848966 -2.2941513 0.031372551
8.5684032 -7.4753156 -2.2712421 0.047058824
7.539866 -5.9547811 0.0018265414 0.0039215689
34.122242 -32.854683 -0.54241222 0.023529412
11.974966 -9.4598532 -2.3706222 0.035294119
14.350602 -12.523031 -2.4202111 0.031372551
30.933277 -26.999439 -0.23072362 0.019607844
16.685863 -13.182997 -2.286062 0.078431375
17.590836 -16.934801 -2.2743716 0.019607844
18.707096 -16.32617 -2.0218742 0.039215688
7.5645843 -5.3960147 0.27208665 0
30.799372 -26.882595 0.72138023 0.027450981
28.671093 -20.462297 -2.2503164 0.019607844
19.803186 -19.065348 -1.5954796 0.043137256
13.103555 -10.351942 0.97552764 0
31.464832 -27.463583 1.7094284 0.043137256
19.858072 -15.690115 -1.1738358 0.0039215689
19.450638 -16.975304 -1.3478369 0.011764706
3.143399 -2.7395589 0.34086126 0
32.557472 -23.236513 -1.6216197 0.10588235
20.331333 -19.573996 -0.98007798 0.0078431377
6.2952847 -5.4911475 1.5240498 0
19.965105 -15.774729 -0.58708304 0.0039215689
3.7490361 -3.291214 -2.3234856 0.043137256
33.338974 -23.970472 -0.70864856 0.094117649
33.399944 -29.358751 -1.2855202 0.023529412
6.427557 -5.1121216 -2.2963073 0.035294119
8.5481491 -7.5103383 -2.2728109 0.05882353
31.666681 -25.20285 0.0078454576 0.043137256
34.079136 -33.043179 -0.54356575 0.023529412
11.954241 -9.5114222 -2.3730805 0.047058824
14.294882 -12.562546 -2.4181964 0.035294119
34.660034 -30.466608 -0.25931764 0.023529412
16.680195 -13.273339 -2.2916234 0.070588239
17.557346 -17.021034 -2.2777152 0.0078431377
32.91256 -26.194624 0.98688298 0.015686275
20.653749 -16.436352 -1.8403773 0.031372551
18.685926 -16.422937 -2.0257742 0.039215688
31.396189 -27.597267 0.73760813 0.027450981
28.648106 -20.597191 -2.2541451 0.019607844
19.713587 -19.112097 -1.5936301 0.023529412
7.1032019 -5.6500621 0.53008926 0
31.494841 -27.684053 1.7162936 0.043137256
19.502268 -17.140657 -1.3555577 0.027450981
6.2296829 -4.9547496 0.97840887 0
32.524837 -23.384996 -1.6240535 0.070588239
32.473881 -31.486406 -1.5708253 0.031372551
20.000648 -15.916529 -0.58976179 0.0039215689
3.7320952 -3.2994552 -2.3201067 0.05882353
33.235661 -24.072605 -0.70823777 0.094117649
33.381081 -29.549356 -1.2887634 0.023529412
6.4066677 -5.1320992 -2.2952309 0.035294119
8.5864916 -7.5973163 -2.2900546 0.094117649
31.637808 -25.360758 0.0078555653 0.043137256
33.995056 -33.192657 -0.54407817 0.047058824
11.920967 -9.5530748 -2.3730822 0.027450981
14.242028 -12.60446 -2.4166865 0.035294119
34.649303 -30.672243 -0.26004374 0.023529412
16.677202 -13.366294 -2.2976124 0.070588239
17.532019 -17.115591 -2.282172 0.019607844
32.296757 -25.889103 0.97111422 0.015686275
20.253786 -16.233768 -1.8097732 0.047058824
18.661318 -16.517117 -2.0293496 0.039215688
123.00679 -108.90005 2.8992381 0.10980392
28.640694 -20.743889 -2.259249 0.019607844
19.638178 -19.172405 -1.5929396 0.015686275
32.200764 -25.812201 2.411231 0.019607844
30.682833 -27.160625 1.6771868 0.043137256
19.394461 -17.166246 -1.3522245 0.019607844
32.478611 -23.52416 -1.6258395 0.070588239
20.111244 -19.634422 -0.97606194 0.0078431377
3.7259676 -3.31727 -2.323487 0.062745102
33.225735 -24.242683 -0.70982891 0.098039217
6.3887153 -5.1544132 -2.2952318 0.039215688
8.5804148 -7.6454968 -2.2955422 0.078431375
33.316753 -26.89838 0.0082933716 0.043137256
33.950283 -33.381218 -0.54523206 0.047058824
11.866023 -9.5772285 -2.3687849 0.054901961
14.189059 -12.646157 -2.4151764 0.043137256
31.804264 -28.352003 -0.23944025 0.019607844
16.649012 -13.4394 -2.3001807 0.062745102
17.483526 -17.187838 -2.2836604 0.019607844
32.339977 -26.109694 0.97514415 0.015686275
20.069712 -16.201571 -1.7983681 0.047058824
18.651161 -16.624588 -2.0345483 0.039215688
7.9921212 -5.8284187 0.28965634 0
28.597126 -20.864897 -2.2615473 0.019607844
19.576826 -19.246422 -1.5934085 0.023529412
32.607548 -26.325821 2.4485595 0.019607844
5.8488884 -5.2102218 0.32044482 0
19.953814 -16.108015 -1.1894135 0.019607844
19.382128 -17.276358 -1.3555655 0.019607844
6.0991859 -4.9207678 0.96327114 0
32.412437 -23.649153 -1.626653 0.070588239
31.455187 -30.927488 -1.5319678 0.031372551
8.8778582 -7.9109597 2.1697388 0
20.607744 -16.636076 -0.61108303 0.0039215689
3.7116675 -3.3278143 -2.3217978 0.043137256
34.452419 -25.322613 -0.73792571 0.047058824
33.263222 -29.861778 -1.2922448 0.047058824
