# .PCD v0.7 - Point Cloud Data file format
VERSION 0.7
FIELDS x y z intensity
SIZE 4 4 4 4
TYPE F F F F
COUNT 1 1 1 1
WIDTH 1086
HEIGHT 1
VIEWPOINT 0 0 0 1 0 0 0
POINTS 1086
DATA ascii
1.2324022 -11.219387 -0.46218342 0.015686275
-0.95136482 -21.734518 -0.76481479 0.062745102
0.13538811 -10.448453 1.8993725 0
0.69663948 -11.536445 -0.27200687 0
0.13194567 -4.749938 -2.2118704 0.0078431377
1.1915108 -11.182733 -0.19930387 0.21176471
-0.10068522 -47.319237 -1.3863205 0.023529412
0.46002251 -6.9695826 -1.9523592 0.086274512
0.11183733 -8.4290972 -1.6865069 0.11764706
0.66185284 -11.617261 -0.0035638895 0.13725491
0.57629526 -9.6468525 -1.5036159 0.039215688
0.10438194 -9.7929277 -1.2482681 0.21568628
1.2012318 -11.287848 0.062308781 0.40784314
0.11301459 -8.2119322 -0.05065731 0
0.57647449 -9.6511278 -1.0425063 0.15686275
-0.39911216 -10.252321 -0.96066737 0.047058824
0.6809749 -12.057629 0.27691624 0.039215688
0.020109326 -2.5442915 0.02746683 0
0.58808357 -9.9185333 -0.69666046 0.28235295
1.2520157 -11.83671 0.34199899 0.050980393
-0.61976981 -142.30482 2.4583876 0.10980392
1.0692782 -9.8617201 -0.63721561 0.15294118
-0.43073326 -10.833739 -0.63459784 0.17647059
0.51874202 -8.3223553 0.48139906 0
0.67882168 -12.007779 -0.56293303 0
0.070187993 -16.04981 -0.8448227 0.011764706
0.30890113 -3.4908445 0.4253068 0
1.1952325 -11.222887 -0.46218425 0.019607844
-1.0212202 -21.690804 -0.76341194 0.070588239
0.65963608 -11.566134 -0.27266341 0
0.11457915 -4.7498121 -2.2118707 0.0039215689
1.1526836 -11.21035 -0.19972759 0.21176471
0.43390608 -6.9552493 -1.9480438 0.082352944
0.080985978 -8.4288721 -1.686507 0.10588235
0.62074333 -11.655002 -0.0035704596 0.11372549
0.54144847 -9.6601706 -1.5054629 0.043137256
0.068350904 -9.8125067 -1.250797 0.20392157
1.1613117 -11.307533 0.062398225 0.40000001
0.037713923 -13.167418 -0.080288157 0
0.54114121 -9.6525984 -1.0425068 0.15686275
-0.43756592 -10.266115 -0.96215707 0.05882353
-6.7575998 -119.11175 1.3673325 0.062745102
0.55525804 -10.00776 -0.70281416 0.090196081
0.063666709 -10.325321 -0.84531212 0.082352944
1.2118526 -11.876489 0.34303933 0.050980393
1.0317572 -9.8490915 -0.63619041 0.25490198
-0.47016263 -10.827523 -0.63436449 0.17254902
0.50002015 -8.6188908 0.49855864 0
0.6351676 -12.017593 -0.56330723 0
0.011587366 -16.029413 -0.84377301 0.039215688
1.1562564 -11.250502 -0.46316612 0.0039215689
-1.0995131 -21.666382 -0.76271045 0.070588239
0.6188724 -11.607853 -0.27360117 0
0.098086953 -4.746007 -2.2101796 0.0039215689
1.1146098 -11.22571 -0.19993985 0.21960784
-0.46387583 -49.271187 -1.4435495 0.10196079
0.4099474 -6.9638691 -1.950202 0.086274512
0.05165606 -8.4246311 -1.6857221 0.10196079
0.58169538 -11.700518 -0.0035783122 0.094117649
0.50089276 -9.4718628 -1.4759163 0.050980393
0.033891812 -9.8319712 -1.2533258 0.1882353
1.1239191 -11.33488 0.062532894 0.40392157
-1.3670142 -120.82843 -0.72403419 0.16862746
0.50792038 -9.665801 -1.0437945 0.15294118
-0.46405476 -10.112921 -0.94800419 0.054901961
-7.1695948 -119.02701 1.3666453 0.062745102
0.53019869 -10.28024 -0.72183347 0.15294118
1.1741723 -11.923918 0.34431121 0.050980393
-1.5569094 -135.87311 2.3473399 0.10980392
0.99741518 -9.8520803 -0.63619119 0.25882354
-0.50766534 -10.82128 -0.63413113 0.18039216
0.66679066 -14.047316 0.81393069 0
0.59615511 -12.099047 -0.56704354 0
-0.043464273 -15.960902 -0.84020305 0.015686275
1.118721 -11.273827 -0.46398437 0.0039215689
-1.1741087 -21.645901 -0.76214916 0.054901961
0.58114779 -11.685321 -0.27538234 0
0.083584152 -4.7532649 -2.2136374 0.0078431377
1.0777786 -11.253426 -0.20047 0.21176471
-0.64538884 -49.24078 -1.443025 0.074509807
0.38696283 -6.9573383 -1.9481306 0.094117649
0.023233205 -8.4362049 -1.6881711 0.10588235
0.54359889 -11.778269 -0.0037010382 0.043137256
-2.5555491e-05 -9.8555117 -1.2564611 0.18039216
1.086352 -11.358647 0.062537991 0.40000001
0.027894661 -8.1512403 -0.05039129 0
0.47540256 -9.6792479 -1.0451815 0.14901961
-0.49811664 -10.102834 -0.94736135 0.090196081
0.51141298 -10.787915 0.24733846 0
-7.6474609 -119.50974 1.3718773 0.062745102
0.49549881 -10.297797 -0.72305506 0.16078432
-0.008563742 -10.37646 -0.84965515 0.023529412
1.1353617 -11.959819 0.345126 0.050980393
0.96348071 -9.8514671 -0.63603503 0.24705882
-0.54543352 -10.826942 -0.63470334 0.16862746
0.46188778 -9.2640038 0.53579509 0
-0.02615343 -11.449534 0.46236804 0
0.55422008 -12.10488 -0.56734198 0
-0.024342149 -11.339309 -0.5973292 0.015686275
1.082032 -11.305524 -0.46523637 0.0039215689
-1.2507914 -21.621063 -0.76160693 0.039215688
0.0096044242 -9.2669449 1.6842282 0
0.54064023 -11.687109 -0.27549195 0
0.068689518 -4.7529979 -2.2136376 0.0078431377
1.0433965 -11.268212 -0.20068224 0.29411766
-0.80222881 -49.34993 -1.4463031 0.023529412
0.36593354 -6.9849634 -1.9556836 0.10588235
-0.0040736496 -8.4788675 -1.696808 0.086274512
0.5081588 -11.831388 -0.0037104296 0.019607844
-10.445237 -154.8468 -1.8351364 0.082352944
0.43528175 -9.3478556 -1.4563166 0.11372549
-0.031181052 -9.8668585 -1.2579784 0.20392157
1.0522645 -11.381435 0.062650055 0.29411766
-2.5738912 -140.07129 -0.83992946 0.16862746
0.44503096 -9.6801853 -1.0451819 0.15294118
-7.9629745 -118.61072 1.3618315 0.062745102
0.46376935 -10.318738 -0.72445399 0.16470589
-0.041901588 -10.415735 -0.85291678 0.015686275
1.1009468 -12.002681 0.34628204 0.050980393
0.9328779 -9.8579197 -0.63629228 0.22745098
-0.58104277 -10.84857 -0.63610262 0.17647059
0.46785113 -10.458379 0.60512435 0
0.52068257 -12.257824 -0.57444125 0
1.0477978 -11.324301 -0.46589118 0.0078431377
-1.3167588 -21.588604 -0.76062465 0.0078431377
-0.022618487 -9.4277391 1.7136168 0
0.50583792 -11.752197 -0.27699223 0
0.052307963 -4.7453976 -2.2102554 0.0078431377
1.0049963 -11.283186 -0.20089453 0.1254902
-0.97490537 -49.366253 -1.446889 0.023529412
0.34149289 -6.9817848 -1.9546049 0.090196081
-0.033536881 -8.4743176 -1.6960227 0.098039217
0.46948564 -11.932496 -0.0037280838 0.0078431377
-10.985651 -154.80884 -1.835134 0.082352944
0.40248805 -9.3408546 -1.4550858 0.12941177
-0.065944433 -9.8819942 -1.2600017 0.14509805
1.0140667 -11.404422 0.062762052 0.29411766
-3.0629599 -140.06889 -0.83997923 0.16862746
0.41169298 -9.6970215 -1.0468985 0.14901961
-8.4119616 -119.06836 1.3674304 0.062745102
0.42779124 -10.319733 -0.72445446 0.17647059
-0.079316348 -10.46279 -0.85683066 0.023529412
1.062669 -12.053733 0.34766933 0.054901961
0.89939952 -9.8724947 -0.63706249 0.24705882
-0.61857724 -10.841931 -0.6358692 0.16470589
-0.095784217 -11.178093 -0.58892828 0.050980393
0.36988974 -8.081337 0.98797393 0
1.0089028 -11.335297 -0.46621901 0.0078431377
-1.3937882 -21.607237 -0.76146603 0.0078431377
-0.021517694 -7.9517112 1.4448171 0
0.034863517 -4.7485905 -2.2119465 0.0078431377
0.96510088 -11.306149 -0.20124781 0.10980392
0.31603199 -6.986249 -1.9556842 0.090196081
-0.064132363 -8.4578619 -1.6928823 0.090196081
0.42819035 -12.041518 -0.0037471168 0
0.36803207 -9.3298197 -1.4532393 0.12941177
-0.10338765 -9.9286919 -1.2660707 0.043137256
0.97401118 -11.43141 0.062896602 0.28235295
-3.5777671 -140.11209 -0.84031612 0.16862746
0.37654775 -9.7137766 -1.0486152 0.14901961
-0.58154595 -9.8254642 -0.92203367 0.05882353
-8.7736969 -118.051 1.3561009 0.062745102
0.39001083 -10.32064 -0.72445488 0.17647059
-0.11857495 -10.497705 -0.85976601 0.035294119
1.0233554 -12.124757 0.34963498 0.047058824
-0.12533954 -10.751051 0.18397886 0
0.86353862 -9.8791161 -0.63731974 0.24705882
-0.65856576 -10.842982 -0.63610226 0.12156863
0.33117068 -7.6696935 0.44304529 0
-0.13425601 -11.085235 -0.58409774 0.039215688
0.96995032 -11.374206 -0.46769148 0
-0.33237866 -6.5337973 -0.2311897 0
0.018440649 -4.7444963 -2.2102554 0.0078431377
0.92756462 -11.336818 -0.20174204 0.090196081
-1.3401016 -49.756508 -1.458595 0.023529412
0.29197562 -7.002151 -1.9600003 0.094117649
-0.093966097 -8.4687843 -1.6952379 0.070588239
2.7467029 -138.28032 -0.02540179 0.24705882
0.33528554 -9.3186302 -1.4513929 0.16078432
-0.13931671 -9.9713354 -1.2716342 0.023529412
0.935498 -11.454129 0.063008644 0.27450982
-4.0670118 -140.10619 -0.84036529 0.015686275
0.34283161 -9.7224226 -1.0494738 0.16470589
-0.62176967 -9.898243 -0.92911017 0.070588239
-9.1559763 -117.64431 1.3517908 0.062745102
0.35395318 -10.317386 -0.72417563 0.15294118
-0.15637577 -10.536512 -0.86302751 0.027450981
0.98431098 -12.175563 0.35102233 0.039215688
0.82882428 -9.8775234 -0.63706392 0.23921569
-0.70046473 -10.891805 -0.63913423 0.070588239
0.37625912 -11.511098 0.66610515 0
0.46297973 -16.148029 -0.7562086 0.12941177
-0.17242265 -11.068165 -0.58325773 0.090196081
-0.17779779 -11.246135 0.91385078 0
0.93190527 -11.400885 -0.46867332 0
-1.5406998 -21.499914 -0.75809836 0.0078431377
-0.054221854 -7.1517081 1.2993066 0
0.0023833662 -4.7548656 -2.2153287 0.0078431377
0.89103281 -11.355262 -0.20202473 0.094117649
-2.2230189 -71.182053 -2.0863302 0.074509807
0.2689718 -7.0140991 -1.9632374 0.094117649
-0.12174651 -8.4600534 -1.6936678 0.050980393
2.2863698 -138.17213 -0.025386743 0.24705882
0.3042396 -9.3073015 -1.4495465 0.17254902
-0.17287356 -9.986146 -1.2736573 0.015686275
0.89857733 -11.472601 0.063098177 0.27058825
0.31075144 -9.7309237 -1.0503322 0.16470589
-0.6509459 -9.8519316 -0.92501289 0.05882353
-9.5361528 -117.49317 1.350417 0.062745102
0.31983915 -10.321957 -0.72445565 0.20784314
-0.19474572 -10.638998 -0.87150735 0.039215688
0.94782114 -12.238075 0.35275671 0.023529412
0.79636145 -9.883667 -0.637321 0.22352941
-0.74048126 -10.936643 -0.6419329 0.074509807
-0.20747992 -11.019092 -0.58073747 0.11372549
0.89490342 -11.415344 -0.46916458 0.0039215689
-1.6080028 -21.446342 -0.75641447 0.0078431377
0.8827486 -46.918049 -1.1013309 0.10588235
-0.014304593 -4.7579045 -2.2170198 0.0039215689
0.85264981 -11.377699 -0.20237792 0.094117649
-2.4721661 -71.193268 -2.0869157 0.074509807
0.24462205 -7.0221357 -1.9653956 0.082352944
-0.15094253 -8.4511747 -1.6920974 0.035294119
0.23397194 -6.1280465 -0.002733391 0
0.27169973 -9.299839 -1.4483157 0.23921569
-0.2082727 -10.000779 -1.2756804 0.031372551
0.86027074 -11.503053 0.063255385 0.25882354
-0.25665689 -11.308549 -0.069324411 0
0.27692169 -9.7393398 -1.0511907 0.16078432
-0.69553125 -9.9680758 -0.93618643 0.043137256
-10.016472 -118.27554 1.3598247 0.062745102
0.28370959 -10.310479 -0.7236169 0.29411766
-0.2443648 -10.976327 -0.89922959 0.090196081
0.91194034 -12.352494 0.35599497 0.0078431377
0.76238585 -9.8937922 -0.63783467 0.23921569
-0.78442824 -11.001061 -0.64589769 0.082352944
0.35637099 -16.421396 -0.76891297 0.023529412
-0.2444205 -10.97782 -0.57863724 0.074509807
0.85655248 -11.441772 -0.47014639 0.0078431377
-1.6876075 -21.495794 -0.75837791 0.0078431377
-0.194179 -9.6197243 1.7494564 0
0.71835136 -46.8643 -1.1000202 0.14901961
-0.031255871 -4.7463641 -2.2119465 0.0078431377
0.81235862 -11.404116 -0.20280161 0.082352944
-2.7263808 -71.019348 -2.0821171 0.074509807
0.21902351 -7.0339494 -1.9686327 0.090196081
-0.18203038 -8.4538927 -1.6928825 0.050980393
1.2937694 -137.70784 -0.025314637 0.24705882
-9.4708605 -107.32957 -1.2745786 0.082352944
0.23765805 -9.3001814 -1.4483161 0.25490198
-0.24633124 -10.035041 -1.2802322 0.039215688
0.81974864 -11.533493 0.063412592 0.24705882
-7.5704985 -190.13597 -1.1402975 0.3137255
0.24133478 -9.7476521 -1.0520492 0.10588235
-0.71955454 -9.8260345 -0.92315012 0.047058824
-10.494555 -118.7354 1.3655626 0.062745102
0.24596405 -10.310858 -0.72361726 0.25882354
-0.28341344 -10.946883 -0.89694661 0.05882353
0.72616446 -9.8959303 -0.63783532 0.23137255
-0.82933831 -11.049226 -0.6489296 0.11764706
-0.12505609 -7.0528641 0.28417286 0
0.2949127 -16.262182 -0.76144111 0.019607844
-0.28314751 -10.940339 -0.576747 0.094117649
0.26302272 -12.387387 1.5156593 0
0.81556904 -11.460204 -0.47080117 0.0039215689
-1.7627628 -21.449059 -0.75697452 0.0078431377
0.54692161 -46.902016 -1.1008655 0.10588235
-0.047780484 -4.7456627 -2.2119465 0.0078431377
0.77494705 -11.450249 -0.20357773 0.06666667
-2.9622309 -70.737221 -2.0741577 0.070588239
0.19449404 -7.0302563 -1.9675541 0.094117649
-0.20941898 -8.4056234 -1.6834611 0.050980393
0.8117677 -137.42694 -0.025270104 0.24705882
0.20519888 -9.2924871 -1.4470851 0.23529412
-0.28394112 -10.093019 -1.2878186 0.023529412
0.78167164 -11.575664 0.063637532 0.25098041
0.20742664 -9.7637796 -1.0537659 0.11764706
-0.75750434 -9.8625546 -0.92687452 0.047058824
0.21113546 -10.54955 0.24170087 0
-10.886623 -118.45853 1.3628132 0.062745102
0.20999587 -10.307101 -0.72333783 0.26666668
-0.31982076 -10.905437 -0.89368522 0.047058824
0.69187462 -9.9018269 -0.63809246 0.23921569
-0.87045419 -11.073533 -0.65056193 0.10588235
-0.16849813 -7.479053 0.30152211 0
0.23786733 -16.194622 -0.75826579 0.019607844
-0.32023335 -10.914777 -0.57548678 0.10196079
0.22452384 -13.380222 1.637358 0
0.77838826 -11.5143 -0.47292754 0
-1.8375796 -21.442213 -0.75697392 0.0078431377
0.22226407 -12.906105 3.4508197 0
-0.32246974 -10.965411 1.9953184 0
0.38382912 -47.027039 -1.1037729 0.062745102
-0.064474612 -4.7485256 -2.2136378 0.0078431377
0.73662174 -11.484277 -0.20414235 0.11764706
-3.2005165 -70.546165 -2.0688906 0.070588239
0.16999188 -7.0264778 -1.9664752 0.10588235
-0.23908797 -8.4121122 -1.6850312 0.047058824
0.33188143 -137.24438 -0.02524244 0.24705882
0.17278072 -9.2728233 -1.4440075 0.18039216
-0.32441524 -10.202377 -1.3019797 0.023529412
0.74290884 -11.609717 0.063817374 0.17647059
-6.0554609 -130.44608 -0.78306723 0.16862746
0.17342284 -9.7917194 -1.0567695 0.11372549
-0.77001011 -9.6333342 -0.90564394 0.054901961
0.17379323 -10.097783 0.23126321 0
-11.361657 -119.05624 1.3701572 0.062745102
0.17405123 -10.299229 -0.72277868 0.22352941
-0.35575321 -10.859887 -0.89009762 0.039215688
0.65775144 -9.9115934 -0.63860601 0.23921569
-0.91290498 -11.10961 -0.65289402 0.10588235
0.17807081 -13.541682 0.78389359 0
0.1812972 -16.126865 -0.75509042 0.015686275
-0.35676464 -10.881111 -0.57380658 0.10980392
-0.18418518 -7.2602158 0.58940244 0
0.74003816 -11.552307 -0.47439981 0
-1.9119847 -21.431128 -0.75683302 0.0078431377
0.21996854 -47.227478 -1.108461 0.019607844
-0.080549255 -4.7549906 -2.2170198 0.0078431377
0.70007277 -11.518081 -0.20470691 0.094117649
-3.4356215 -70.558594 -2.0695927 0.070588239
0.14677106 -7.0072093 -1.9610807 0.082352944
-0.26714098 -8.4146566 -1.6858164 0.047058824
-0.12260506 -136.95618 -0.025196442 0.24705882
-10.565457 -107.1252 -1.2733877 0.082352944
0.14203833 -9.2886181 -1.4464701 0.15294118
-0.36224541 -10.279963 -1.3120948 0.023529412
0.70613134 -11.647542 0.064019829 0.070588239
-6.489799 -130.46071 -0.78328234 0.16862746
0.14092675 -9.8235207 -1.0602024 0.14509805
-0.82770526 -9.8877754 -0.9298535 0.054901961
-0.46846256 -6.3006101 0.070803247 0
0.13994654 -10.295224 -0.72249925 0.28235295
-0.39192548 -10.862093 -0.89042372 0.043137256
0.54860961 -8.2839479 0.23788489 0
-0.014086649 -3.4514973 0.057830308 0
0.62454796 -9.9052105 -0.63809359 0.23137255
-0.95367837 -11.14572 -0.65522605 0.086274512
0.13151729 -14.356287 0.83119476 0
0.12790847 -16.102873 -0.75397003 0.043137256
-0.39158371 -10.855396 -0.57254636 0.12941177
0.70251477 -11.570133 -0.47505447 0.0039215689
-0.39641848 -5.5811796 -0.19808154 0
0.14863734 -6.0942149 1.6267966 0
0.062955938 -47.43935 -1.1134304 0.019607844
-0.096906453 -4.7504978 -2.2153287 0.0078431377
0.66111898 -11.54786 -0.20520097 0.070588239
-3.6709778 -70.345985 -2.0637398 0.070588239
0.1223536 -7.0071173 -1.9610808 0.086274512
-0.29710877 -8.4248581 -1.6881716 0.05882353
-0.59927273 -136.71039 -0.025157895 0.24705882
-2.1080165 -21.901632 -0.26165628 0.0039215689
0.10961356 -9.296401 -1.4477016 0.11372549
-0.40153757 -10.341467 -1.3201869 0.019607844
0.66724539 -11.689336 0.064244837 0.070588239
-6.9472876 -130.47664 -0.783521 0.16862746
0.10663478 -9.8313456 -1.0610607 0.14509805
-0.8695637 -9.9555693 -0.93655753 0.054901961
-0.061052591 -2.1568444 0.023044294 0
0.10407463 -10.291099 -0.72221982 0.20392157
0.59415996 -10.002481 -0.64425039 0.10980392
-0.99953473 -11.209285 -0.65919083 0.047058824
0.079804167 -14.651595 0.84835279 0
0.07205303 -16.046719 -0.75135499 0.015686275
-0.42964718 -10.85739 -0.57275635 0.098039217
0.66355133 -11.603895 -0.47636318 0.0039215689
-2.0577297 -21.416521 -0.75683159 0.0078431377
-0.11305234 -49.318172 -1.1574891 0.019607844
-0.11234011 -4.7533307 -2.2170956 0.0078431377
0.62021804 -11.577991 -0.20580374 0.05882353
-3.9503784 -70.430397 -2.0670669 0.070588239
0.098167889 -7.0148807 -1.9633255 0.094117649
-0.33206528 -8.5133142 -1.7063243 0.054901961
-1.1316838 -136.43462 -0.02583687 0.24705882
-2.1860716 -21.849056 -0.26129732 0.0039215689
0.076596379 -9.2845402 -1.4459529 0.082352944
0.62578726 -11.719496 0.064292766 0.070588239
-7.4602485 -130.49182 -0.78448254 0.015686275
0.071284406 -9.843257 -1.0624487 0.12941177
-0.87288481 -9.6507645 -0.90835071 0.054901961
-12.658151 -119.12466 1.3718153 0.062745102
0.066723309 -10.322988 -0.7245608 0.17647059
-0.46931297 -10.861938 -0.89085591 0.10196079
0.48334521 -8.1030989 0.23247106 0
-0.27231324 -7.4908819 0.12769274 0
0.56924242 -10.283589 -0.66230923 0.12156863
-1.0487392 -11.284306 -0.66396397 0.05882353
0.012981966 -15.97715 0.92520261 0
0.012714103 -16.006561 -0.74961829 0.019607844
-0.47008687 -10.875193 -0.57391262 0.06666667
0.62352997 -11.661969 -0.47876206 0
-2.1338763 -21.364168 -0.75544685 0.0078431377
-0.12806039 -4.7523861 -2.2170956 0.0078431377
0.58373731 -11.631396 -0.20672101 0.031372551
-1.3773445 -24.978464 -0.73411971 0.0039215689
0.074996345 -7.0107694 -1.9622467 0.090196081
-0.36122 -8.5272789 -1.7094651 0.05882353
-1.5814066 -136.22156 -0.025803128 0.24705882
-2.254941 -21.809338 -0.26091838 0.0039215689
0.045849346 -9.2841969 -1.445953 0.090196081
-0.42409897 -9.5453138 -1.2191353 0.10196079
0.58927011 -11.784918 0.06465286 0.039215688
0.038582847 -9.8508453 -1.0633073 0.098039217
-0.9123109 -9.7145624 -0.91468263 0.039215688
-1.5763996 -135.82941 3.1348898 0.074509807
-12.99791 -118.58456 1.3660872 0.062745102
0.032277361 -10.342555 -0.72595972 0.16470589
-0.50479603 -10.851819 -0.89020354 0.1254902
-0.36663872 -8.615077 0.14717975 0
0.53532398 -10.288864 -0.66256636 0.21176471
-1.093601 -11.347688 -0.66792899 0.10196079
-0.039555207 -15.94604 -0.74681616 0.015686275
-0.5065977 -10.881 -0.57433265 0.05882353
0.58705741 -11.723339 -0.48121569 0
-2.2024639 -21.336561 -0.75474459 0.0078431377
0.0083120912 -12.210043 3.2644756 0
-0.46660346 -49.259174 -1.1564732 0.086274512
-0.1443684 -4.7477183 -2.2154045 0.0078431377
0.5446099 -11.676758 -0.20749727 0.023529412
0.05037944 -7.0219674 -1.9654838 0.094117649
-2.1181126 -139.97015 -0.026469681 0.24705882
-2.3241835 -21.741152 -0.26020849 0.0039215689
0.013550013 -9.2797728 -1.4453375 0.10588235
-0.45271933 -9.4719315 -1.2100313 0.086274512
0.54999781 -11.842297 0.064967856 0.023529412
-11.151723 -173.38872 -1.0422571 0.16862746
0.0039171129 -9.8702259 -1.0654528 0.074509807
-0.93393344 -9.6039104 -0.90462518 0.050980393
-13.548277 -119.73002 1.3798496 0.062745102
-0.0041707158 -10.365967 -0.72763819 0.15294118
-0.54158944 -10.833501 -0.88889873 0.11372549
0.45143741 -8.8164034 0.2530573 0
-7.6435061 -119.64032 2.0696161 0.10980392
0.49971074 -10.298073 -0.66307986 0.20392157
-1.1358868 -11.367031 -0.66932815 0.098039217
0.025910214 -8.5212946 0.49233699 0
-0.54427135 -10.874605 -0.57412249 0.074509807
-2.2746096 -21.308311 -0.75404227 0.0078431377
-0.13775276 -4.6464982 0.84406382 0
-0.63889509 -49.280666 -1.1570368 0.10980392
-0.16031794 -4.7502832 -2.2170956 0.0078431377
-1.5283643 -24.69215 -0.72604144 0.027450981
0.027059659 -7.0254011 -1.966563 0.086274512
-0.42050868 -8.543066 -1.7133906 0.05882353
-2.5815146 -139.92581 -0.026465848 0.023529412
-2.3854527 -21.641418 -0.2591204 0.0039215689
-0.017723829 -9.3068819 -1.4496469 0.15294118
-0.4648034 -9.1887703 -1.1741211 0.062745102
-0.2979604 -6.7567854 -0.042219814 0
-0.029083744 -9.8855448 -1.0671693 0.074509807
-0.95733947 -9.5290194 -0.89792025 0.054901961
0.015823916 -7.5972738 0.17344372 0
-13.804698 -118.49222 1.3660966 0.062745102
-0.039207861 -10.401256 -0.730156 0.098039217
-0.51826012 -9.9680185 -0.81812137 0.035294119
-8.2011137 -121.9599 2.1102498 0.10980392
0.46595085 -10.311097 -0.66385001 0.17254902
-1.1796114 -11.41421 -0.67236012 0.070588239
-0.016958833 -9.2673864 0.53569293 0
-0.58028746 -10.872194 -0.57412237 0.082352944
-0.15211232 -16.152767 1.977494 0.0039215689
0.50990653 -11.813829 -0.48481458 0
-2.3433435 -21.284224 -0.7534802 0.0078431377
-0.33114445 -7.2405725 1.3178554 0
-0.80376261 -49.353691 -1.1588191 0.062745102
-0.17711528 -4.7527351 -2.2187867 0.0078431377
-1.6096135 -24.618298 -0.72405088 0.019607844
0.0027584434 -7.0171771 -1.9644052 0.086274512
-0.44774389 -8.505765 -1.706324 0.054901961
-2.4493635 -21.537094 -0.25798503 0.0039215689
-0.050714523 -9.3298969 -1.4533408 0.16078432
-0.49426228 -9.1508989 -1.169569 0.090196081
0.47533858 -12.072566 0.066251673 0
-0.064097524 -9.9086637 -1.0697441 0.023529412
-0.98046845 -9.4420223 -0.8900978 0.054901961
-14.31945 -119.27656 1.3757322 0.062745102
-0.07657674 -10.448351 -0.733513 0.086274512
-0.55444074 -9.9854565 -0.8197521 0.05882353
0.45986944 -11.472162 0.32985288 0
-8.5496502 -120.86089 2.091732 0.10980392
0.43030882 -10.32406 -0.66462004 0.14509805
-1.2309563 -11.504584 -0.67795783 0.027450981
-0.027327001 -2.6756482 0.10656157 0
-0.61905205 -10.881481 -0.57475239 0.074509807
-0.19602762 -5.0151567 0.40680319 0
-2.4185445 -21.283278 -0.7537598 0.0078431377
-0.97922593 -49.489937 -1.1621014 0.019607844
-0.1939394 -4.7442226 -2.2154045 0.0078431377
-1.4879549 -21.816849 -0.64198536 0.0039215689
-0.02291435 -7.0165367 -1.9644052 0.090196081
-0.47768366 -8.4878197 -1.7031833 0.070588239
-3.5881019 -140.10652 -0.026506437 0.24705882
-2.5217788 -21.475775 -0.25736946 0.0039215689
-0.085709885 -9.3606529 -1.4582659 0.14509805
-0.52925122 -9.1682072 -1.1720978 0.14117648
3.216491 -138.15686 0.7769869 0.10980392
-0.10068662 -9.9196844 -1.0710316 0.086274512
-1.0150214 -9.4377632 -0.89009738 0.06666667
-14.798703 -119.56002 1.3796359 0.062745102
-0.11610632 -10.495261 -0.73686987 0.13333334
-0.6545645 -10.821537 -0.88857216 0.023529412
-8.8429003 -118.8541 2.0575278 0.10980392
0.3925136 -10.324965 -0.66462052 0.1882353
-0.19802456 -13.553089 0.78469986 0
-0.13371544 -11.152587 -0.52280724 0.062745102
-0.66190213 -10.918366 -0.57685274 0.062745102
-2.4920201 -21.237967 -0.75249612 0.0078431377
-0.45036477 -8.1275883 1.4805647 0
-1.1680585 -49.765236 -1.1686654 0.019607844
-0.21102728 -4.7501678 -2.2187867 0.0078431377
-0.047128364 -7.0081377 -1.9622473 0.11372549
-0.50881392 -8.5050735 -1.707109 0.086274512
-4.078053 -140.12453 -0.026513845 0.019607844
-2.5997443 -21.490068 -0.25765204 0.0039215689
-0.11953487 -9.3992252 -1.4644221 0.094117649
-0.56340122 -9.1934156 -1.1756381 0.086274512
2.7301075 -137.9427 0.77571863 0.10980392
-0.13586824 -9.9385738 -1.0731772 0.043137256
-1.1084166 -9.9036407 -0.93442178 0.023529412
-13.241367 -104.16663 1.2023032 0.062745102
-0.15366103 -10.526125 -0.73910785 0.14509805
-0.69670135 -10.874249 -0.89313823 0.019607844
-9.2880211 -119.20467 2.0641639 0.10980392
0.35629374 -10.313723 -0.66385138 0.18431373
-1.4095019 -12.242842 -0.7220428 0.082352944
-0.25616312 -13.910971 0.80556619 0
-9.3495827 -119.98111 4.8799458 0.24705882
-0.17066319 -11.087577 -0.51981813 0.078431375
-0.70280635 -10.951252 -0.57874298 0.05882353
0.46518838 -16.168444 -0.6629048 0.070588239
-2.5681331 -21.244425 -0.75305629 0.0078431377
-1.3478879 -49.96413 -1.1734477 0.019607844
-0.22703503 -4.7525086 -2.2204776 0.0039215689
-1.6198651 -21.605858 -0.63613111 0.0078431377
-0.070584834 -7.0150967 -1.9644054 0.1254902
-0.53568095 -8.4871588 -1.7039683 0.082352944
-4.5429311 -140.11769 -0.026516646 0.24705882
-2.6683326 -21.460955 -0.25741467 0.0039215689
-0.150263 -9.3863811 -1.4625753 0.094117649
-0.59711063 -9.2304945 -1.1806957 0.086274512
2.2687225 -137.69049 0.77424806 0.10980392
-0.3512249 -6.255363 -0.039249025 0
-0.16985117 -9.9693184 -1.07661 0.015686275
-1.1281716 -9.8006535 -0.92510933 0.047058824
-0.1605605 -9.6927128 0.2219248 0
-13.568354 -103.9828 1.2007031 0.062745102
-0.19013165 -10.572865 -0.74246478 0.035294119
-9.6433697 -118.69039 2.0558047 0.10980392
0.32213262 -10.3143 -0.6638518 0.24705882
-1.4568485 -12.289018 -0.72507465 0.094117649
-9.708189 -119.47491 4.8606553 0.24705882
-0.2060457 -11.04647 -0.51794994 0.082352944
-0.74006265 -10.960257 -0.57937288 0.06666667
-1.0154539 -14.292616 1.1654277 0
0.41338259 -16.28524 -0.6676479 0.05882353
-2.6448085 -21.282803 -0.75473893 0.0078431377
-0.1820222 -10.331237 2.7626967 0
-2.4546304 -77.967331 -1.8305144 0.05882353
-0.24409421 -4.7474294 -2.2187865 0.0039215689
0.71724397 -47.578159 -0.84044641 0.050980393
-1.6955575 -21.559338 -0.63495994 0.019607844
-0.096106037 -7.0103383 -1.9633265 0.098039217
-0.56842458 -8.5040722 -1.7078937 0.062745102
-6.9797263 -191.70366 -0.035646666 0.039215688
-2.7447724 -21.434572 -0.25722441 0.0039215689
-0.18447088 -9.3812151 -1.4619598 0.086274512
-0.62577152 -9.1683426 -1.1731088 0.078431375
1.7613974 -137.4653 0.77293509 0.10980392
-10.900566 -128.17767 -0.77213103 0.16862746
-0.2073793 -9.9958458 -1.0796137 0.023529412
-1.1624299 -9.7840109 -0.92399138 0.06666667
-13.987011 -104.20921 1.2039191 0.062745102
-0.24116959 -10.902452 -0.76568258 0.1254902
-0.79411292 -11.118202 -0.91368604 0.05882353
-10.205907 -120.13192 2.0814447 0.10980392
0.28432751 -10.310818 -0.66359568 0.22352941
-1.5077446 -12.326518 -0.72763979 0.10980392
-0.045700267 -2.449681 0.097482882 0
-0.24574019 -11.025072 -0.51701587 0.06666667
-0.7856791 -11.020542 -0.58273339 0.050980393
-0.081957728 -6.6305742 0.81020522 0
0.35327426 -16.246078 -0.66601324 0.031372551
-2.7092991 -21.173334 -0.75123024 0.0078431377
-2.7203758 -77.421722 -1.8179513 0.05882353
-0.26191735 -4.7604151 -2.2255507 0.0039215689
0.56872618 -49.73539 -0.87845606 0.054901961
-0.12100179 -7.0209312 -1.9665635 0.098039217
-0.59595448 -8.4780235 -1.7031826 0.05882353
-7.588181 -190.19081 -0.035384774 0.24705882
-2.8178728 -21.412403 -0.25708145 0.0039215689
-0.21829768 -9.4075813 -1.4662691 0.10980392
-0.64423162 -9.0153532 -1.1538892 0.062745102
1.2794577 -137.20604 0.77144241 0.10980392
-11.351445 -128.1781 -0.77236742 0.16862746
-0.24384411 -10.034223 -1.0839046 0.019607844
-1.1970794 -9.7832642 -0.92436337 0.047058824
-14.372714 -104.31763 1.2057592 0.062745102
-0.28145415 -10.956785 -0.76959884 0.082352944
-0.83715326 -11.162436 -0.91759968 0.050980393
0.2402893 -9.3165588 0.26739606 0
-10.337359 -116.89236 2.0258884 0.10980392
0.24828315 -10.299197 -0.66282648 0.23137255
-1.5545753 -12.348291 -0.72927195 0.10196079
-10.442944 -118.06768 4.8063498 0.24705882
-0.28385162 -11.015587 -0.51664227 0.06666667
-0.82838684 -11.064899 -0.58525378 0.070588239
-0.66305619 -9.225009 0.75169218 0
0.29631716 -16.210669 -0.66454196 0.027450981
-2.7776258 -21.123577 -0.74982601 0.0078431377
-2.0863826 -55.231705 -1.2974927 0.035294119
-0.27665114 -4.748147 -2.2204771 0.0039215689
-1.8399495 -21.522291 -0.63425654 0.078431375
-0.14441122 -7.0237927 -1.9676425 0.094117649
-0.61929184 -8.4246855 -1.6929752 0.070588239
-8.2224989 -190.24797 -0.035400338 0.24705882
-2.893343 -21.434072 -0.25745845 0.0039215689
-0.24718811 -9.3549309 -1.4582663 0.10980392
-0.68144602 -9.0916367 -1.1640044 0.074509807
0.82322741 -136.94501 0.76995021 0.10980392
-11.793474 -128.32245 -0.77346617 0.023529412
-0.27830142 -10.060624 -1.0869083 0.023529412
-1.2215931 -9.7234964 -0.91914809 0.050980393
-0.31721699 -10.943288 -0.76875967 0.098039217
-0.75906837 -9.9245462 -0.81616306 0.023529412
-10.810622 -117.77679 2.0418544 0.10980392
0.21415162 -10.295426 -0.6625703 0.21568628
-1.5999875 -12.374146 -0.73113728 0.070588239
-0.065249607 -2.4800282 0.098779984 0
-0.3194567 -10.994081 -0.51570821 0.06666667
-0.86948043 -11.109274 -0.5877741 0.082352944
0.24244742 -16.179043 -0.66323423 0.031372551
-2.8606105 -21.204727 -0.75305176 0.0078431377
-0.22384579 -4.1818018 0.7609179 0
-3.2479131 -77.416275 -1.8183271 0.05882353
-0.29317957 -4.7465768 -2.2204771 0.0039215689
0.23005834 -49.581009 -0.87570912 0.054901961
-1.9138657 -21.50322 -0.63390464 0.078431375
-0.16888385 -7.0226712 -1.9676425 0.10196079
-0.64449799 -8.3789539 -1.6843382 0.078431375
-8.8792725 -190.0657 -0.035373822 0.24705882
-2.9756272 -21.474716 -0.25807163 0.0039215689
-0.28843886 -9.535037 -1.4865843 0.13725491
-0.72726685 -9.2347574 -1.1827178 0.070588239
0.34495258 -136.73047 0.76872855 0.10980392
-12.248219 -128.35156 -0.77389365 0.031372551
-0.31545264 -10.102714 -1.0916284 0.015686275
-1.2370312 -9.5924988 -0.90722829 0.047058824
-14.738388 -101.86546 1.1785299 0.062745102
-0.35461092 -10.925596 -0.76764083 0.094117649
0.17121878 -4.9626822 0.14144589 0
-11.242421 -117.95271 2.0455892 0.10980392
0.17825215 -10.291544 -0.662314 0.23921569
-11.209332 -117.61083 4.790792 0.24705882
-0.35683674 -10.972368 -0.51477402 0.054901961
-0.91090077 -11.133427 -0.58924413 0.074509807
0.18593088 -16.115271 -0.66061825 0.023529412
-2.9212554 -21.10306 -0.74982363 0.0078431377
-3.5000274 -77.024429 -1.8094201 0.05882353
-0.30719906 -4.7414813 -2.2188618 0.0039215689
0.047048315 -49.525185 -0.87501818 0.054901961
-1.9901108 -21.483583 -0.63371223 0.074509807
-0.1916367 -7.0177884 -1.9666505 0.10196079
-0.67529619 -8.4034357 -1.6899283 0.070588239
-0.11993144 -5.6216435 -0.0028093108 0
-3.0487993 -21.435328 -0.25789958 0.0039215689
-0.32226437 -9.5611658 -1.490993 0.082352944
-0.79346353 -9.579031 -1.2273257 0.086274512
-0.16574465 -136.53046 0.76687634 0.10980392
-0.35223967 -10.144795 -1.0964508 0.019607844
-1.2850244 -9.689826 -0.91701311 0.050980393
-15.14496 -101.98692 1.1800343 0.062745102
-0.3912279 -10.903913 -0.7663483 0.098039217
-0.96229184 -11.258596 -0.92651355 0.027450981
0.13862202 -12.075956 0.34708646 0
-11.643245 -117.51528 2.0381131 0.10980392
0.14299452 -10.291798 -0.66241699 0.23921569
-0.38838166 -10.848487 0.62809455 0
-11.66086 -117.69077 4.7951827 0.24705882
-0.3946532 -10.970604 -0.51488048 0.043137256
-0.95651078 -11.201115 -0.59313279 0.043137256
-3.000155 -21.111336 -0.75068235 0.0078431377
-0.70484459 -8.6976728 1.5879875 0
-0.17543776 -6.7023783 -0.15886901 0
-0.32482791 -4.7506094 -2.2239349 0.0078431377
-0.12570556 -49.512466 -0.87480813 0.054901961
-2.0638008 -21.463987 -0.63336027 0.082352944
-0.21608631 -7.01649 -1.9666505 0.10196079
-0.71350938 -8.4862671 -1.7072021 0.054901961
-3.1229482 -21.420015 -0.25785097 0.0039215689
-0.35927123 -9.6264858 -1.5014586 0.035294119
-0.7939983 -9.2598906 -1.1868619 0.054901961
-0.64093488 -136.30446 0.76561099 0.10980392
-10.998966 -107.33971 -0.6485247 0.16862746
-0.37562108 -9.9245157 -1.0728496 0.043137256
-2.0613461 -14.514621 -1.3740658 0.027450981
-0.42814749 -10.881973 -0.76494956 0.11372549
-1.0036019 -11.27441 -0.9281441 0.019607844
0.10704452 -10.303621 -0.66318697 0.21176471
-1.8105874 -12.883619 -0.76250887 0.039215688
-0.18864436 -6.5162902 0.37632668 0
-12.166265 -118.55909 4.8323083 0.24705882
-0.43596238 -11.024427 -0.51749647 0.05882353
-1.0046514 -11.284528 -0.59775394 0.035294119
0.073114701 -16.019356 -0.65682507 0.062745102
-3.0768185 -21.119905 -0.75138271 0.0078431377
-4.0400724 -76.720566 -1.8033822 0.05882353
-0.34097648 -4.745255 -2.222244 0.0039215689
-0.29834604 -49.49514 -0.87452734 0.054901961
-2.1378133 -21.448116 -0.63312542 0.086274512
-0.24053277 -7.0151052 -1.9666505 0.10588235
-0.74392241 -8.4909363 -1.7087721 0.074509807
-0.43496811 -10.346634 -1.6141187 0.015686275
-0.81226647 -9.1262856 -1.1701704 0.082352944
-1.1141692 -136.03282 0.76409811 0.10980392
-0.55277449 -6.7142501 -0.04218404 0
-0.4067418 -9.8630047 -1.066413 0.054901961
-1.3884442 -9.9076319 -0.93861669 0.023529412
-15.840959 -101.77875 1.1789011 0.062745102
-0.46492308 -10.859907 -0.76355076 0.074509807
-1.0693444 -11.516006 -0.948367 0.011764706
-12.663473 -119.29095 2.0704522 0.10980392
0.070933983 -10.323303 -0.66447014 0.18039216
-12.565044 -118.37624 4.8266382 0.24705882
-0.47439748 -11.022251 -0.51749641 0.05882353
-1.0589451 -11.419371 -0.60510606 0.023529412
-0.47771978 -11.079208 1.3572338 0
0.017805129 -15.95898 -0.65437222 0.035294119
-3.1442664 -21.068956 -0.74997807 0.0078431377
-0.42777044 -10.223381 2.7367287 0
-0.82564157 -9.2508812 1.6904849 0
-4.3094487 -76.733353 -1.8040384 0.05882353
-0.35709256 -4.7398462 -2.2205524 0.0039215689
-0.47183877 -49.553196 -0.87558675 0.054901961
-2.2108545 -21.424042 -0.63265628 0.094117649
-0.26425916 -7.0021033 -1.9634134 0.10588235
-0.77524328 -8.5032949 -1.7119126 0.074509807
-3.2812121 -21.451805 -0.25851014 0.023529412
-0.46932721 -10.316853 -1.6098092 0.035294119
-0.8388133 -9.0754833 -1.1641005 0.082352944
-1.5872407 -135.89554 0.76335138 0.10980392
-11.056252 -101.03356 -0.61097509 0.16862746
-0.43547297 -9.7696447 -1.0565434 0.054901961
-2.1998596 -14.730696 -1.3960412 0.023529412
-0.50130314 -10.833738 -0.76187223 0.06666667
0.097006902 -5.5182748 0.1574422 0
-13.149522 -119.87345 2.0813715 0.10980392
0.034533098 -10.354833 -0.6665228 0.15686275
-3.2109003 -21.014673 -1.2444587 0.015686275
-0.068338633 -3.8352804 0.22053666 0
-13.073451 -119.18908 4.8616571 0.24705882
-0.51208216 -11.007977 -0.51693583 0.05882353
-1.1102216 -11.518239 -0.61056739 0.031372551
-0.036718845 -15.870439 -0.65077442 0.023529412
-3.2164741 -21.049374 -0.74969602 0.0078431377
-4.5796895 -76.757179 -1.8049759 0.05882353
-0.37400347 -4.7415857 -2.2222435 0.0078431377
-0.64660215 -49.662632 -0.87756294 0.054901961
-2.2837574 -21.399719 -0.63218713 0.094117649
-0.28890568 -7.004395 -1.9644923 0.098039217
-0.80710894 -8.519433 -1.7158381 0.074509807
-3.3651145 -21.494886 -0.25917068 0.023529412
-0.50967455 -10.381611 -1.6202748 0.023529412
-0.871346 -9.0797997 -1.1651118 0.086274512
-2.1282983 -139.95598 0.78625214 0.41176471
-11.406081 -100.96992 -0.61082733 0.16862746
-0.4485141 -9.4460335 -1.0217854 0.090196081
-2.2563913 -14.753778 -1.39902 0.0078431377
-16.518557 -101.46717 1.176623 0.062745102
-0.53750938 -10.807445 -0.76019365 0.05882353
-1.188217 -11.84375 -0.97609156 0.047058824
-13.560546 -119.76268 2.0802708 0.10980392
-0.0018939823 -10.374261 -0.66780585 0.14509805
-0.77099216 -8.2046013 0.33263224 0
-0.54993689 -10.997561 -0.51656199 0.05882353
-1.1512849 -11.521643 -0.61098707 0.023529412
-0.27680862 -6.819438 0.83445805 0
-0.090694264 -15.785709 -0.64734018 0.015686275
-4.8141613 -76.22937 -1.7929717 0.05882353
-0.39093286 -4.7432642 -2.2239342 0.0078431377
-0.82269347 -49.799435 -0.88003278 0.054901961
-2.3579278 -21.387058 -0.63206917 0.086274512
-0.31330872 -7.0027575 -1.9644923 0.098039217
-0.83679712 -8.515976 -1.7158377 0.078431375
-3.4559896 -21.577087 -0.260304 0.015686275
-0.54695112 -10.394954 -1.6227372 0.023529412
-0.91090643 -9.1431026 -1.17371 0.074509807
-2.6195645 -140.08707 0.78703731 0.023529412
-0.48034555 -9.4279537 -1.0200689 0.074509807
-8.1094122 -120.19221 2.779438 0.074509807
-17.170244 -103.17934 1.1972133 0.062745102
-0.52171957 -10.028664 -0.70564204 0.019607844
-1.232314 -11.862699 -0.97804809 0.047058824
-13.864876 -118.75287 2.0635571 0.10980392
-0.03861703 -10.401541 -0.66960198 0.10980392
-14.241924 -121.94354 4.9780574 0.24705882
-0.58827627 -10.994988 -0.51656193 0.05882353
-1.0344061 -10.188291 0.83278006 0
-0.14328517 -15.660839 -0.64227033 0.019607844
-5.0645161 -75.984108 -1.7876256 0.05882353
-0.40749156 -4.7485809 -2.2273166 0.0078431377
-0.99307394 -50.023773 -0.88405424 0.082352944
-2.4273436 -21.366653 -0.63171703 0.054901961
-0.33704025 -7.0088053 -1.9666502 0.086274512
-0.86451554 -8.5087042 -1.7150524 0.074509807
-13.410852 -188.0634 -0.036044966 0.24705882
-3.926307 -23.890837 -0.28820136 0.023529412
-0.51021081 -9.4070063 -1.46883 0.019607844
-0.94740069 -9.1906796 -1.1802849 0.098039217
-3.0856183 -140.14505 0.78741759 0.078431375
-0.51156276 -9.4257517 -1.0200688 0.074509807
-1.5462599 -10.010841 -0.95053381 0.019607844
-8.4266653 -119.03933 2.7534034 0.074509807
-17.360832 -102.23824 1.186952 0.062745102
-1.2807403 -11.933182 -0.98424506 0.06666667
-14.254199 -118.66993 2.0629401 0.10980392
-0.074825481 -10.47662 -0.67447668 0.12941177
-3.4263074 -20.974829 -1.2442211 0.11764706
-0.67675179 -6.9641213 0.2822184 0
-0.62555224 -11.004375 -0.51712233 0.050980393
-1.3071878 -12.150807 -0.64480704 0.11764706
-0.41605812 -8.10324 0.99265385 0
-0.6712845 -6.9191694 0.56487405 0
-0.19415204 -15.615767 -0.64047152 0.027450981
-5.3017235 -75.762932 -1.782842 0.05882353
-0.42221981 -4.7321553 -2.2205517 0.0078431377
-2.4988894 -21.333664 -0.63101351 0.090196081
-0.36145836 -7.006999 -1.9666501 0.082352944
-0.89367902 -8.5011539 -1.7142665 0.070588239
-0.97893834 -9.1827927 -1.1797786 0.082352944
-3.5769973 -140.21681 0.78788805 0.10980392
-0.61880088 -6.303895 -0.039785441 0
-0.54531676 -9.4352169 -1.0213559 0.090196081
-2.4156091 -14.771182 -1.4031142 0.019607844
-9.0465012 -121.70816 2.8159096 0.074509807
-1.7603909 -11.028764 0.12638761 0
-0.649831 -10.815521 -0.76131225 0.050980393
-1.3307539 -11.9953 -0.98978961 0.062745102
0.029971167 -5.1850276 0.14784397 0
-13.253512 -107.30871 1.8660542 0.10980392
-0.11230873 -10.511621 -0.67678589 0.17254902
-3.4987681 -20.95822 -1.2439861 0.1254902
-8.9493256 -120.42502 7.008769 0.078431375
-0.75954825 -7.4290953 0.30134708 0
-0.66512167 -11.017473 -0.51786965 0.054901961
-1.3540107 -12.181256 -0.64669716 0.094117649
-0.24690689 -15.550484 -0.63785493 0.035294119
-3.5041275 -20.988894 -0.74926895 0.070588239
-1.7291961 -25.070396 -0.59109646 0.0039215689
-0.44090331 -4.7407455 -2.2256248 0.0078431377
-2.5754838 -21.311848 -0.63066125 0.094117649
-0.38800514 -7.01653 -1.969887 0.082352944
-0.92378175 -8.4894276 -1.712696 0.05882353
-4.0942516 -23.845182 -0.28800845 0.086274512
-0.56896991 -9.2955341 -1.4522078 0.06666667
-0.99581146 -9.0486584 -1.163087 0.094117649
-4.0880513 -140.11017 0.78736776 0.16862746
-2.9920695 -24.545889 -0.15003459 0.0039215689
-0.58047652 -9.4404678 -1.0222139 0.10588235
-2.4773974 -14.804738 -1.4072105 0.015686275
-9.342432 -119.78403 2.7721491 0.074509807
-18.144701 -102.40548 1.1904063 0.062745102
-0.69573641 -10.892005 -0.76690716 0.027450981
-0.066325098 -7.7302475 0.22150385 0
-13.164849 -103.51827 1.8009126 0.10980392
-0.15199886 -10.550422 -0.67935157 0.10980392
-3.5705919 -20.917124 -1.2423514 0.14117648
-9.3441277 -119.80563 6.9746923 0.078431375
-15.993846 -125.48038 5.1291561 0.24705882
-0.70892918 -11.058161 -0.51992476 0.06666667
-1.4067653 -12.238984 -0.65005767 0.082352944
-1.0583775 -9.5345716 0.78017431 0
-0.29814833 -15.361102 -0.63016802 0.019607844
-3.5816882 -20.979227 -0.74940753 0.11764706
-0.4561041 -4.7351065 -2.2239335 0.0078431377
-1.7092057 -55.720741 -0.98485297 0.094117649
-2.6450515 -21.294706 -0.63042611 0.082352944
-0.41154552 -7.0184855 -1.9709659 0.090196081
-0.9518857 -8.4857588 -1.7126956 0.05882353
-4.1718245 -23.823042 -0.28791201 0.094117649
-0.56259364 -8.8440046 -1.3820262 0.074509807
-1.0278493 -9.0604849 -1.1651098 0.094117649
-0.6133756 -9.4577503 -1.0243593 0.06666667
-2.3507497 -13.832041 -1.3155757 0.015686275
-9.6307354 -118.43667 2.7416837 0.074509807
-18.472673 -102.28123 1.1896808 0.062745102
-0.73345363 -10.908963 -0.76830572 0.062745102
-1.4295216 -12.099162 -0.99924767 0.15294118
-13.406336 -102.7043 1.7875148 0.10980392
-0.19809999 -10.880432 -0.7006458 0.11372549
-3.6427572 -20.920324 -1.2432829 0.047058824
-9.7488956 -119.86496 6.9800258 0.078431375
-13.662718 -104.64411 4.2789202 0.24705882
-0.75016487 -11.110939 -0.52254051 0.074509807
-1.4530584 -12.277255 -0.65236783 0.10588235
-0.34379292 -15.203691 -0.62378955 0.023529412
-3.6490445 -20.954882 -0.74898499 0.11764706
-1.6204906 -21.629198 -0.51044577 0.011764706
-0.4712736 -4.7294178 -2.2222424 0.0078431377
-2.7145329 -21.277336 -0.63019085 0.086274512
-0.43609536 -7.0318747 -1.9752817 0.090196081
-0.98103011 -8.4897699 -1.7142653 0.05882353
-10.881033 -128.36633 -0.025187312 0.24705882
-4.2492962 -23.800655 -0.28781554 0.086274512
-0.59221321 -8.8454714 -1.3826416 0.086274512
-1.0642414 -9.103651 -1.1711788 0.086274512
-3.137511 -24.397552 -0.14926514 0.015686275
-0.68084645 -9.8751068 -1.069845 0.062745102
-9.9907961 -118.02504 2.7329147 0.074509807
-18.773722 -102.01437 1.187305 0.062745102
-0.77402949 -10.957595 -0.7719422 0.023529412
-1.4722693 -12.113549 -1.0008781 0.086274512
-0.23376413 -10.869058 0.31239328 0
-13.77365 -102.85686 1.7909741 0.10980392
-0.23649792 -10.942983 -0.70475084 0.12156863
-3.7069633 -20.880091 -1.2416483 0.070588239
-0.79529542 -11.20473 0.65035141 0
-13.929067 -104.00359 4.2546101 0.24705882
-0.79073083 -11.151624 -0.52459562 0.05882353
-1.4985478 -12.307435 -0.65425783 0.10196079
-3.7184682 -20.942108 -0.74898332 0.13333334
-0.74219471 -10.588037 2.8401873 0
-0.95150983 -8.2723665 1.5163146 0
-1.691818 -21.619165 -0.5103516 0.031372551
-0.4895575 -4.7342234 -2.2256241 0.0078431377
-2.0782309 -55.218758 -0.97624862 0.094117649
-2.7913487 -21.258707 -0.62995553 0.086274512
-0.46181804 -7.029613 -1.9752816 0.070588239
-1.0115514 -8.4816179 -1.7134798 0.054901961
-11.342459 -128.22539 -0.025166156 0.24705882
-4.3342185 -23.772518 -0.28767157 0.086274512
-0.62422836 -8.8386898 -1.3820257 0.11764706
-1.135326 -9.3702402 -1.2060779 0.062745102
-7.5691142 -190.16066 1.0696843 0.10980392
-3.2180338 -24.321884 -0.14888023 0.0078431377
-0.71663243 -9.8679667 -1.0694156 0.086274512
-2.4404893 -13.778901 -1.3122209 0.015686275
-10.321354 -116.85188 2.7066045 0.074509807
-19.172022 -102.07392 1.1888269 0.062745102
-1.5298104 -12.202222 -1.0087056 0.031372551
-14.233266 -103.39924 1.8013426 0.10980392
-0.27671844 -10.945415 -0.70500749 0.1254902
-3.8191063 -21.054068 -1.2528437 0.0078431377
-10.570358 -119.62576 6.9702945 0.078431375
-1.0444137 -8.7177639 0.35468125 0
-0.8351227 -11.187831 -0.52646393 0.043137256
-1.5491095 -12.340806 -0.65635782 0.10588235
-0.44544303 -15.091928 -0.61937386 0.047058824
-3.7958958 -20.931648 -0.74912179 0.1254902
-1.7681363 -21.580339 -0.50960088 0.06666667
-0.5025472 -4.728508 -2.2240295 0.0039215689
-2.8630149 -21.240311 -0.62993962 0.078431375
-0.48320144 -7.0237379 -1.9743161 0.06666667
-1.036281 -8.4620667 -1.7104634 0.070588239
-4.4129944 -23.740778 -0.28771982 0.082352944
-0.65944541 -8.9108276 -1.3938501 0.074509807
-1.1379492 -9.1733036 -1.1814237 0.11372549
-3.2955968 -24.266304 -0.14885709 0.0078431377
-0.74856001 -9.8650017 -1.0695498 0.06666667
-2.6813734 -14.778579 -1.4084954 0.035294119
-10.720469 -116.63459 2.7015333 0.074509807
-0.85923964 -11.05007 -0.77907872 0.14509805
-0.1289873 -6.7998261 0.19456452 0
-14.431008 -102.15944 1.7798033 0.10980392
-0.3118099 -10.928072 -0.70412308 0.078431375
-3.8835874 -21.00069 -1.2507281 0.0078431377
-11.048895 -120.15137 7.0022717 0.078431375
-0.23963515 -2.8896852 0.11597872 0
-0.8792184 -11.264001 -0.53034544 0.031372551
-1.5983869 -12.394154 -0.65966195 0.078431375
-0.96812791 -7.985599 0.65405732 0
-0.49134809 -14.9821 -0.61512929 0.023529412
-3.8644795 -20.901863 -0.74877697 0.13333334
-1.8398637 -21.549643 -0.50925815 0.098039217
-0.51900375 -4.7261262 -2.2240293 0.0078431377
-0.14321487 -6.6007729 -0.11821343 0
-2.9359336 -21.221674 -0.62970418 0.082352944
-0.50655514 -7.0099082 -1.9710788 0.070588239
-1.0657663 -8.457799 -1.7104629 0.090196081
-4.495019 -23.720703 -0.28767037 0.086274512
-0.69088113 -8.9118071 -1.3944654 0.090196081
-1.1658899 -9.1411943 -1.1778824 0.11764706
-3.3726966 -24.202602 -0.14854367 0.0078431377
-0.75033462 -9.5252686 -1.0330728 0.062745102
-2.7498198 -14.854495 -1.4166896 0.015686275
-11.144077 -116.76702 2.7055047 0.074509807
-0.90160888 -11.086121 -0.78187621 0.10588235
-0.18664445 -7.5096264 0.21514241 0
-14.941127 -103.15649 1.7981091 0.10980392
-0.34876424 -10.902393 -0.70258361 0.031372551
-11.410402 -119.51527 6.967505 0.078431375
-14.973804 -103.37978 4.2346697 0.24705882
-0.92696494 -11.347759 -0.53445649 0.027450981
-1.6537552 -12.470898 -0.66407329 0.05882353
-0.53276938 -7.2806039 0.89324111 0
-1.0040407 -8.0367975 0.65860373 0
-0.53157794 -14.728191 -0.60482353 0.047058824
-3.9396868 -20.899412 -0.74919611 0.13333334
-1.9157997 -21.550449 -0.50944519 0.14901961
-0.53627408 -4.7235637 -2.2240291 0.0078431377
-3.01127 -21.194328 -0.62923443 0.078431375
-0.53142476 -6.9997115 -1.9689205 0.082352944
-1.0978758 -8.4609652 -1.7120329 0.094117649
-12.756025 -128.49258 -0.026236292 0.2
-4.5818806 -23.703442 -0.28766805 0.06666667
-0.72428244 -8.9164524 -1.3956965 0.10196079
-1.1828275 -9.0263643 -1.1637189 0.094117649
-9.5962086 -189.83118 1.0669048 0.10980392
-3.4583595 -24.169672 -0.14842215 0.0078431377
-0.78001636 -9.4703856 -1.0274937 0.094117649
-2.8010631 -14.82807 -1.4151981 0.027450981
-11.58834 -116.88789 2.7092924 0.074509807
-2.6335604 -18.680647 -1.5464472 0.062745102
-0.10994057 -5.483789 0.15652995 0
-0.38785124 -10.884468 -0.7015574 0.043137256
-1.2849095 -7.2720108 -0.43439543 0
-11.862313 -119.61108 6.9756212 0.078431375
-0.98730201 -11.530507 -0.54323947 0.043137256
-1.7308627 -12.673481 -0.67520761 0.035294119
-0.5822202 -14.661654 -0.60220629 0.078431375
-4.0193577 -20.899885 -0.7497555 0.13333334
-1.9907206 -21.502867 -0.50850648 0.11764706
-0.55326384 -4.7246466 -2.2257199 0.0078431377
-0.14206122 -5.7198153 -0.10268905 0
-3.0857925 -21.187042 -0.62935019 0.078431375
-0.55660605 -7.0048771 -1.9710784 0.086274512
-1.1327236 -8.4913712 -1.719099 0.078431375
-4.6749501 -23.73765 -0.28828087 0.035294119
-0.74880415 -8.8503723 -1.3858458 0.18039216
-1.2172971 -9.0411901 -1.1662474 0.086274512
-3.5402236 -24.141041 -0.14832464 0.0078431377
-0.81384557 -9.4749184 -1.0283518 0.12156863
-2.8663089 -14.883937 -1.4215295 0.027450981
-11.99581 -116.84216 2.7092035 0.074509807
-0.99238986 -11.189283 -0.78970945 0.015686275
-2.70416 -18.706205 -1.549382 0.043137256
-0.42448032 -10.858535 -0.70001787 0.082352944
-15.683293 -103.07521 4.2267413 0.24705882
-1.0328772 -11.578056 -0.5456686 0.05882353
-1.797515 -12.812841 -0.68298036 0.047058824
-0.56583458 -7.0937276 0.87085211 0
-0.62654787 -14.535225 -0.59713519 0.039215688
-4.0906382 -20.877295 -0.74947274 0.13333334
-0.68815356 -8.2683239 2.2203553 0
-2.0657182 -21.495188 -0.50850582 0.10980392
-0.56806296 -4.7223458 -2.2257197 0.0078431377
-0.44304651 -10.589825 -0.18877909 0
-3.1516769 -21.172754 -0.62923187 0.074509807
-0.57856864 -7.0025549 -1.9710782 0.082352944
-1.1617875 -8.5027304 -1.7222396 0.078431375
-4.78929 -23.914204 -0.29059705 0.023529412
-0.77234554 -8.8081388 -1.379689 0.094117649
-1.2702792 -9.1935768 -1.1864797 0.086274512
-10.000494 -175.05925 0.98409027 0.10980392
-3.6141446 -24.117407 -0.14825124 0.015686275
-0.84865886 -9.5192251 -1.033501 0.05882353
-12.47117 -117.81329 2.7326503 0.074509807
-2.005265 -10.501087 0.12084575 0
-1.0355854 -11.26095 -0.79502487 0.023529412
-2.7709141 -18.748276 -1.5536216 0.027450981
-1.0012289 -7.4806542 0.12866752 0
-0.45692861 -10.828714 -0.6982218 0.086274512
-12.545715 -118.50823 6.9160552 0.078431375
-15.942506 -102.61427 4.2098908 0.24705882
-1.0747467 -11.625862 -0.54809767 0.086274512
-1.0278333 -7.6501088 0.62775797 0
-0.66984844 -14.492745 -0.59549934 0.090196081
-4.1618514 -20.891199 -0.75045335 0.10980392
-1.2131895 -8.8304148 1.6237047 0
-2.131489 -21.472149 -0.50813001 0.12156863
-0.58614039 -4.7194715 -2.2257195 0.0078431377
-3.2297215 -21.140099 -0.6286447 0.078431375
-0.60540122 -6.9996233 -1.9710779 0.094117649
-1.1968696 -8.5130367 -1.7253797 0.062745102
-0.7091257 -7.932497 -0.0033547918 0
-5.4083891 -26.387627 -0.320732 0.023529412
-0.80305135 -8.7769547 -1.3753791 0.12941177
-1.3130872 -9.2349815 -1.1925488 0.094117649
-10.676503 -175.08278 0.98445046 0.10980392
-3.7060339 -24.098743 -0.14822546 0.015686275
-0.89306432 -9.5863838 -1.0412252 0.06666667
-13.034335 -118.76146 2.7558217 0.074509807
-37.796169 -179.4729 2.099359 0.062745102
-1.0902317 -11.359343 -0.80229872 0.043137256
-2.8523355 -18.795879 -1.5585133 0.019607844
-0.5213145 -11.195189 0.32207826 0
-16.044271 -100.73714 1.7597396 0.10980392
