# .PCD v0.7 - Point Cloud Data file format
VERSION 0.7
FIELDS x y z intensity
SIZE 4 4 4 4
TYPE F F F F
COUNT 1 1 1 1
WIDTH 1079
HEIGHT 1
VIEWPOINT 0 0 0 1 0 0 0
POINTS 1079
DATA ascii
-8.3247786 -64.700241 -0.36122939 0.054901961
-0.62893391 -11.187038 -1.2094198 0.019607844
-1.963568 -12.389566 -1.1753832 0.023529412
-8.8635445 -49.976196 0.60517961 0.023529412
-1.0737078 -16.480925 -1.1548976 0.019607844
-1.6094147 -14.387506 -1.1838855 0.015686275
-4.9425397 -150.27414 4.420536 0.24705882
-9.5746756 -74.066353 1.3256446 0.074509807
-0.32184246 -18.099167 -1.1586682 0.0078431377
-3.1448658 -18.824347 -1.1118567 0.0039215689
-5.9137607 -74.098579 4.3513126 0.050980393
-8.9717779 -69.551079 2.8785837 0.11764706
-1.6375823 -23.192408 -1.0802987 0.0078431377
-2.6077573 -21.867174 -1.1525656 0.0039215689
-0.6082356 -10.94553 1.3486906 0
-9.0483484 -70.127892 5.7958894 0.06666667
-0.62874591 -26.876625 -1.0908312 0.0078431377
-4.9011602 -28.391272 -1.0019228 0.0078431377
-1.7860525 -24.960476 -0.57842207 0.050980393
-0.31733033 -4.5899606 -2.1626334 0.015686275
-0.64331555 -24.929094 -0.4312351 0.22352941
-3.1183417 -25.058968 -0.73136961 0.0078431377
-0.32067963 -7.2291384 -2.0328994 0.086274512
-0.80799818 -8.1758947 -1.6515152 0.12941177
-1.8912292 -25.211 0.0045573767 0.027450981
-8.3309526 -46.210865 -0.53497195 0.019607844
-0.46087208 -8.8351097 -1.3807071 0.074509807
-1.036695 -9.8474293 -1.2656325 0.050980393
-0.65068245 -25.124144 0.15043473 0.094117649
-8.5468826 -64.72673 -0.36150533 0.054901961
-0.66568255 -11.179898 -1.2089869 0.019607844
-2.0031793 -12.374126 -1.1746372 0.023529412
-0.84444427 -13.228945 0.30962881 0
-8.9498215 -49.520889 0.60002369 0.023529412
-1.127314 -16.464317 -1.1540558 0.019607844
-1.6554956 -14.369208 -1.1829063 0.015686275
-5.4120979 -149.50478 4.3985057 0.24705882
-0.60895264 -6.7232752 0.11698195 0
-0.38079146 -18.069048 -1.156876 0.011764706
-3.2021351 -18.785307 -1.1102304 0.0039215689
-0.068885088 -4.350965 0.2520864 0
-9.1124258 -68.862595 2.8513639 0.11764706
-1.7162223 -23.205723 -1.0812106 0.011764706
-2.6775501 -21.837585 -1.1515152 0.011764706
-9.2311354 -69.733086 5.7658567 0.06666667
-0.71802318 -26.877361 -1.0909772 0.0078431377
-4.9894052 -28.342396 -1.000805 0.0078431377
-1.8691647 -24.957371 -0.57850069 0.047058824
-0.33415028 -4.5876279 -2.162631 0.015686275
-0.73501754 -24.933418 -0.43135634 0.19215687
-3.2179604 -25.101662 -0.73296678 0.0039215689
-0.34682348 -7.222939 -2.0318184 0.16078432
-0.83795846 -8.1717396 -1.6515111 0.10196079
-8.5025196 -46.19067 -0.53508615 0.019607844
-0.49289271 -8.8282843 -1.3800883 0.078431375
-1.0722284 -9.8384943 -1.2651236 0.050980393
-8.7901869 -64.737396 -0.36171255 0.054901961
-0.70593321 -11.168323 -1.2081263 0.019607844
-2.0470266 -12.357738 -1.1738906 0.027450981
-9.7105398 -110.06896 2.6045303 0.074509807
-9.0720463 -49.176239 0.59625953 0.023529412
-1.1872896 -16.454962 -1.1537687 0.019607844
-1.7075953 -14.357957 -1.1825746 0.015686275
-5.9580207 -149.43483 4.3971882 0.24705882
-17.278931 -125.12063 2.2442758 0.10980392
-0.44701561 -18.066391 -1.1568645 0.0078431377
-3.2679715 -18.756613 -1.1092969 0.0039215689
-6.3284693 -72.927895 4.2852082 0.047058824
-9.2534857 -68.036057 2.8185644 0.11764706
-1.7958291 -23.138445 -1.0784249 0.011764706
-2.7603521 -21.846264 -1.1525439 0.011764706
-9.5121956 -69.879227 5.7809262 0.06666667
-0.81937814 -26.941294 -1.0937064 0.0078431377
-5.0842614 -28.275658 -0.99913317 0.0078431377
-1.9628022 -24.973104 -0.57903671 0.086274512
-0.35016081 -4.5853481 -2.1626289 0.015686275
-0.82222736 -24.933611 -0.43140993 0.20392157
-3.323245 -25.211872 -0.73651993 0.0039215689
-0.37239549 -7.2244339 -2.0328913 0.12156863
-0.86479759 -8.1560316 -1.6491576 0.098039217
-6.3276973 -70.197777 0.019504655 0.12156863
-8.6614094 -46.147842 -0.53493047 0.019607844
-0.52370536 -8.8254242 -1.3800836 0.10980392
-1.1059973 -9.8296776 -1.2646151 0.047058824
-0.83171749 -25.144587 0.15063746 0.0039215689
-7.213295 -52.198696 -0.29250243 0.039215688
-0.74378932 -11.152825 -1.206839 0.019607844
-2.0878692 -12.337701 -1.172774 0.027450981
-1.2447196 -16.449631 -1.1537596 0.019607844
-1.7559958 -14.338984 -1.1815952 0.015686275
-6.441298 -148.56927 4.3724537 0.24705882
-18.612547 -131.28114 2.3561983 0.10980392
-0.50971234 -18.05566 -1.1563447 0.011764706
-3.3334231 -18.744007 -1.1092887 0.0078431377
-6.5995374 -73.079193 4.2955384 0.047058824
-9.5667562 -68.528374 2.8404338 0.11764706
-1.8731987 -23.09515 -1.0767491 0.011764706
-2.8303216 -21.79192 -1.1502452 0.011764706
-9.6792822 -69.311821 5.7368417 0.06666667
-0.91214299 -26.909233 -1.0925595 0.0078431377
-5.1791143 -28.237032 -0.99842972 0.0078431377
-0.46840057 -5.4086838 0.99464965 0
-2.0499611 -24.965015 -0.57902306 0.078431375
-0.36589333 -4.5867176 -2.1643159 0.011764706
-0.90529716 -24.937702 -0.43153286 0.19215687
-4.8097978 -34.708763 -1.012997 0.011764706
-0.39747706 -7.2336302 -2.036119 0.10980392
-0.88897645 -8.1326847 -1.6452382 0.10588235
-0.55258381 -8.818675 -1.3794655 0.10588235
-1.1397469 -9.8327761 -1.265618 0.043137256
0.013679355 -6.0996542 0.033702876 0
-7.3326435 -51.809399 -0.29046375 0.039215688
-0.78038239 -11.145308 -1.2064061 0.019607844
-2.1303182 -12.337493 -1.1735098 0.023529412
-6.9004393 -73.650177 1.7427256 0.047058824
-9.385601 -49.005287 0.59500682 0.015686275
-1.2988739 -16.440411 -1.1534735 0.019607844
-1.801791 -14.320218 -1.1806164 0.015686275
-6.941153 -148.69382 4.3768911 0.24705882
-0.5695852 -18.052837 -1.1563344 0.011764706
-3.388587 -18.696562 -1.1072004 0.0039215689
-6.7815361 -72.439888 4.2593255 0.047058824
-9.8522882 -68.890617 2.8568835 0.11764706
-1.9474392 -23.063917 -1.0756284 0.011764706
-2.901406 -21.773478 -1.1498191 0.023529412
-9.8782492 -69.069267 5.7195535 0.06666667
-0.99884176 -26.853132 -1.0904442 0.0078431377
-5.2742767 -28.226513 -0.9986946 0.0078431377
-0.37583467 -4.5806155 -2.162699 0.015686275
-0.99036562 -24.933041 -0.4312731 0.17647059
-4.9366403 -34.729271 -1.0137113 0.011764706
-0.4188312 -7.242475 -2.0393789 0.16470589
-0.91362572 -8.1359749 -1.6468167 0.10588235
-6.8549719 -70.579468 0.020707987 0.12156863
-8.64888 -44.456909 -0.51554829 0.019607844
-0.58057356 -8.8350925 -1.3825359 0.10588235
-1.1700445 -9.831296 -1.2661054 0.043137256
-1.0059361 -25.231819 0.15150532 0.0039215689
-0.81449723 -11.137256 -1.2059432 0.019607844
-2.1699834 -12.332343 -1.1738188 0.023529412
-14.769323 -148.46478 3.5204163 0.074509807
-9.2781115 -47.577488 0.57865131 0.015686275
-1.3523926 -16.430408 -1.1530719 0.019607844
-1.8485352 -14.316298 -1.1808486 0.015686275
-0.62942278 -18.049465 -1.1561875 0.011764706
-3.4468172 -18.66328 -1.1058751 0.0039215689
-0.24998024 -5.5845933 0.32500634 0
-10.216156 -69.631294 2.8902504 0.11764706
-2.0244229 -23.043535 -1.0748402 0.0078431377
-2.9808414 -21.801033 -1.1516809 0.031372551
-10.142881 -69.14959 5.7303743 0.06666667
-1.0882113 -26.79624 -1.0880538 0.0078431377
-5.362679 -28.16272 -0.99684244 0.0078431377
-2.2287869 -25.055311 -0.58121955 0.0039215689
-0.39071026 -4.571002 -2.1593184 0.015686275
-1.0771673 -24.92433 -0.43118954 0.17647059
-5.0400901 -34.596138 -1.0103608 0.011764706
-0.4428992 -7.2283678 -2.0361443 0.11764706
-0.94201899 -8.131629 -1.6468127 0.10588235
-0.34080508 -6.2604623 -0.0017274842 0
-8.7959633 -44.386162 -0.51507777 0.019607844
-0.61347663 -8.8515596 -1.3855987 0.11372549
-1.203747 -9.8221226 -1.2655969 0.043137256
-7.6638126 -51.539886 -0.28853628 0.20784314
-0.85295165 -11.12928 -1.2055101 0.019607844
-2.2138183 -12.327487 -1.1741837 0.027450981
-15.300845 -148.53848 3.52352 0.074509807
-9.3484039 -47.077465 0.57295895 0.015686275
-1.4093186 -16.420509 -1.1527852 0.019607844
-1.8966657 -14.296831 -1.1798693 0.015686275
-7.9986725 -148.63799 4.379271 0.24705882
-10.699329 -71.143631 1.2782719 0.070588239
-0.69041431 -18.01018 -1.1538863 0.011764706
-3.5079262 -18.630466 -1.1047115 0.0039215689
-7.2157249 -71.648514 4.2169065 0.047058824
-10.52459 -70.016693 2.9078591 0.11764706
-2.1040103 -23.027275 -1.0744581 0.011764706
-3.0459177 -21.71833 -1.1479276 0.015686275
-0.30254409 -5.8976769 0.72643703 0
-10.39152 -69.159927 5.7343302 0.06666667
-1.1817387 -26.79117 -1.0880376 0.0078431377
-5.4368305 -28.025246 -0.99268568 0.0078431377
-2.3133037 -25.018433 -0.5805642 0.0039215689
-0.40643308 -4.5722113 -2.1610055 0.015686275
-1.1602918 -24.927557 -0.43131223 0.18431373
-5.1266685 -34.400463 -1.0051725 0.011764706
-0.46686736 -7.2258072 -2.0361404 0.12941177
-0.9683671 -8.1235332 -1.6460258 0.10980392
-7.7511845 -74.362511 0.022125654 0.12941177
-0.64453351 -8.8641424 -1.3880482 0.16078432
-1.2369338 -9.8209438 -1.266096 0.047058824
-1.1736362 -25.154345 0.15111664 0.0039215689
-7.8340673 -51.509182 -0.28849062 0.039215688
-0.88942599 -11.121384 -1.2050773 0.019607844
-2.2546875 -12.319025 -1.1741787 0.023529412
-15.783872 -148.39841 3.5215192 0.074509807
-9.4349957 -46.712353 0.56889719 0.015686275
-1.4629052 -16.406757 -1.1522214 0.019607844
-1.9446908 -14.293348 -1.1801867 0.015686275
-8.4951067 -148.66948 4.3811216 0.24705882
-10.918951 -71.003998 1.2764528 0.070588239
-0.74871969 -17.982828 -1.1523491 0.011764706
-3.5680587 -18.609861 -1.1042416 0.0039215689
-7.4334841 -71.440506 4.206182 0.047058824
-10.401915 -67.738182 2.8145983 0.11372549
-2.1803641 -23.019115 -1.0744462 0.0078431377
-3.106061 -21.632092 -1.143967 0.011764706
-10.57596 -68.840523 5.7108278 0.06666667
-1.2693968 -26.766104 -1.0872151 0.0078431377
-5.618794 -28.43255 -1.0077329 0.0078431377
-2.39626 -25.009567 -0.58055127 0.0039215689
-0.4218097 -4.5660777 -2.1593139 0.015686275
-1.2477983 -24.930227 -0.43143424 0.18431373
-5.3067589 -34.752266 -1.0159601 0.011764706
-0.49165675 -7.2191982 -2.0350595 0.10980392
-0.99859703 -8.1306133 -1.6483711 0.078431375
-7.9777489 -74.039734 0.022062626 0.12941177
-0.27497908 -2.7885575 -0.036084276 0
-0.67547035 -8.8607311 -1.3880434 0.12156863
-1.2699389 -9.8076248 -1.2650839 0.05882353
-1.2624363 -25.164955 0.15123011 0.0039215689
-7.7090082 -49.596951 -0.2780554 0.039215688
-0.92735481 -11.1092 -1.2042173 0.019607844
-2.2968471 -12.306078 -1.1738032 0.023529412
-16.393934 -149.16393 3.5411501 0.074509807
-9.5456352 -46.431549 0.56589228 0.015686275
-1.5197207 -16.396479 -1.151935 0.019607844
-1.9920233 -14.269624 -1.1788837 0.015686275
-9.0152559 -148.65775 4.3817997 0.24705882
-1.7562948 -12.8142 0.22730432 0
-0.8102349 -17.959078 -1.1510662 0.011764706
-3.6321666 -18.592281 -1.1040027 0.0039215689
-7.6752534 -71.345551 4.2022433 0.047058824
-11.103732 -70.576469 2.9343698 0.12156863
-2.257586 -22.982462 -1.0731405 0.0078431377
-3.1821887 -21.623953 -1.1441644 0.011764706
-10.843579 -68.971306 5.7249165 0.06666667
-1.3663249 -26.81625 -1.0894597 0.0078431377
-5.69807 -28.31781 -1.0044053 0.0078431377
-0.67294812 -6.1207209 1.1290313 0
-0.43913409 -4.566916 -2.161001 0.015686275
-1.3391651 -24.924324 -0.43141872 0.17647059
-5.4145002 -34.613087 -1.0124944 0.011764706
-0.51944172 -7.2276649 -2.0382862 0.10588235
-1.0245445 -8.1025162 -1.6436685 0.078431375
-8.2642441 -74.139961 0.022150412 0.12941177
-0.70885134 -8.8648872 -1.3892655 0.1254902
-1.3052288 -9.7978258 -1.2645752 0.054901961
-1.3533376 -25.139038 0.1511227 0.0039215689
-7.8312731 -49.208092 -0.27604458 0.023529412
-0.96760881 -11.100614 -1.2037841 0.019607844
-2.3402522 -12.288627 -1.1730571 0.023529412
-16.951122 -149.19304 3.543406 0.074509807
-9.7149076 -46.391174 0.5658648 0.015686275
-1.5784305 -16.377745 -1.1510928 0.019607844
-2.0410545 -14.241398 -1.1772563 0.015686275
-0.12095544 -6.5975599 0.19080453 0
-0.87578857 -17.950844 -1.1508006 0.011764706
-3.6918459 -18.538651 -1.1016833 0.0039215689
-7.8200932 -70.308243 4.1428599 0.047058824
-10.919665 -67.860832 2.8230419 0.11764706
-2.3399687 -22.956995 -1.0723888 0.0078431377
-3.249676 -21.540049 -1.140411 0.0039215689
-0.72347641 -8.9945431 1.1111825 0
-11.10673 -68.992859 5.7301817 0.06666667
-1.4683141 -26.865728 -1.0917035 0.0078431377
-5.7646427 -28.123653 -0.99831402 0.0078431377
-12.302779 -76.222473 14.11124 0.082352944
-2.5783765 -25.017317 -0.58116525 0.0039215689
-0.45446715 -4.5606723 -2.1593096 0.019607844
-1.4272783 -24.934349 -0.43167782 0.16470589
-5.4939375 -34.348442 -1.005352 0.011764706
-0.54421091 -7.2208762 -2.0372057 0.074509807
-1.0508579 -8.0861807 -1.6413156 0.098039217
-8.4836693 -73.779892 0.022073731 0.12941177
-0.73932326 -8.8573256 -1.3886473 0.10980392
-1.3380985 -9.7842779 -1.2635634 0.06666667
-1.4430385 -25.160984 0.15130982 0.0039215689
-1.0054096 -11.088161 -1.2029241 0.019607844
-2.3857005 -12.290945 -1.174163 0.019607844
-8.4965887 -73.890388 1.7537279 0.047058824
-9.8870974 -46.402748 0.56646025 0.015686275
-1.6346455 -16.363102 -1.1505288 0.019607844
-2.0894241 -14.225215 -1.1766015 0.015686275
-21.509241 -129.01291 2.3267221 0.10980392
-0.93677223 -17.922676 -1.1492631 0.011764706
-3.7548208 -18.516743 -1.1012135 0.0078431377
-8.459444 -73.582291 4.33778 0.050980393
-11.151818 -67.793602 2.8219242 0.11764706
-2.4186704 -22.935673 -1.0718223 0.011764706
-3.3208475 -21.50383 -1.1391532 0.011764706
-11.34218 -68.921104 5.7275987 0.06666667
-1.5615275 -26.851355 -1.0913646 0.0078431377
-5.8310099 -27.957788 -0.99319094 0.0078431377
-2.6675842 -25.02294 -0.58151859 0.0039215689
-0.46879217 -4.5582261 -2.1593077 0.019607844
-1.5058981 -24.932732 -0.4317331 0.16470589
-5.556982 -34.069958 -0.99775177 0.011764706
-0.56829858 -7.2296047 -2.0404327 0.06666667
-1.0789227 -8.0973043 -1.6444443 0.17647059
-8.6799212 -73.462036 0.02200653 0.1254902
-9.3690825 -43.396214 -0.50542277 0.019607844
-0.76810741 -8.8618088 -1.3898702 0.11372549
-1.3681563 -9.7751179 -1.2630554 0.05882353
-8.1024122 -48.833683 -0.27423304 0.10588235
-1.039273 -11.076055 -1.2020649 0.019607844
-2.4216995 -12.270729 -1.1730474 0.023529412
-8.7325764 -73.894089 1.7545185 0.047058824
-9.6694899 -44.74263 0.54645443 0.015686275
-1.6836189 -16.337084 -1.1491328 0.019607844
-2.1341045 -14.217584 -1.1765954 0.015686275
-21.512848 -126.61445 2.2846754 0.10980392
-0.99132705 -17.894758 -1.1477269 0.011764706
-3.806016 -18.472675 -1.0993577 0.0039215689
-8.2415762 -69.888084 4.121407 0.047058824
-11.716497 -69.797379 2.9070375 0.11764706
-2.4853709 -22.883339 -1.0697795 0.011764706
-3.3863528 -21.480486 -1.1385205 0.015686275
-0.77358162 -6.3280559 0.52269024 0
-1.6432532 -26.809446 -1.0898974 0.0078431377
-5.9797764 -28.211443 -1.0028508 0.0078431377
-2.7568805 -25.100763 -0.58352304 0.0039215689
-0.48566005 -4.5516038 -2.1576161 0.019607844
-1.6022372 -24.933521 -0.43185407 0.14901961
-5.6960955 -34.094402 -0.99911356 0.011764706
-0.59315407 -7.2032199 -2.033967 0.082352944
-1.1127317 -8.1073351 -1.6475726 0.086274512
-8.9268265 -73.149155 0.021950651 0.1254902
-9.2484751 -42.094997 -0.49078766 0.019607844
-0.80559802 -8.885025 -1.3941596 0.10588235
-1.4043014 -9.7607584 -1.2620432 0.05882353
-1.6232651 -25.207899 0.15170844 0.019607844
-8.2863884 -48.781296 -0.2740989 0.050980393
-1.0812955 -11.066818 -1.2016314 0.019607844
-2.4661503 -12.248471 -1.1719309 0.023529412
-8.9956923 -73.696121 1.7506884 0.047058824
-9.7552481 -44.325626 0.54181665 0.011764706
-1.7453359 -16.321363 -1.1485683 0.019607844
-2.1886806 -14.208065 -1.1765882 0.015686275
-22.433714 -128.99522 2.3293364 0.10980392
-1.060644 -17.897562 -1.1482245 0.011764706
-3.8671837 -18.413874 -1.0968072 0.0039215689
-8.4197607 -69.141602 4.0793352 0.047058824
-11.781723 -68.601372 2.8591101 0.11764706
-2.5742207 -22.880337 -1.0701358 0.011764706
-3.4799092 -21.529047 -1.141836 0.023529412
-0.74396646 -8.400218 1.0388439 0
-11.914474 -69.356255 5.770812 0.06666667
-1.739432 -26.714052 -1.0863283 0.0078431377
-6.0738831 -28.124687 -1.0006276 0.0078431377
-0.82021594 -6.4509845 1.1930236 0
-0.49931476 -4.5454907 -2.155925 0.019607844
-1.6811984 -24.935339 -0.43197796 0.14901961
-5.8067098 -34.09502 -0.9996739 0.011764706
-0.61478949 -7.1926851 -2.0318098 0.11764706
-1.1395824 -8.1105242 -1.6491354 0.082352944
-9.1329412 -72.937286 0.021920249 0.1254902
-9.3609047 -41.979 -0.48978001 0.019607844
-0.83503079 -8.8932142 -1.3959961 0.12156863
-1.4335552 -9.7474899 -1.2610319 0.054901961
-1.7177895 -25.393063 0.15290341 0.0039215689
-8.1227989 -46.99028 -0.26430526 0.023529412
-1.1145239 -11.050538 -1.2003453 0.019607844
-2.504617 -12.239666 -1.1719265 0.023529412
-9.2343626 -73.722023 1.7520454 0.047058824
-9.8333502 -44.02874 0.53856748 0.011764706
-1.7924997 -16.283148 -1.1463397 0.019607844
-2.2326002 -14.196198 -1.1762583 0.015686275
-11.591985 -148.59386 4.3857617 0.24705882
-20.524759 -116.03937 2.0962162 0.10980392
-1.1155885 -17.87723 -1.1471972 0.011764706
-3.9169383 -18.365616 -1.0947207 0.0039215689
-8.6174383 -68.963333 4.070477 0.047058824
-11.881311 -67.917908 2.8321998 0.11764706
-2.6455739 -22.867178 -1.0699403 0.011764706
-3.5538824 -21.552397 -1.1436983 0.023529412
-0.50002587 -6.3101726 0.7797457 0
-12.142176 -69.372414 5.7754169 0.06666667
-1.8156821 -26.611841 -1.0824394 0.0078431377
-6.1334686 -27.979816 -0.99619699 0.0078431377
-2.9248507 -25.023167 -0.5822137 0.015686275
-0.51517773 -4.542613 -2.1559229 0.019607844
-1.7688981 -24.936182 -0.43210056 0.13725491
-5.9069548 -33.97118 -0.99667013 0.011764706
-0.64345181 -7.2161174 -2.0393448 0.11764706
-1.1650584 -8.0899563 -1.6459993 0.082352944
-9.3320675 -72.487526 0.021810144 0.1254902
-9.4243765 -41.590569 -0.4856585 0.019607844
-0.86763418 -8.9008913 -1.397832 0.12941177
-1.4682873 -9.745223 -1.2615311 0.050980393
-0.12995481 -5.3481903 0.029130016 0
-1.1525664 -11.041531 -1.1999127 0.019607844
-2.5455105 -12.221986 -1.171181 0.019607844
-9.5771322 -74.330391 1.767386 0.047058824
-9.9432001 -43.806107 0.53627998 0.011764706
-1.8466955 -16.255903 -1.1449431 0.019607844
-2.2799857 -14.175447 -1.1752796 0.015686275
-5.8758464 -74.028168 2.1836655 0.11372549
-20.90663 -115.84002 2.0939896 0.10980392
-1.1769874 -17.860182 -1.1464236 0.011764706
-3.9864883 -18.374052 -1.0961 0.0039215689
-8.8502197 -68.872337 4.0670033 0.047058824
-12.711094 -71.110275 2.9674187 0.12156863
-2.7274895 -22.872538 -1.0706673 0.011764706
-3.6305332 -21.546612 -1.1441042 0.011764706
-12.372052 -69.261826 5.7698917 0.06666667
-1.9062322 -26.576353 -1.0812939 0.0078431377
-6.2146902 -27.887066 -0.99369919 0.0078431377
-1.379176 -9.2609882 1.7163783 0
-3.0137649 -25.023584 -0.58247578 0.015686275
-0.53115547 -4.5359674 -2.1542315 0.023529412
-1.861672 -24.944304 -0.43235937 0.13725491
-6.0181918 -33.877399 -0.99458528 0.011764706
-0.66937172 -7.2087312 -2.0382638 0.11372549
-1.196864 -8.0960369 -1.6483446 0.078431375
-9.565136 -72.213882 0.021764543 0.1254902
-9.4868832 -41.177166 -0.48126599 0.019607844
-0.90078664 -8.9004049 -1.3984407 0.13725491
-1.5039945 -9.7386131 -1.2615265 0.050980393
-5.7960715 -69.983124 0.42860773 0.05882353
-1.1924876 -11.032127 -1.1994798 0.019607844
-2.5875206 -12.199788 -1.1700649 0.023529412
-9.8429909 -74.246086 1.7662923 0.047058824
-10.077749 -43.659264 0.53495353 0.011764706
-1.9040977 -16.23205 -1.143824 0.019607844
-2.3289926 -14.150155 -1.1739767 0.015686275
-6.1565232 -74.112511 2.1868887 0.11372549
-21.314146 -115.67104 2.0924063 0.10980392
-1.2417437 -17.846632 -1.1459042 0.011764706
-4.0501037 -18.342617 -1.0951679 0.0039215689
-9.0987978 -68.810577 4.0654025 0.047058824
-12.458111 -68.31601 2.8526323 0.11764706
-2.8107591 -22.857265 -1.0704703 0.015686275
-3.7036042 -21.500586 -1.1424308 0.011764706
-0.90308142 -8.9198437 1.1048549 0
-12.663932 -69.418617 5.7869229 0.06666667
-2.0095377 -26.635714 -1.0840229 0.0078431377
-6.2881522 -27.742384 -0.98940533 0.0078431377
-0.62397289 -6.8811555 1.8599579 0
-3.1108813 -25.050833 -0.58337879 0.0078431377
-0.54483688 -4.5260057 -2.1508512 0.027450981
-1.9443823 -24.936939 -0.43234599 0.13725491
-6.1402268 -33.907261 -0.99606472 0.011764706
-0.69327271 -7.2054191 -2.0382605 0.098039217
-1.2237051 -8.090971 -1.6483412 0.062745102
-9.778451 -71.994537 0.021733057 0.1254902
-9.5923815 -41.016121 -0.47976229 0.019607844
-0.93139505 -8.9041443 -1.3996636 0.16078432
-1.5399935 -9.7520094 -1.2640405 0.047058824
-6.043653 -70.133751 0.42970431 0.05882353
-8.4827099 -46.207756 -0.26040268 0.023529412
-1.2285132 -11.023121 -1.1990474 0.019607844
-2.626092 -12.182344 -1.1693197 0.023529412
-10.061385 -74.013962 1.7616049 0.047058824
-10.234687 -43.675091 0.53559405 0.011764706
-1.9573616 -16.220642 -1.1435384 0.019607844
-2.3706832 -14.113887 -1.1717025 0.015686275
-6.2650275 -72.577492 2.1421864 0.10980392
-9.600625 -52.078552 0.94053411 0.043137256
-1.3012804 -17.845339 -1.146149 0.011764706
-4.1043444 -18.300859 -1.0935433 0.0039215689
-9.2897882 -68.514015 4.0497599 0.047058824
-12.709268 -68.402817 2.8580821 0.11764706
-2.8798835 -22.79928 -1.0682427 0.011764706
-3.7711473 -21.467514 -1.141382 0.011764706
-1.0429103 -9.7020559 1.2026348 0
-12.926144 -69.543587 5.8010097 0.06666667
-2.1000216 -26.651731 -1.0849771 0.0078431377
-6.3697891 -27.677582 -0.98787552 0.0078431377
-0.71383774 -7.3562331 1.9895411 0
-3.2011573 -25.090805 -0.58455801 0.0039215689
-0.55637085 -4.5336404 -2.1559908 0.027450981
-2.0254555 -24.932844 -0.43214995 0.16470589
-6.2499304 -33.872711 -0.99529189 0.011764706
-0.71263468 -7.2056532 -2.0393655 0.11764706
-1.2396253 -8.0547209 -1.6420889 0.090196081
-9.963026 -71.539124 0.02263793 0.1254902
-0.95669699 -8.9036264 -1.4002768 0.15686275
-1.5661759 -9.7376537 -1.2630166 0.043137256
-6.2986097 -70.286301 0.43180567 0.05882353
-8.6475286 -46.227768 -0.26004732 0.023529412
-1.2595147 -11.009764 -1.1981578 0.019607844
-2.6594169 -12.160368 -1.168148 0.019607844
-20.752575 -146.57805 3.4965703 0.074509807
-10.397897 -43.707863 0.53706455 0.043137256
-2.008203 -16.216532 -1.1436929 0.019607844
-2.4135993 -14.104395 -1.1716114 0.015686275
-6.5161209 -72.597778 2.1445374 0.10980392
-9.7844009 -52.086742 0.94205666 0.043137256
-1.3583523 -17.851482 -1.1467654 0.011764706
-4.1618662 -18.28529 -1.0933768 0.0039215689
-9.478219 -68.171669 4.0325084 0.047058824
-0.40318137 -3.7458172 0.15287164 0
-2.9491351 -22.760277 -1.0667163 0.011764706
-3.858752 -21.551125 -1.1463617 0.011764706
-13.248284 -69.939034 5.8389912 0.070588239
-2.1878321 -26.655046 -1.0851685 0.0078431377
-6.4514589 -27.619104 -0.98630446 0.0078431377
-1.3455397 -11.612466 3.1444035 0
-3.3028758 -25.220839 -0.58758223 0.0039215689
-0.57227814 -4.5268288 -2.1542997 0.023529412
-2.1183832 -24.939989 -0.43240845 0.13725491
-6.3724823 -33.840549 -0.99504614 0.011764706
-0.74016309 -7.2094293 -2.0415154 0.10196079
-1.2683765 -8.0450907 -1.6413021 0.10588235
-7.4052925 -52.387844 0.015527925 0.054901961
-9.8831701 -40.959652 -0.47936681 0.019607844
-0.98990011 -8.9027834 -1.4008856 0.14117648
-1.6018547 -9.7306633 -1.2630119 0.050980393
-6.5741062 -70.444664 0.43298393 0.05882353
-8.8184528 -46.202427 -0.26006889 0.023529412
-1.2992775 -10.999952 -1.1977251 0.019607844
-2.7001157 -12.133895 -1.1666622 0.019607844
-20.287542 -139.70726 3.3343377 0.074509807
-10.574463 -43.734249 0.53790003 0.05882353
-2.0641296 -16.184191 -1.1420188 0.019607844
-2.4621811 -14.078626 -1.1703091 0.015686275
-6.7486506 -72.230003 2.1344492 0.10980392
-9.9853315 -52.100349 0.94300848 0.043137256
-1.4226035 -17.833281 -1.1459917 0.011764706
-4.2230616 -18.245478 -1.0919831 0.0039215689
-9.7134457 -68.036514 4.0266943 0.047058824
-0.40294552 -3.6725562 0.1499154 0
-3.0296175 -22.728363 -1.0657809 0.015686275
-3.9555461 -21.62578 -1.1511317 0.011764706
-13.51769 -69.955299 5.8445826 0.070588239
-2.2527902 -26.311535 -1.0715965 0.0078431377
-6.5362091 -27.528141 -0.98394597 0.0078431377
-13.896136 -71.872787 13.382922 0.078431375
-5.4206715 -38.935131 -0.90532684 0.011764706
-0.58649641 -4.5239921 -2.1542981 0.031372551
-2.1975307 -24.940151 -0.43253243 0.13725491
-6.5205555 -34.0271 -1.0011199 0.011764706
-0.76338255 -7.2098613 -2.0425889 0.11372549
-1.2951922 -8.04774 -1.6428648 0.086274512
-7.5042534 -51.928219 0.015388847 0.054901961
-10.026492 -40.985558 -0.48002812 0.019607844
-1.0190431 -8.9064302 -1.4021082 0.14509805
-1.6332003 -9.7284565 -1.2635118 0.043137256
-6.8195257 -70.661423 0.43450186 0.05882353
-1.3350151 -11.002666 -1.1985737 0.019607844
-2.7362726 -12.116611 -1.1659175 0.023529412
-10.423841 -71.297264 1.7004761 0.047058824
-10.728457 -43.765717 0.53873271 0.043137256
-2.1125853 -16.160828 -1.1409011 0.019607844
-2.4993238 -14.034627 -1.1673877 0.015686275
-6.941762 -71.873283 2.1245899 0.10980392
-9.7026062 -49.848515 0.90266377 0.039215688
-1.4778194 -17.819765 -1.1454737 0.011764706
-4.2754736 -18.211746 -1.0908216 0.0039215689
-0.37184727 -4.6147852 0.26952147 0
-13.883395 -70.635445 2.9585822 0.12156863
-3.0980291 -22.69796 -1.0648472 0.011764706
-4.0053511 -21.52216 -1.1463429 0.0039215689
-2.2096083 -25.05868 -1.0210717 0.0078431377
-6.6089573 -27.45219 -0.98200345 0.0078431377
-5.5262737 -38.806171 -0.90274507 0.011764706
-0.60380101 -4.524178 -2.1559849 0.031372551
-6.6371984 -33.962612 -0.99995553 0.011764706
-0.78980231 -7.2058291 -2.0425851 0.11764706
-1.3262548 -8.0494366 -1.6444271 0.098039217
-10.187575 -40.989964 -0.48050714 0.019607844
-1.0510764 -8.897543 -1.4014901 0.14509805
-1.6696426 -9.7251053 -1.2640108 0.043137256
-11.578032 -113.57084 0.7011528 0.10980392
-8.7464399 -44.254333 -0.24957295 0.023529412
-1.3735114 -10.984719 -1.1972871 0.019607844
-2.7796752 -12.101457 -1.1655424 0.019607844
-10.614268 -70.798958 1.6895475 0.047058824
-10.908669 -43.802406 0.53971213 0.027450981
-2.1718042 -16.151789 -1.1408926 0.019607844
-2.5499463 -14.020279 -1.1670574 0.015686275
-7.2013998 -71.810371 2.1235719 0.10980392
-9.8402815 -49.592026 0.89869308 0.039215688
-1.5381296 -17.7654 -1.1424106 0.011764706
-4.3382273 -18.179295 -1.0898904 0.0039215689
-10.19829 -68.108681 4.0351868 0.047058824
-13.972886 -69.756783 2.9239395 0.12156863
-3.1793706 -22.673418 -1.0642812 0.011764706
-4.0753841 -21.4631 -1.1440465 0.0039215689
-2.2985225 -25.021397 -1.0199271 0.0078431377
-6.6996012 -27.387875 -0.98061186 0.0078431377
-5.6519842 -38.677761 -0.90025222 0.011764706
-0.62111974 -4.5242982 -2.1576722 0.031372551
-2.4091988 -25.187395 -0.43708274 0.0078431377
-6.7346725 -33.807709 -0.99614984 0.011764706
-0.81681001 -7.2055049 -2.043658 0.10980392
-1.3581547 -8.0548553 -1.6467724 0.11372549
-9.9850464 -39.596401 -0.46473017 0.019607844
-1.0836818 -8.8924446 -1.4014854 0.14117648
-1.7044663 -9.7138491 -1.2635028 0.043137256
-11.93857 -113.01347 0.69803256 0.10980392
-8.7965965 -43.684357 -0.24657479 0.023529412
-1.4125216 -10.970569 -1.1964277 0.019607844
-2.8210018 -12.078437 -1.1644268 0.019607844
-10.866202 -70.711006 1.6884503 0.047058824
-10.590488 -41.922356 0.5168829 0.011764706
-2.229744 -16.134651 -1.1403291 0.019607844
-2.5923553 -13.966722 -1.1634874 0.015686275
-7.471034 -71.841934 2.1253815 0.10980392
-10.009728 -49.495705 0.89764601 0.039215688
-1.5984981 -17.7148 -1.1396021 0.011764706
-4.4018126 -18.15049 -1.08919 0.0039215689
-10.416661 -67.872444 4.0235205 0.047058824
-14.249715 -69.805626 2.9282441 0.12156863
-3.256834 -22.624907 -1.0626076 0.0078431377
-4.1385145 -21.372536 -1.1400878 0.0039215689
-2.3932371 -25.039433 -1.0210422 0.0078431377
-6.7928915 -27.334867 -0.97963464 0.0078431377
-5.7693348 -38.501556 -0.89666086 0.011764706
-0.63457638 -4.5177612 -2.1559811 0.035294119
-2.4745505 -25.055471 -0.43495131 0.015686275
-6.8060083 -33.62109 -0.99131292 0.011764706
-0.83882666 -7.1980839 -2.0425782 0.11372549
-1.3907762 -8.0840683 -1.653816 0.1254902
-10.017597 -39.215748 -0.4606643 0.019607844
-1.1109812 -8.8840761 -1.4008682 0.1254902
-1.7366197 -9.7151918 -1.2645061 0.043137256
-12.22472 -112.35822 0.69425941 0.10980392
-2.1363237 -11.600777 -0.068508662 0
-1.4469779 -10.965061 -1.1964228 0.019607844
-2.8569005 -12.060798 -1.1636823 0.019607844
-11.118879 -70.864983 1.6930195 0.047058824
-10.647684 -41.605541 0.51338565 0.011764706
-2.2804186 -16.126551 -1.1403219 0.019607844
-2.6386991 -13.969193 -1.1644539 0.015686275
-0.44111377 -6.8493624 0.19905624 0
-10.15936 -49.435612 0.89716607 0.039215688
-1.6514815 -17.684868 -1.1380669 0.011764706
-4.449645 -18.100805 -1.0871048 0.0039215689
-10.772409 -68.721397 4.0759759 0.047058824
-14.596614 -70.36158 2.9535801 0.12156863
-3.3208852 -22.570156 -1.0605665 0.011764706
-4.1948614 -21.30761 -1.1373777 0.0039215689
-1.0852836 -8.7271061 1.0848347 0
-0.39386469 -3.3840566 0.27974063 0
-2.4709976 -25.022827 -1.020707 0.0078431377
-6.872613 -27.289185 -0.97879708 0.0078431377
-1.1598747 -6.9969301 1.3030107 0
-5.8469067 -38.213776 -0.89041728 0.011764706
-0.65113014 -4.5142198 -2.1559789 0.039215688
-2.5741653 -25.112585 -0.43609872 0.0078431377
-7.0220098 -34.024651 -1.003931 0.011764706
-0.86645997 -7.2013769 -2.044728 0.094117649
-1.4170854 -8.0623941 -1.6506805 0.10196079
-10.150929 -39.138943 -0.46019891 0.019607844
-1.1441811 -8.882659 -1.4014769 0.10196079
-1.7764051 -9.7269707 -1.2670196 0.047058824
-1.4865105 -10.954573 -1.1959902 0.015686275
-2.9021182 -12.052906 -1.1640478 0.019607844
-11.435924 -71.169769 1.7013758 0.047058824
-10.75048 -41.379585 0.5110929 0.011764706
-2.3382115 -16.10902 -1.1397585 0.019607844
-2.6890416 -13.954345 -1.1641235 0.015686275
-8.2018671 -73.884384 2.187669 0.11372549
-10.350619 -49.443771 0.89804423 0.039215688
-1.7144604 -17.661648 -1.1370393 0.011764706
-4.5159616 -18.083187 -1.0870978 0.0078431377
-10.890133 -67.868675 4.0277982 0.047058824
-3.4022877 -22.548763 -1.0601857 0.011764706
-4.2628174 -21.244055 -1.1348741 0.0039215689
-0.6707328 -6.0192204 0.74745953 0
-2.5681963 -25.060062 -1.0226289 0.0078431377
-6.9591551 -27.212421 -0.97699177 0.0078431377
-6.1186295 -38.987888 -0.90889347 0.011764706
-0.66766012 -4.5143313 -2.1576664 0.035294119
-2.6632252 -25.114231 -0.43629009 0.0078431377
-7.0961466 -33.795719 -0.99794459 0.011764706
-0.89415646 -7.2123728 -2.0490322 0.11372549
-1.4485838 -8.0715942 -1.653809 0.082352944
-8.0068769 -49.344658 0.014596525 0.050980393
-10.10836 -38.442055 -0.45248517 0.011764706
-1.1771537 -8.8891726 -1.4033129 0.12156863
-1.8154526 -9.742835 -1.2700369 0.062745102
-12.821986 -110.52982 0.68358696 0.10980392
-9.2245007 -43.490459 -0.24597628 0.023529412
-1.5260633 -10.95603 -1.1968386 0.015686275
-2.9420855 -12.033883 -1.1633029 0.023529412
-21.455141 -129.00491 3.0891249 0.074509807
-10.869715 -41.248035 0.50995344 0.011764706
-2.3924339 -16.087826 -1.138918 0.019607844
-2.7326045 -13.920379 -1.162174 0.015686275
-8.4531107 -73.798584 2.18606 0.11372549
-10.558307 -49.566368 0.90098953 0.039215688
-1.7742138 -17.638569 -1.1360122 0.011764706
-4.5780077 -18.062328 -1.0868603 0.0078431377
-11.464643 -69.829338 4.1467261 0.047058824
-27.985804 -128.94838 5.4247251 0.24705882
-3.4769838 -22.511978 -1.059067 0.011764706
-4.3360882 -21.224012 -1.1346571 0.0039215689
-2.6589594 -25.077595 -1.0237448 0.0078431377
-7.0363016 -27.121244 -0.97463483 0.0078431377
-6.350544 -39.53297 -0.92205924 0.015686275
-0.68262601 -4.5110192 -2.1576645 0.035294119
-7.1559591 -33.536777 -0.99104041 0.011764706
-0.91610599 -7.1969061 -2.0457983 0.098039217
-1.4787581 -8.080986 -1.6569377 0.11764706
-8.1419535 -49.151196 0.014556373 0.043137256
-10.240026 -38.422676 -0.45265222 0.011764706
-1.2079673 -8.8919382 -1.4045357 0.12941177
-1.8477516 -9.7356882 -1.270033 0.050980393
-8.7498741 -74.192711 0.45774353 0.062745102
-1.5802783 -8.5370455 -0.051588323 0
-1.5637375 -10.957674 -1.1976876 0.019607844
-2.9819758 -12.022988 -1.1632988 0.023529412
-21.888935 -128.96742 3.0900347 0.074509807
-10.999018 -41.183693 0.50963074 0.011764706
-2.4430614 -16.063002 -1.1378005 0.019607844
-2.7770162 -13.902384 -1.1615205 0.015686275
-8.2871857 -70.411545 2.0864162 0.10588235
-10.133252 -46.88736 0.85272068 0.031372551
-1.8307581 -17.615667 -1.1349857 0.011764706
-4.6304703 -18.019024 -1.085237 0.0039215689
-11.880503 -70.860237 4.2104187 0.047058824
-28.41762 -128.87326 5.4255977 0.24705882
-3.5495834 -22.487436 -1.0585028 0.011764706
-4.4055777 -21.204544 -1.1344409 0.0039215689
-1.2379261 -9.0678978 1.1293427 0
-1.6328543 -8.7732086 0.73325372 0
-2.849823 -25.94828 -1.0595549 0.0078431377
-7.2226391 -27.447458 -0.98718905 0.0078431377
-0.93681204 -7.3203421 1.9895443 0
-0.50767034 -3.7280867 0.69405299 0
-6.4340916 -39.23476 -0.91563201 0.011764706
-0.69997096 -4.5145521 -2.161041 0.031372551
-2.8196278 -24.978241 -0.43428171 0.035294119
-7.2137547 -33.249207 -0.98333204 0.011764706
-0.94322371 -7.203917 -2.0490253 0.10588235
-1.5060896 -8.0708208 -1.6561513 0.10588235
-10.348316 -38.293098 -0.45155805 0.011764706
-1.2396836 -8.8904305 -1.4051449 0.15294118
-1.8826022 -9.7319183 -1.2705325 0.050980393
-9.0108032 -74.17646 0.45788226 0.062745102
-9.5158958 -43.404953 -0.24583218 0.023529412
-1.5992228 -10.93535 -1.1959747 0.015686275
-3.0228577 -12.00754 -1.1629244 0.019607844
-22.357 -128.99152 3.0925546 0.074509807
-11.095469 -40.974384 0.50752866 0.011764706
-2.4984269 -16.049314 -1.1375153 0.019607844
-2.8255281 -13.891476 -1.1615146 0.015686275
-8.588336 -70.821396 2.0995333 0.10588235
-10.275641 -46.756962 0.85102826 0.031372551
-1.8897455 -17.588234 -1.1337043 0.011764706
-4.6922703 -17.997774 -1.0849996 0.0078431377
-11.597413 -67.800728 4.0309372 0.047058824
-15.61824 -70.325691 2.9612591 0.12156863
-3.6329033 -22.501328 -1.0597844 0.015686275
-4.4539576 -21.07493 -1.1284052 0.011764706
-15.599137 -70.242958 5.9033484 0.070588239
-2.9388862 -25.92515 -1.0590569 0.0078431377
-7.270112 -27.24766 -0.98096669 0.0078431377
-15.588181 -70.198425 13.148063 0.078431375
-6.4927521 -38.765877 -0.9052673 0.011764706
-0.71569669 -4.5072374 -2.1593497 0.031372551
-2.9147546 -24.994316 -0.43474612 0.035294119
-7.3095179 -33.108364 -0.97998726 0.011764706
-0.96825695 -7.1916428 -2.0468681 0.094117649
-1.5312527 -8.0449476 -1.652233 0.098039217
-8.4425421 -48.805889 0.014496415 0.043137256
-10.495122 -38.276821 -0.45181417 0.011764706
-1.272958 -8.8885307 -1.405754 0.13725491
-1.9173665 -9.7199001 -1.2700248 0.050980393
-9.3621998 -42.012192 -0.23825268 0.023529412
-1.6378849 -10.920401 -1.1951154 0.015686275
-3.0679293 -11.999025 -1.1632903 0.019607844
-22.843046 -128.98228 3.0944147 0.074509807
-2.5551157 -16.027082 -1.1366749 0.023529412
-2.8728402 -13.8643 -1.160213 0.015686275
-9.2259617 -73.706581 2.1862965 0.11372549
-10.429873 -46.643749 0.84969318 0.031372551
-1.9547086 -17.583967 -1.1339489 0.011764706
-4.7527714 -17.960056 -1.083838 0.0039215689
-11.918543 -68.161385 4.055078 0.047058824
-15.858829 -70.19278 2.9581666 0.12156863
-3.7188799 -22.50634 -1.0606964 0.015686275
-4.5392456 -21.092308 -1.1302664 0.015686275
-15.864548 -70.219078 5.9063215 0.070588239
-3.031317 -25.893198 -1.0582356 0.0078431377
-7.3209991 -27.046534 -0.97474414 0.0078431377
-2.1492343 -10.727288 2.0076184 0
-6.5626783 -38.339161 -0.89590937 0.011764706
-0.73146522 -4.5072966 -2.1610372 0.031372551
-3.0028956 -25.023083 -0.43541694 0.015686275
-7.4393167 -33.168522 -0.98250097 0.011764706
-0.99418104 -7.1986871 -2.0500956 0.098039217
-1.5606041 -8.05021 -1.6545788 0.094117649
-10.193846 -36.744896 -0.43428841 0.011764706
-1.3045621 -8.8948517 -1.4075903 0.1882353
-1.9450667 -9.6930962 -1.267503 0.035294119
-9.4595366 -41.80069 -0.23723711 0.019607844
-1.6733737 -10.909923 -1.1946837 0.015686275
-3.1044152 -11.976227 -1.1621757 0.019607844
-20.899027 -115.9477 2.7830205 0.074509807
-11.503417 -41.320496 0.51289696 0.011764706
-2.6053762 -16.001747 -1.1355575 0.019607844
-2.9188008 -13.853622 -1.1602076 0.015686275
-9.4777126 -73.729988 2.1879833 0.11372549
-10.593608 -46.646774 0.85042453 0.031372551
-2.0103788 -17.556524 -1.1326681 0.011764706
-4.8079071 -17.927763 -1.0829079 0.0039215689
-0.42806542 -4.1075196 0.24075319 0
-3.8050063 -22.555695 -1.0636405 0.019607844
-4.5982428 -21.029392 -1.1277645 0.015686275
-3.023936 -25.180677 -1.0296621 0.0078431377
-7.3853483 -26.932638 -0.97156006 0.0078431377
-6.6357794 -38.021095 -0.88902575 0.011764706
-0.7408694 -4.5035806 -2.161109 0.031372551
-7.5422559 -33.113964 -0.9812758 0.011764706
-1.0129786 -7.1940355 -2.0501227 0.098039217
-1.5905354 -8.0779171 -1.6616358 0.098039217
-8.3616371 -46.566666 0.014330242 0.043137256
-10.287871 -36.611885 -0.43267274 0.011764706
-1.3271003 -8.8774395 -1.4057485 0.16470589
-1.9670562 -9.6619339 -1.2644646 0.035294119
-9.4732523 -41.237 -0.23372127 0.019607844
-1.7043892 -10.898954 -1.1942209 0.015686275
-3.1409836 -11.96799 -1.1624864 0.019607844
-12.530942 -68.905304 1.6543452 0.047058824
-2.6475697 -15.952178 -1.1326604 0.019607844
-2.9598923 -13.83832 -1.1597946 0.015686275
-9.8211594 -74.372673 2.2092316 0.11372549
-10.764846 -46.670582 0.85222077 0.031372551
-2.0642452 -17.540337 -1.1320146 0.011764706
-4.8596835 -17.894377 -1.081821 0.0078431377
-12.433041 -68.382553 4.074379 0.047058824
-3.8869238 -22.592184 -1.0658058 0.019607844
-4.703177 -21.1714 -1.1360699 0.011764706
-0.45125329 -4.1864004 0.52051562 0
-3.1087341 -25.192572 -1.0303568 0.0078431377
-7.5676379 -27.231888 -0.98296863 0.0078431377
-1.0747405 -5.9096022 1.1059817 0
-6.7371902 -37.862888 -0.88541842 0.011764706
-0.75664973 -4.50353 -2.1627963 0.035294119
-3.1806741 -25.09885 -0.43684065 0.054901961
-7.6210837 -32.959408 -0.97747564 0.011764706
-1.0389875 -7.2008972 -2.0533497 0.078431375
-1.6173142 -8.0715046 -1.6616327 0.090196081
-8.4906187 -46.403984 0.014297716 0.043137256
-10.364157 -36.42297 -0.43086284 0.011764706
-1.3572702 -8.8757782 -1.4063578 0.1882353
-1.9935027 -9.6311207 -1.2614402 0.043137256
-9.5771198 -41.068169 -0.23294742 0.019607844
-1.737552 -10.876521 -1.1925087 0.019607844
-3.1784101 -11.948771 -1.1617421 0.019607844
-21.64636 -115.61584 2.7804468 0.074509807
-2.5756855 -9.896369 0.12003009 0
-2.6989641 -15.934375 -1.1320983 0.019607844
-3.001092 -13.807956 -1.15817 0.015686275
-10.033402 -74.093102 2.2019596 0.11372549
-10.393408 -44.452457 0.81218284 0.031372551
-2.1218467 -17.528347 -1.1317513 0.011764706
-4.9122472 -17.85408 -1.0804294 0.0078431377
-12.673913 -68.414375 4.0788574 0.047058824
-3.9416747 -22.47209 -1.0608126 0.023529412
-4.730267 -20.975965 -1.1265049 0.0039215689
-7.631999 -27.117329 -0.97978604 0.0078431377
-6.8492703 -37.768532 -0.88375473 0.011764706
-0.77228653 -4.495996 -2.1611054 0.031372551
-3.2959571 -25.248121 -0.43962568 0.0078431377
-7.7218451 -32.848495 -0.97505164 0.011764706
-1.0661057 -7.1996131 -2.0544231 0.082352944
-1.6403488 -8.0376444 -1.6561489 0.094117649
-10.434837 -36.172676 -0.42837775 0.011764706
-1.3890402 -8.865654 -1.4057401 0.15294118
-2.0212312 -9.5917044 -1.257408 0.035294119
-7.4227409 -53.983974 0.33379561 0.035294119
-1.7766479 -10.864964 -1.1920766 0.019607844
-3.2187753 -11.924378 -1.1606274 0.019607844
-22.054754 -115.45599 2.7786107 0.074509807
-2.7535515 -15.903577 -1.1307032 0.019607844
-3.051681 -13.795652 -1.1581641 0.015686275
-9.8740873 -71.054703 2.1126294 0.10588235
-10.502949 -44.195316 0.80820292 0.031372551
-2.1843762 -17.507389 -1.1309787 0.011764706
-4.9730973 -17.819435 -1.0794994 0.0078431377
-12.986912 -68.687698 4.0980887 0.047058824
-4.0255346 -22.464125 -1.0611707 0.011764706
-4.8061652 -20.953396 -1.1262883 0.0039215689
-7.6891494 -26.946196 -0.97467113 0.0078431377
-2.9172287 -13.248828 2.4887061 0
-6.9914608 -37.761589 -0.88419372 0.011764706
-0.78709865 -4.4886031 -2.1594145 0.027450981
-6.4886727 -46.328953 -0.8035357 0.050980393
-7.8229442 -32.765869 -0.97343189 0.011764706
-1.0867497 -7.1720204 -2.0479591 0.082352944
-1.6683944 -8.0307178 -1.6561458 0.13333334
-10.398291 -35.594906 -0.4220278 0.011764706
-1.4176799 -8.8479662 -1.403896 0.13725491
-2.0499082 -9.5641861 -1.2548867 0.035294119
-0.69654512 -6.9756098 0.039493002 0
-9.863018 -40.965172 -0.2327407 0.090196081
-1.8130211 -10.84974 -1.1912179 0.019607844
-3.2569308 -11.900479 -1.159513 0.019607844
-22.581604 -116.00484 2.7938035 0.074509807
-2.8059545 -15.877059 -1.129586 0.019607844
-3.0969291 -13.772159 -1.157187 0.015686275
-10.042296 -70.476738 2.0965137 0.10588235
-10.620458 -44.009754 0.80550706 0.031372551
-2.2437296 -17.486658 -1.1302066 0.011764706
-5.0260482 -17.770227 -1.0776459 0.0078431377
-13.289268 -68.958115 4.1170845 0.047058824
-26.655973 -108.45747 4.5938606 0.24705882
-4.0845666 -22.350786 -1.0565466 0.011764706
-3.3857489 -25.246126 -1.0340265 0.0078431377
-7.7116361 -26.680733 -0.96610713 0.0078431377
-7.090683 -37.57103 -0.8803342 0.011764706
-0.80286598 -4.48839 -2.1611021 0.027450981
-6.6107111 -46.096481 -0.79989481 0.050980393
-7.9305797 -32.734776 -0.97330487 0.011764706
-1.1090083 -7.1597295 -2.0458024 0.098039217
-1.6988558 -8.0392609 -1.6592743 0.11764706
-1.4477924 -8.8459978 -1.4045055 0.19607843
-2.0709333 -9.5139189 -1.2493448 0.031372551
-7.5625224 -52.41901 0.32437918 0.035294119
-9.9968548 -40.923382 -0.23268215 0.06666667
-1.8505582 -10.850373 -1.1920669 0.019607844
-3.2894053 -11.865662 -1.1572883 0.019607844
-23.241919 -117.30038 2.8269727 0.074509807
-11.40528 -38.474007 0.48032698 0.011764706
-2.8546591 -15.84701 -1.1281919 0.019607844
-3.1406317 -13.752987 -1.1565342 0.015686275
-10.361082 -71.007317 2.113409 0.10588235
-2.2987342 -17.45829 -1.1289268 0.011764706
-5.0814548 -17.74091 -1.0769477 0.0078431377
-13.506863 -68.857758 4.1138368 0.047058824
-26.920645 -107.9915 4.5779519 0.24705882
-4.1515779 -22.300766 -1.0548759 0.011764706
-4.9301028 -20.84436 -1.1223251 0.0039215689
-3.473022 -25.257378 -1.0349818 0.0078431377
-7.7802444 -26.588913 -0.96375322 0.0078431377
-1.6536779 -9.8731775 2.6987109 0
-7.1687508 -37.314899 -0.87492055 0.011764706
-0.8185277 -4.4844089 -2.1611001 0.023529412
-6.7624397 -46.012684 -0.7988472 0.050980393
-8.0269451 -32.636021 -0.97122645 0.011764706
-1.1347656 -7.1584377 -2.046876 0.086274512
-1.7269076 -8.0321302 -1.6592712 0.11372549
-1.4786623 -8.8397388 -1.4045014 0.12941177
-2.0913334 -9.4555063 -1.2427958 0.035294119
-7.6997542 -52.094646 0.32254651 0.035294119
-10.235892 -41.262955 -0.23476638 0.019607844
-1.8876253 -10.838799 -1.1916351 0.019607844
-3.3319802 -11.85676 -1.1576548 0.019607844
-26.253778 -129.93826 3.1342793 0.074509807
-11.556036 -38.486309 0.4810138 0.011764706
-2.9043603 -15.808432 -1.1262425 0.019607844
-3.1866426 -13.733064 -1.1558812 0.015686275
-10.511433 -70.337318 2.0945802 0.10588235
-10.926723 -43.961319 0.80604035 0.062745102
-2.3566213 -17.429283 -1.1276462 0.011764706
-5.1386385 -17.70665 -1.0760181 0.0078431377
-13.957643 -69.837921 4.1754436 0.047058824
-27.201288 -107.52016 4.5620446 0.24705882
-4.226995 -22.273243 -1.054312 0.011764706
-5.0157166 -20.876179 -1.1250178 0.015686275
-0.3668831 -2.7216237 0.22635509 0
-3.567255 -25.283449 -1.0365816 0.0078431377
-7.9072213 -26.671207 -0.96774614 0.0078431377
-7.2821298 -37.206226 -0.87298268 0.011764706
-0.83586991 -4.4836788 -2.1627874 0.031372551
-0.34027791 -4.2456632 -0.077594146 0
-8.1374559 -32.570347 -0.97018057 0.011764706
-1.1617802 -7.1567931 -2.0479496 0.098039217
-1.7563349 -8.024538 -1.659268 0.090196081
-8.8028669 -43.821285 0.013429977 0.043137256
-10.744185 -35.396629 -0.42100486 0.011764706
-1.5118582 -8.8369207 -1.4051107 0.11372549
-2.1299706 -9.4619293 -1.2448059 0.031372551
-7.8575797 -51.855469 0.32126012 0.035294119
-9.9482632 -39.536083 -0.2253111 0.019607844
-1.9281505 -10.834493 -1.1920569 0.019607844
-3.3718476 -11.831854 -1.1565402 0.019607844
-11.667166 -38.347054 0.47982201 0.011764706
-2.9630957 -15.800378 -1.1265125 0.019607844
-3.2339463 -13.708506 -1.1549041 0.015686275
-10.880162 -71.000092 2.1156061 0.10588235
-11.10187 -43.973957 0.80705774 0.094117649
-2.4173746 -17.399601 -1.1263655 0.011764706
-5.1975408 -17.667431 -1.0748576 0.0078431377
-14.359353 -70.484818 4.2173853 0.047058824
-27.497658 -107.04332 4.5461378 0.24705882
-4.3118639 -22.272038 -1.0550399 0.015686275
-5.1052651 -20.906706 -1.1277101 0.015686275
-3.6711211 -25.340057 -1.039471 0.0078431377
-7.9882131 -26.587427 -0.96580559 0.0078431377
-2.4336977 -10.631602 2.0033686 0
-7.4004989 -37.091946 -0.87095273 0.011764706
-0.85058975 -4.4760766 -2.1610968 0.035294119
-7.1131949 -46.094994 -0.80111998 0.050980393
-8.2419195 -32.505791 -0.96913528 0.011764706
-1.1899507 -7.1666169 -2.0522532 0.098039217
-1.7993387 -8.0741005 -1.6710086 0.094117649
-8.9491386 -43.757835 0.013436722 0.043137256
-10.894241 -35.441639 -0.42198265 0.011764706
-1.5426949 -8.8304377 -1.4051069 0.1254902
-2.1548896 -9.4225883 -1.2407745 0.043137256
-8.0085707 -51.640984 0.32012075 0.035294119
-10.030112 -39.287239 -0.22410563 0.019607844
-1.9643074 -10.818762 -1.1911985 0.019607844
-3.4107223 -11.811266 -1.1557962 0.019607844
-14.446236 -69.681488 1.6814395 0.047058824
-11.32396 -36.798782 0.46080151 0.0078431377
-3.0157475 -15.777076 -1.1256733 0.019607844
-3.2817774 -13.695983 -1.1548989 0.015686275
-11.000463 -70.171104 2.0920594 0.10588235
-11.271614 -43.995659 0.80821687 0.1254902
-2.4761848 -17.378084 -1.1255939 0.011764706
-5.2507391 -17.62138 -1.0732355 0.0078431377
-1.4034145 -8.1747561 0.48582274 0
-27.772289 -106.57068 4.5302291 0.24705882
-4.4036713 -22.322149 -1.0581673 0.027450981
-5.1741362 -20.872154 -1.1268711 0.011764706
-1.3224782 -7.7933774 0.97729617 0
-3.7544527 -25.294373 -1.0381681 0.0078431377
-8.0616598 -26.497252 -0.96358967 0.0078431377
-7.5299263 -37.064732 -0.87093633 0.011764706
-0.86542761 -4.4721375 -2.1610951 0.031372551
-7.2009506 -45.675442 -0.79427254 0.050980393
-8.3362484 -32.426968 -0.967632 0.011764706
-1.2145211 -7.1653037 -2.0533271 0.050980393
-1.8240777 -8.0594158 -1.6694398 0.10980392
-9.0832434 -43.675987 0.013434369 0.043137256
-11.022696 -35.438515 -0.42237687 0.011764706
-1.5703039 -8.8164492 -1.4038764 0.12156863
-2.175879 -9.3759604 -1.2357363 0.043137256
-8.1739206 -51.577518 0.31992209 0.10980392
-10.104573 -39.043991 -0.22292285 0.019607844
-1.9993359 -10.807206 -1.190767 0.019607844
-3.4523025 -11.806383 -1.156533 0.019607844
-27.650942 -129.82866 3.1387103 0.074509807
-11.361737 -36.497112 0.45748752 0.0078431377
-3.0663691 -15.758092 -1.1251117 0.019607844
-3.330266 -13.695483 -1.1558657 0.015686275
-11.340425 -70.78405 2.1115489 0.10588235
-11.438103 -44.034214 0.80966067 0.062745102
-2.5312023 -17.352926 -1.1245683 0.011764706
-5.2993999 -17.572355 -1.0713828 0.0078431377
-28.019266 -106.07919 4.51333 0.24705882
-4.4877744 -22.353199 -1.0603726 0.015686275
-5.1958795 -20.676264 -1.1173075 0.011764706
-0.93013322 -5.8474069 0.73277652 0
-3.8279095 -25.217592 -1.0355755 0.0078431377
-8.1360693 -26.427401 -0.96206421 0.0078431377
-7.6519561 -37.034554 -0.8708294 0.011764706
-0.88198102 -4.4714375 -2.1627824 0.031372551
-7.3231392 -45.428024 -0.79042768 0.050980393
-8.4389315 -32.357929 -0.96647239 0.011764706
-1.2436491 -7.1786833 -2.058708 0.078431375
-1.8511733 -8.0480614 -1.6686541 0.094117649
-11.17347 -35.482368 -0.42335489 0.011764706
-1.6010697 -8.809762 -1.4038726 0.15686275
-2.2034049 -9.3480072 -1.2332156 0.050980393
-8.3658752 -51.618523 0.32039419 0.035294119
-10.116302 -38.547909 -0.22033283 0.011764706
-2.0361967 -10.795123 -1.1903355 0.019607844
-3.4885807 -11.777954 -1.155049 0.019607844
-1.0943472 -6.4987483 0.15325549 0
-3.1213574 -15.74614 -1.1251049 0.015686275
-3.3780527 -13.682624 -1.1558605 0.015686275
-11.605379 -70.849342 2.1147678 0.10588235
-11.610576 -44.062355 0.81096232 0.062745102
-2.5891085 -17.327087 -1.1235428 0.011764706
-5.3545499 -17.533602 -1.0702229 0.0078431377
-1.8907505 -10.132545 0.60406786 0
-28.266041 -105.52441 4.4939661 0.24705882
-4.5230002 -22.141094 -1.0511357 0.011764706
-5.2711573 -20.668417 -1.1179231 0.0039215689
-1.2718085 -7.3088355 0.91763896 0
-1.9584624 -8.4448919 0.7136727 0
-3.9086094 -25.159569 -1.033789 0.0078431377
-8.2245712 -26.386276 -0.96164227 0.0078431377
-7.7828984 -37.014282 -0.87099642 0.011764706
-0.89854372 -4.4706764 -2.1644697 0.031372551
-7.4491162 -45.211842 -0.78712922 0.050980393
-8.5285292 -32.242306 -0.96393603 0.0078431377
-1.267861 -7.1693864 -2.0576279 0.06666667
-1.8740581 -8.0214863 -1.6647365 0.086274512
-1.6343915 -8.8145418 -1.4057089 0.10980392
-2.2360225 -9.3391066 -1.2332122 0.078431375
