# .PCD v0.7 - Point Cloud Data file format
VERSION 0.7
FIELDS x y z intensity
SIZE 4 4 4 4
TYPE F F F F
COUNT 1 1 1 1
WIDTH 1080
HEIGHT 1
VIEWPOINT 0 0 0 1 0 0 0
POINTS 1080
DATA ascii
2.044626 -18.797237 -0.33247018 0.031372551
0.21318489 -17.511971 -0.512245 0
0.68843532 -8.1939316 -2.2988024 0.039215688
0.27068225 -10.327154 -2.0684004 0.0039215689
2.3598428 -49.115013 -0.0018693919 0.043137256
-0.6608091 -17.813824 -0.21004505 0.054901961
0.91778386 -13.810245 -2.1532693 0.070588239
0.23800874 -14.387451 -1.8341099 0.011764706
2.1205628 -19.64036 0.1115861 0.047058824
0.20975789 -17.951052 -0.10689518 0
0.95632356 -14.750311 -1.5930786 0.054901961
-0.54103273 -15.706111 -1.4709589 0.043137256
2.4431591 -51.147419 1.1893574 0.027450981
-0.71690434 -18.800137 0.21695997 0.019607844
0.2044398 -18.561644 -1.5178648 0.0039215689
0.093263865 -32.421917 0.56401974 0.12941177
-0.58484304 -16.477268 -0.96355265 0.015686275
1.6908731 -32.717117 1.904598 0.0078431377
0.093684167 -32.39595 1.3179648 0.10588235
0.21346277 -17.463436 -0.91783226 0.0039215689
0.093581617 -32.454803 2.6476274 0.11764706
-0.58757365 -16.527046 -0.58047068 0.098039217
0.094363689 -32.47131 5.9186826 0.054901961
1.7037702 -33.051476 -0.77208269 0.011764706
0.29498991 -5.020628 -2.3444252 0
1.9774389 -18.823229 -0.33279935 0.039215688
0.15078601 -17.359407 -0.50781208 0
0.65825903 -8.1912537 -2.2977157 0.039215688
0.23283301 -10.32678 -2.0683897 0.0039215689
1.5726271 -32.781311 -0.0023263399 0.023529412
-0.72730261 -17.829945 -0.21025856 0.062745102
0.86760426 -13.824066 -2.1550994 0.094117649
0.18555844 -14.363124 -1.8310657 0.015686275
2.0523469 -19.690538 0.11186302 0.043137256
0.90712774 -14.88357 -1.6071961 0.043137256
-0.59834951 -15.69875 -1.4705713 0.047058824
-0.78919226 -18.851976 0.21763428 0.0078431377
1.109791 -20.336266 -1.425745 0.0039215689
0.15144877 -17.281311 -1.4134312 0.0039215689
3.4721766 -36.154385 1.0533842 0.019607844
-0.027392209 -32.576706 0.56678259 0.13333334
1.7721825 -16.445097 -1.0609175 0.0078431377
-0.64619488 -16.48966 -0.96446514 0.015686275
-0.026921421 -32.554634 1.3245186 0.12941177
1.0964134 -19.972517 -0.93371898 0.0039215689
0.15077204 -17.350964 -0.91195774 0.0039215689
-0.02700001 -32.593147 2.6590579 0.10196079
1.8783808 -17.675663 -0.72583705 0.0039215689
-0.64862448 -16.531462 -0.58073258 0.10588235
-0.0264377 -32.623585 5.9467039 0.06666667
0.27828616 -5.0240297 -2.3461106 0
1.9173212 -18.856407 -0.3332698 0.039215688
0.094363838 -17.282681 -0.50558859 0
0.63083398 -8.1845179 -2.2955518 0.039215688
0.19870694 -10.318477 -2.0668116 0.0039215689
1.463912 -32.785168 -0.0022957288 0.023529412
-0.78846771 -17.858191 -0.21061277 0.05882353
0.82122469 -13.809892 -2.1526272 0.094117649
0.13894616 -14.295038 -1.8224692 0.019607844
0.084982753 -17.913607 -0.10665255 0.06666667
0.86287469 -15.036362 -1.6234562 0.027450981
-0.64964038 -15.68358 -1.4694422 0.035294119
-0.84863716 -18.800182 0.21709001 0.015686275
1.021714 -19.728497 -1.3830545 0.0039215689
3.364156 -36.307964 1.0576098 0.019607844
-0.13746494 -32.711224 0.56919247 0.13333334
1.834996 -17.86594 -1.1519517 0.0039215689
-0.70112675 -16.490236 -0.96468228 0.0039215689
1.458111 -32.597931 1.8972164 0.0078431377
-0.137099 -32.70105 1.3305801 0.15294118
1.0238287 -19.78718 -0.92495853 0
0.096663117 -17.122532 -0.90001947 0.0039215689
-0.13747793 -32.751152 2.6721137 0.11764706
-0.70420629 -16.540014 -0.58113545 0.10588235
-0.13680461 -32.767719 5.9732876 0.06666667
1.0208517 -19.695347 -0.4612776 0
0.26054585 -5.0346093 -2.351177 0
1.8537025 -18.889656 -0.33373928 0.039215688
0.035369396 -17.209709 -0.50348061 0
0.60237843 -8.1892853 -2.2966216 0.047058824
0.16268823 -10.317873 -2.0668013 0.0039215689
0.51200128 -5.1895428 -0.0031736395 0
-0.85268611 -17.882029 -0.21091975 0.05882353
0.77301437 -13.81144 -2.1526136 0.10588235
0.089488536 -14.270395 -1.8194259 0.031372551
0.022451371 -17.912558 -0.10663508 0.082352944
0.81170821 -15.081774 -1.6281523 0.027450981
-0.70196742 -15.644219 -1.4660834 0.023529412
0.94800395 -19.571171 -1.3718792 0.0039215689
0.038999647 -17.000505 -1.3906294 0.0039215689
3.247834 -36.44978 1.0614883 0.019607844
-0.25454068 -32.865261 0.57195425 0.13333334
1.7751467 -17.902834 -1.1539801 0.0039215689
-0.76002973 -16.506371 -0.96582794 0.0039215689
-0.25391424 -32.842987 1.3364805 0.12941177
0.94602978 -19.501839 -0.9115476 0
0.038745642 -17.021679 -0.89477378 0.0039215689
1.338461 -32.389507 3.9765139 0.12941177
-0.25453377 -32.896717 2.6841943 0.11764706
1.7621386 -17.737421 -0.72791868 0.027450981
-0.76328427 -16.55616 -0.5818162 0.11764706
-0.25395197 -32.915306 6.0005903 0.06666667
0.94688094 -19.525677 -0.45726264 0
0.24337447 -5.0161309 -2.3427205 0
1.7895727 -18.918703 -0.33413893 0.078431375
-0.022498071 -17.108557 -0.50055951 0
0.57368875 -8.1862526 -2.2955356 0.039215688
0.12676087 -10.313222 -2.0660071 0.0039215689
-0.9170807 -17.905634 -0.21122669 0.05882353
0.72469634 -13.808868 -2.1519852 0.082352944
0.039240807 -14.289221 -1.8219365 0.015686275
3.0854666 -35.999882 0.20721674 0.0078431377
-0.040335953 -17.923286 -0.10668679 0.074509807
0.73763025 -14.284188 -1.5420585 0.027450981
-0.75487489 -15.616602 -1.4638389 0.027450981
1.2238111 -32.367474 0.7512008 0.14117648
3.130265 -36.587234 1.0652504 0.019607844
-0.37207335 -32.990883 0.57422626 0.043137256
1.7132509 -17.915646 -1.1544739 0.0039215689
-0.81933719 -16.526281 -0.96720582 0.0039215689
-0.37171847 -32.984505 1.3423811 0.086274512
0.87312996 -19.324045 -0.9031589 0
-0.016266078 -16.820799 -0.88429958 0.0039215689
1.2230494 -32.305431 3.9658182 0.12941177
-0.37453365 -33.129547 2.7034397 0.043137256
1.7023323 -17.770123 -0.72904032 0.027450981
-0.82078463 -16.548172 -0.58166087 0.11764706
-0.37247378 -33.078205 6.0307641 0.054901961
0.87142473 -19.255798 -0.45092511 0
0.23308657 -5.0265865 -2.3478515 0
1.7326922 -18.947533 -0.33458284 0.062745102
-0.072219789 -17.007206 -0.49767935 0
0.55250609 -8.1831188 -2.2945094 0.035294119
0.09833625 -10.308443 -2.0652671 0.0039215689
-0.97510654 -17.94096 -0.2117077 0.05882353
0.6834867 -13.790324 -2.148948 0.070588239
-0.0020667017 -14.244398 -1.8164152 0.023529412
2.9853187 -36.260548 0.2087065 0.0078431377
-0.095455825 -17.921789 -0.10670812 0.074509807
0.72053522 -15.37087 -1.6590037 0.050980393
-0.78268462 -15.354467 -1.4397155 0.035294119
1.1170719 -32.322334 0.75009847 0.20392157
0.81878793 -19.574839 -1.3718802 0.0039215689
-0.069077998 -16.874336 -1.380554 0.0039215689
4.0459867 -50.917191 1.4834552 0.054901961
1.6575668 -17.912321 -1.1539907 0.0039215689
-0.87164968 -16.54995 -0.96885425 0.0039215689
1.1160398 -32.264374 1.8772848 0.13725491
-0.4860068 -33.237465 1.3528394 0.043137256
0.8090958 -19.153969 -0.89518267 0
-0.066311121 -16.771479 -0.88181448 0.0039215689
1.1153395 -32.20903 3.9536436 0.11764706
-0.48706818 -33.29417 2.7171421 0.05882353
1.6491764 -17.794655 -0.72988272 0.027450981
-0.87258011 -16.56389 -0.58237988 0.11764706
-0.48435497 -33.22493 6.0580597 0.070588239
0.80958647 -19.169531 -0.44890219 0
0.21501245 -5.0442266 -2.356298 0
1.6698372 -19.000078 -0.3354004 0.047058824
-0.12868559 -16.905668 -0.49475864 0
0.52393937 -8.1837358 -2.2945013 0.039215688
0.062467247 -10.303539 -2.0644724 0.0039215689
-1.0411501 -17.980045 -0.21219945 0.047058824
0.63518894 -13.783461 -2.1477046 0.062745102
-0.05328697 -14.294603 -1.8229643 0.023529412
-0.15813065 -17.924082 -0.10671346 0.078431375
0.66742837 -15.399862 -1.6619861 0.031372551
-0.8325575 -15.302731 -1.4352422 0.062745102
1.0019327 -32.208824 0.74742776 0.14117648
0.75108653 -19.608231 -1.3740917 0.0039215689
-0.12844327 -16.88867 -1.3818383 0.0039215689
1.5931122 -17.888857 -1.1521826 0.0039215689
-0.93034714 -16.557486 -0.96953499 0.0039215689
1.001581 -32.174976 1.8719645 0.12941177
-0.60654718 -33.390106 1.3592306 0.019607844
0.73969328 -19.027576 -0.88921243 0
-0.12230387 -16.682037 -0.87719685 0.0039215689
1.0014774 -32.140003 3.9448981 0.11764706
-0.60802484 -33.454391 2.7305272 0.043137256
1.5886974 -17.822962 -0.73084128 0.031372551
-0.93226022 -16.583391 -0.58319962 0.12156863
-0.60500431 -33.383041 6.0875182 0.070588239
0.73718977 -18.895105 -0.4424729 0
0.19693309 -5.0581789 -2.363054 0
0.49512178 -8.168849 -2.2901807 0.043137256
0.026248574 -10.310275 -2.066031 0.0039215689
0.68119538 -19.497314 -0.0026644375 0.0039215689
-1.1068285 -18.010916 -0.21259852 0.047058824
0.58701086 -13.780379 -2.1470764 0.074509807
-0.10447156 -14.332728 -1.8279989 0.050980393
2.745146 -36.477547 0.20994654 0.0078431377
-0.22108275 -17.934151 -0.10676487 0.078431375
0.61458182 -15.456507 -1.667966 0.039215688
-0.90798575 -15.568397 -1.4604901 0.039215688
0.88812679 -32.126896 0.74550247 0.15294118
-1.9129419 -27.8974 0.32429463 0.0039215689
0.69477201 -20.351561 -1.4259424 0.0039215689
-0.18816912 -16.910767 -1.3837732 0.0039215689
3.6919911 -50.965603 1.4842559 0.054901961
0.57330835 -3.234391 -0.21107391 0
-0.99040693 -16.580736 -0.97114474 0.0039215689
0.88802499 -32.101151 1.8675749 0.14901961
-0.72776586 -33.530319 1.3651329 0.019607844
0.66837353 -18.729145 -0.87524575 0
-0.17988139 -16.660286 -0.87613481 0.0039215689
0.88772333 -32.046764 3.9332268 0.10588235
-0.72932547 -33.59026 2.7419584 0.011764706
1.5288219 -17.863031 -0.73228794 0.023529412
-0.99143773 -16.594709 -0.58374071 0.12156863
-0.72675985 -33.540707 6.1169763 0.070588239
0.66750395 -18.668392 -0.43715894 0
0.18150307 -4.9959831 -2.3343143 0
0.46670383 -8.1769686 -2.2923291 0.043137256
-0.0094575882 -10.301201 -2.0644522 0.0039215689
0.51584715 -11.942937 -0.0029454089 0.0039215689
-1.1737604 -18.053505 -0.21313642 0.047058824
0.5384993 -13.749463 -2.1421442 0.054901961
-0.15378666 -14.311187 -1.8254606 0.015686275
2.9816146 -42.370308 0.24440223 0.015686275
-0.28411579 -17.943998 -0.10681628 0.078431375
0.56098235 -15.485132 -1.6709483 0.054901961
-0.94375151 -15.34561 -1.4400419 0.035294119
0.77468681 -32.028572 0.74320406 0.15294118
-2.0103126 -27.889288 0.32432196 0.0039215689
0.62347025 -20.332647 -1.4245278 0.0039215689
3.5125787 -50.952969 1.4836084 0.17254902
-1.0841479 -40.16774 0.70032132 0.027450981
1.4718881 -17.956783 -1.1559827 0.0039215689
-1.0506485 -16.603767 -0.97275454 0.0039215689
0.77467561 -32.002968 1.861789 0.13725491
-0.85156471 -33.714031 1.372829 0.019607844
0.60134733 -18.602249 -0.86927623 0
-0.23645395 -16.61438 -0.87381786 0.0039215689
0.77487665 -31.972975 3.9239941 0.098039217
-0.85231107 -33.745605 2.7550185 0.011764706
-1.0517306 -16.617769 -0.58469981 0.11764706
-0.84963578 -33.697926 6.1464338 0.070588239
0.16277324 -5.0279274 -2.3495219 0
2.3122468 -33.442028 -0.58724797 0.023529412
-0.30190241 -16.803722 -0.49192119 0.05882353
0.4380894 -8.1695843 -2.2901645 0.039215688
-0.045412242 -10.299844 -2.0644422 0.0039215689
-1.2413564 -18.099827 -0.21372053 0.050980393
0.49028349 -13.726286 -2.1384423 0.05882353
-0.2031104 -14.293443 -1.8234271 0.019607844
-0.34737831 -17.957621 -0.1068907 0.070588239
0.50696653 -15.489712 -1.6713612 0.054901961
-1.0176973 -15.571056 -1.4615741 0.027450981
0.66228545 -31.965836 0.74174446 0.16470589
-2.0931783 -27.717489 0.32242891 0.0039215689
2.3082039 -33.365047 0.97014636 0.019607844
-0.78867584 -29.132742 0.50708377 0.0078431377
1.4124546 -18.016342 -1.1595449 0.0039215689
-1.1107111 -16.622602 -0.974132 0.0039215689
0.66228855 -31.932335 1.8576319 0.15294118
0.53412926 -18.359247 -0.85791409 0
0.66244698 -31.886879 3.9132977 0.098039217
-0.97701555 -33.916435 2.7693815 0.011764706
1.4192076 -18.130087 -0.74282908 0.0039215689
-1.1118441 -16.636623 -0.58551943 0.11764706
-0.97439033 -33.874367 6.1794815 0.054901961
0.53495353 -18.434145 -0.43164137 0
0.14522424 -5.0272036 -2.3495169 0
-0.3591786 -16.769344 -0.49097553 0.054901961
0.40955019 -8.1659489 -2.289078 0.035294119
-0.081361949 -10.298362 -2.0644319 0.0039215689
-1.3096614 -18.149881 -0.21435085 0.027450981
0.44237036 -13.72665 -2.1384287 0.054901961
-0.2533403 -14.299312 -1.8244226 0.015686275
2.1902809 -33.349285 0.19162601 0.019607844
-0.41091567 -17.975018 -0.10698813 0.06666667
0.45280463 -15.474216 -1.6696329 0.054901961
-1.07131 -15.558215 -1.4608159 0.043137256
0.55016184 -31.874712 0.73963213 0.16470589
0.48142624 -20.31802 -1.4233719 0.0039215689
-0.42828822 -18.369852 -1.50341 0.0039215689
2.9897852 -47.927586 1.3948411 0.043137256
-0.88589197 -29.024658 0.50529164 0.0078431377
1.3489058 -18.007936 -1.1587596 0.0039215689
-1.169457 -16.625311 -0.97458023 0.0039215689
0.55030525 -31.845337 1.8525437 0.15294118
-1.1020021 -34.056118 1.3872441 0.019607844
0.40826517 -7.8552885 -0.36901307 0
-0.35036588 -16.561909 -0.87127566 0.0039215689
0.55071753 -31.816263 3.9045515 0.098039217
-1.1015582 -34.054947 2.7811394 0.011764706
1.3563547 -18.141647 -0.74313635 0.0039215689
-1.1721067 -16.655262 -0.58633906 0.10588235
-1.0998847 -34.038536 6.2103748 0.054901961
0.46928832 -18.210703 -0.42642149 0
0.12767673 -5.0264177 -2.3495119 0
-0.41789854 -16.77072 -0.49107513 0.039215688
0.38102639 -8.1583624 -2.2869139 0.047058824
-0.11730868 -10.296752 -2.0644217 0.0039215689
0.37437245 -5.1199117 -0.0032014144 0
-1.3886197 -18.307178 -0.21623072 0.05882353
0.39442495 -13.714993 -2.1365709 0.054901961
2.9381528 -50.197018 0.29015699 0.035294119
-0.47421575 -17.984196 -0.10703949 0.070588239
0.39875835 -15.462509 -1.6683329 0.047058824
-1.1263702 -15.561046 -1.4615437 0.043137256
0.43901742 -31.927158 0.74087566 0.13333334
-2.2930958 -27.767357 0.3232795 0.039215688
0.41041374 -20.2824 -1.4208421 0.0039215689
-0.49111193 -18.339102 -1.5011152 0.0039215689
2.0680506 -33.238056 0.96613646 0.019607844
-0.98478907 -28.968185 0.50440973 0.0078431377
1.2952404 -18.190672 -1.1702489 0.0039215689
-1.2301445 -16.64769 -0.97618997 0.0039215689
0.43933114 -31.925659 1.8572299 0.12156863
-1.226259 -34.166576 1.3920062 0.043137256
0.4051795 -18.036352 -0.84281546 0
-0.40743363 -16.543362 -0.87042296 0.011764706
0.43994176 -31.935829 3.9192128 0.098039217
-1.2278323 -34.20892 2.7942002 0.011764706
-1.2329013 -16.67766 -0.58729798 0.10588235
-1.2260015 -34.190449 6.2391162 0.05882353
0.40548751 -18.114988 -0.42417422 0
0.11155289 -5.0147533 -2.3444366 0
0.8392185 -9.9429741 -0.17688027 0
-0.47390485 -16.776028 -0.49129167 0.031372551
0.35397294 -8.1583834 -2.2869062 0.043137256
-0.15125501 -10.291191 -2.063628 0.0039215689
0.34897944 -13.679456 -2.1310253 0.047058824
-0.34690422 -14.219496 -1.8148031 0.019607844
2.6784894 -48.26355 0.2788485 0.019607844
-0.53524107 -18.009291 -0.10718379 0.05882353
0.34749138 -15.454595 -1.6674618 0.035294119
-1.1787479 -15.563952 -1.4622723 0.050980393
0.33301455 -32.071205 0.74426198 0.15294118
-2.3918557 -27.826063 0.32410169 0.035294119
0.34316364 -20.274473 -1.4202652 0.0039215689
-0.55152351 -18.328213 -1.5004476 0.0039215689
1.9524546 -33.13171 0.96290654 0.019607844
1.2375922 -18.249489 -1.1738114 0.0039215689
-1.2920277 -16.709877 -0.98012316 0.0039215689
0.33333114 -32.073494 1.865871 0.12941177
-1.3492913 -34.356716 1.4000281 0.019607844
0.34561402 -17.772686 -0.83052576 0
0.33391818 -32.074867 3.9363105 0.10588235
-1.3505821 -34.390602 2.8095393 0.011764706
1.7021379 -27.928635 -1.1417412 0.0078431377
-1.291347 -16.704109 -0.58839709 0.098039217
-1.3479781 -34.357929 6.2707276 0.05882353
0.34557882 -17.939083 -0.42007053 0
0.094823718 -4.9993696 -2.3376706 0
-0.53352422 -16.792973 -0.49185583 0.027450981
0.32551202 -8.1544561 -2.2858198 0.043137256
-0.18612975 -10.269755 -2.0596967 0
-1.7024298 -20.141039 -0.23766778 0.0039215689
0.30115867 -13.695137 -2.1334705 0.054901961
-0.39886141 -14.260525 -1.8203424 0.047058824
2.5084019 -48.235374 0.27868634 0.019607844
-0.59895229 -18.022022 -0.10725812 0.05882353
0.29620701 -14.853928 -1.6027868 0.015686275
-1.2330673 -15.55848 -1.462257 0.047058824
0.22041355 -32.218861 0.74774331 0.15294118
-2.4967201 -27.89188 0.32501906 0.027450981
0.27251557 -20.246351 -1.4182932 0.0039215689
-0.61400938 -18.297047 -1.4981531 0.0039215689
1.8319926 -33.029209 0.95979452 0.019607844
-1.1749089 -28.826559 0.50215387 0.0078431377
-1.3568623 -16.767559 -0.98382306 0.0039215689
0.22077695 -32.208958 1.8738157 0.11764706
-1.4775078 -34.506187 1.4064214 0.019607844
0.28481048 -17.492826 -0.81749189 0
-0.51831931 -16.505831 -0.86871827 0.027450981
0.22136478 -32.209549 3.9529223 0.094117649
-1.4801674 -34.563564 2.8242295 0.011764706
-1.35413 -16.741978 -0.58991313 0.10588235
-1.4769025 -34.52071 6.3016229 0.05882353
0.28382319 -17.74297 -0.41550192 0
0.076550245 -5.012887 -2.3444269 0
-0.5925895 -16.797728 -0.49207154 0.035294119
0.29707944 -8.1504297 -2.2847338 0.039215688
-0.22264177 -10.279531 -2.0620394 0
0.21843369 -18.19536 -0.002589453 0.0039215689
0.2532613 -13.706701 -2.1353011 0.054901961
-0.44683176 -14.22609 -1.8162895 0.050980393
2.3411674 -48.270554 0.27889815 0.019607844
-0.66344208 -18.046515 -0.10740146 0.05882353
0.24439041 -14.849632 -1.6023438 0.015686275
-1.2844253 -15.525096 -1.4596413 0.050980393
0.10675374 -32.370125 0.75131816 0.14117648
-2.6037602 -27.973211 0.32612398 0.027450981
0.22319096 -17.548582 -1.2297748 0.0039215689
-0.67809647 -18.29751 -1.4984603 0.0039215689
1.7027681 -32.694565 0.9499259 0.019607844
-1.2700756 -28.725185 0.5005011 0.0078431377
1.2417433 -21.465878 -1.3796164 0.011764706
-1.415801 -16.76543 -0.98403895 0.0039215689
0.10709184 -32.367992 1.8831571 0.11764706
0.22431977 -17.420528 -0.81412756 0
-0.57592863 -16.502659 -0.86870199 0.027450981
0.10768741 -32.367668 3.972461 0.094117649
-1.6089423 -34.700214 2.8359885 0.015686275
-1.4176166 -16.783587 -0.59156847 0.098039217
-1.6074262 -34.690876 6.3339539 0.05882353
0.22315429 -17.58264 -0.41176954 0
0.058615476 -5.0190988 -2.3478022 0
-0.65098065 -16.790302 -0.49193892 0.039215688
0.26862839 -8.150156 -2.2847257 0.050980393
-0.25781274 -10.265682 -2.0596766 0.0039215689
-1.7985582 -19.720591 -0.23290914 0.0039215689
0.20500812 -13.741809 -2.1408203 0.05882353
-0.49074936 -14.128121 -1.8041596 0.039215688
-0.72811919 -18.070772 -0.10754476 0.062745102
0.19259939 -14.845156 -1.6019009 0.027450981
-1.3381765 -15.515297 -1.4592549 0.054901961
-0.0079717338 -32.520985 0.7548933 0.15294118
-2.7153301 -28.08992 0.32765085 0.023529412
0.16357131 -17.40435 -1.2197191 0.0039215689
-0.74172324 -18.289787 -1.4981171 0.0039215689
1.5886292 -32.699047 0.94995856 0.019607844
-1.3672094 -28.667416 0.49961862 0.0078431377
1.1092379 -19.933048 -1.2811506 0.0039215689
-1.4777949 -16.790878 -0.98588067 0.0039215689
-0.0075770319 -32.514645 1.8918009 0.11764706
-1.7419434 -34.883461 1.42247 0.043137256
0.16291681 -17.471884 -0.81652749 0
-0.63473356 -16.51922 -0.86973131 0.035294119
-0.0071033835 -32.525375 3.9919996 0.094117649
-1.7420616 -34.89209 2.8523076 0.015686275
1.1072881 -19.877487 -0.8131696 0.0039215689
-1.4822898 -16.832909 -0.59350234 0.074509807
-1.7396419 -34.868393 6.3677206 0.05882353
0.16250627 -17.518066 -0.41026622 0
0.041560829 -5.010776 -2.3444169 0
1.0349555 -19.789484 -0.34837976 0.0039215689
-0.70983678 -16.790653 -0.49203852 0.035294119
0.24029565 -8.1420784 -2.2825613 0.054901961
-0.29439211 -10.275202 -2.0620191 0.0039215689
0.15686566 -13.753036 -2.1426508 0.054901961
-0.54511738 -14.204259 -1.8142424 0.050980393
-0.79297334 -18.094801 -0.10768802 0.05882353
0.1410789 -14.824592 -1.5997453 0.027450981
-1.3909802 -15.497396 -1.4581252 0.062745102
-0.12374556 -32.671432 0.75846881 0.14117648
-2.8344855 -28.2658 0.32988083 0.0039215689
0.10573375 -17.20805 -1.206039 0.0039215689
-0.8040337 -18.261953 -1.4961479 0.0039215689
2.1032767 -51.188587 1.4889061 0.054901961
-1.4636979 -28.605326 0.49866602 0.0078431377
1.0358591 -19.823828 -1.2739713 0.0039215689
-1.5503063 -16.907362 -0.99306428 0.0039215689
-0.12332413 -32.664879 1.9006773 0.12941177
-1.8743849 -35.043423 1.4293534 0.047058824
0.10621434 -17.183426 -0.80312294 0
-0.6939159 -16.53956 -0.87096965 0.023529412
-0.12257791 -32.654881 4.0081244 0.094117649
1.0311103 -19.680248 -0.80501509 0.0039215689
-1.5500202 -16.905815 -0.59627187 0.05882353
-1.8721104 -35.029697 6.3986163 0.05882353
0.10290667 -17.413303 -0.4078345 0
0.031339049 -5.0132446 -2.3461664 0
0.96587741 -19.547865 -0.34415019 0.0039215689
-0.76098353 -16.786802 -0.49206039 0.039215688
0.21958368 -8.1300507 -2.2793782 0.043137256
-0.32145149 -10.253277 -2.0581408 0.0078431377
0.038146198 -18.040878 -0.0025820127 0.050980393
-1.8972256 -19.43486 -0.22975363 0.0039215689
0.11618081 -13.760139 -2.1439145 0.05882353
-0.58856225 -14.220798 -1.8167967 0.06666667
1.3616667 -32.516239 0.18676618 0.0078431377
-0.85190207 -18.13854 -0.10798162 0.054901961
0.097088635 -14.807823 -1.5980633 0.027450981
-1.4385283 -15.499084 -1.4588912 0.078431375
-0.23319817 -32.821468 0.76203507 0.13333334
-0.58164436 -8.1560717 0.092744917 0
0.055541813 -17.075392 -1.1968616 0.0039215689
-0.86032706 -18.257767 -1.496165 0.0039215689
-1.5518394 -28.534916 0.49756095 0.0078431377
0.96570134 -19.550755 -1.2563487 0.0039215689
-1.6018574 -16.900572 -0.99308258 0.0039215689
-0.23267055 -32.810696 1.909312 0.11764706
-2.0022132 -35.226784 1.4372183 0.047058824
0.056112438 -17.050591 -0.79701149 0
-0.74740785 -16.583593 -0.87350142 0.015686275
-0.23200816 -32.807777 4.0271664 0.094117649
-2.0055349 -35.282249 2.885601 0.031372551
0.96266258 -19.446772 -0.79543698 0.0039215689
-1.6126804 -16.994318 -0.59963304 0.05882353
-1.9994011 -35.206181 6.4323859 0.05882353
0.053326607 -17.20838 -0.4031224 0
0.012814254 -5.0265002 -2.3529224 0
-0.82014138 -16.79073 -0.49227589 0.035294119
0.19111982 -8.1333294 -2.280448 0.047058824
-0.35723937 -10.250804 -2.0581305 0.0078431377
-0.02491653 -18.04361 -0.0025637103 0.050980393
-1.9497836 -19.299751 -0.22825456 0.0039215689
0.068927824 -13.723609 -2.1383684 0.047058824
-0.63819832 -14.217368 -1.8167825 0.074509807
0.91036904 -20.016277 0.11363392 0.0039215689
-0.91775733 -18.170076 -0.10817044 0.054901961
0.04574737 -14.790879 -1.5963359 0.027450981
-1.4930966 -15.496634 -1.4592474 0.078431375
-0.35091394 -32.963085 0.76542532 0.10588235
0.0010880828 -16.838823 -1.1803942 0.0039215689
-0.92292649 -18.237455 -1.4948462 0.0039215689
1.2435858 -32.342384 0.93932146 0.18039216
-1.6500244 -28.508089 0.49723896 0.0078431377
-1.6932449 -17.163189 -1.0088581 0.0039215689
-0.35025573 -32.94812 1.9174914 0.086274512
-2.1390066 -35.413639 1.4452447 0.023529412
0.001663208 -16.817699 -0.78621113 0
-0.80529112 -16.579594 -0.87348497 0.015686275
-0.34999669 -32.964245 4.0467067 0.094117649
-2.1413586 -35.45269 2.9002931 0.047058824
0.88970363 -19.260948 -0.7877714 0.0039215689
-1.6882105 -17.122242 -0.60435176 0.023529412
-2.1356244 -35.386101 6.4668722 0.05882353
-0.0073547661 -17.235157 -0.40375504 0
-0.0044594407 -5.0216107 -2.3512273 0
-0.87992936 -16.802425 -0.49272358 0.039215688
0.1627311 -8.1326599 -2.2804399 0.050980393
-0.39272487 -10.244296 -2.0573361 0.0078431377
-0.087998092 -18.046122 -0.0025454129 0.054901961
-2.0048592 -19.192303 -0.22707944 0.0039215689
0.022532165 -13.663209 -2.1291339 0.050980393
-0.68752426 -14.209806 -1.8162634 0.05882353
-0.98324972 -18.193396 -0.10831324 0.054901961
-0.005677253 -14.781708 -1.5954647 0.027450981
-1.5447321 -15.470276 -1.4573748 0.070588239
-2.0489261 -19.549536 0.22741738 0.0039215689
-0.98214155 -18.173197 -1.4899499 0.0039215689
1.1285238 -32.253296 0.93667436 0.16078432
-1.7474456 -28.472946 0.49677679 0.0078431377
0.82778978 -19.494581 -1.2524742 0.0039215689
-2.0100894 -19.232513 -1.1305323 0.0039215689
-2.2771251 -35.59996 1.4532715 0.023529412
-0.054808378 -16.728437 -0.78210419 0
-0.86552626 -16.60726 -0.87514102 0.015686275
-0.4650569 -32.961525 4.0467396 0.047058824
-2.2772107 -35.606709 2.9136834 0.047058824
0.8181479 -19.078848 -0.78026891 0.0039215689
-2.2731242 -35.565502 6.5013595 0.043137256
-0.065586418 -17.157778 -0.40197378 0
-0.023114204 -5.0347342 -2.3579831 0
0.75081038 -19.037218 -0.3351059 0.0039215689
-0.93981773 -16.813908 -0.49317127 0.035294119
0.13434295 -8.1318903 -2.2804315 0.050980393
-0.42939502 -10.253305 -2.0596786 0.0078431377
-0.15133709 -18.05641 -0.0025266882 0.050980393
-2.0465934 -18.98551 -0.22474857 0.0039215689
-0.024362057 -13.634262 -2.1248174 0.05882353
-0.73434764 -14.170428 -1.8117062 0.019607844
-1.0501668 -18.232424 -0.1085479 0.054901961
-0.056815684 -14.764409 -1.5937372 0.027450981
-1.599227 -15.46745 -1.457731 0.050980393
-0.11312082 -16.720175 -1.1722749 0.0039215689
-1.045882 -18.17234 -1.490257 0.0039215689
1.0144072 -32.179798 0.93449301 0.16078432
-1.8452742 -28.445444 0.49645469 0.0078431377
0.75733936 -19.376331 -1.2447842 0.0039215689
-2.0565398 -19.061676 -1.1209918 0.0039215689
-0.59142488 -33.329472 1.9401363 0.0078431377
-0.11250991 -16.702892 -0.78097194 0
-0.92783374 -16.658602 -0.87805158 0.0078431377
-0.58846277 -33.248104 4.0823741 0.011764706
-2.4141774 -35.760212 2.9270735 0.062745102
0.50638843 -6.8328943 -0.28166312 0
-2.4109998 -35.732594 6.5336933 0.043137256
-0.037151217 -4.9899745 -2.3376956 0
0.68138242 -18.858484 -0.33195254 0.0039215689
-0.99979705 -16.825174 -0.49361891 0.039215688
0.1060845 -8.1271715 -2.2793455 0.050980393
-0.46454316 -10.242637 -2.0581 0.0078431377
-0.21474898 -18.066473 -0.0025079527 0.050980393
-2.0739388 -18.679516 -0.22126225 0.0039215689
-0.071694851 -13.624904 -2.1235743 0.070588239
-0.78026146 -14.122986 -1.8061392 0.031372551
0.69107592 -19.436932 0.1102767 0
-1.1180179 -18.279186 -0.10882844 0.050980393
-0.1069335 -14.719106 -1.5890125 0.027450981
-1.6511381 -15.444691 -1.45623 0.050980393
-2.1573355 -19.318012 0.22492367 0.0078431377
-0.16876996 -16.634634 -1.1664031 0.0039215689
-0.91489786 -15.77915 -1.2948034 0
0.90042353 -32.081909 0.93161243 0.18039216
-1.9422808 -28.409636 0.49599233 0.0078431377
0.721349 -21.293381 -1.3674854 0.0039215689
-2.0904262 -18.803642 -1.1063427 0.0039215689
-0.71240288 -33.469589 1.9485496 0.0078431377
-0.16900027 -16.645193 -0.77835256 0
-0.98046476 -16.58629 -0.8744809 0.027450981
-0.70951229 -33.399311 4.1014276 0.047058824
-2.5535321 -35.929089 2.941767 0.062745102
0.67879963 -18.709875 -0.76510239 0.0039215689
-2.0737793 -18.677351 -0.65973014 0.0039215689
-2.5510223 -35.910927 6.5681796 0.043137256
-0.056148678 -5.0174999 -2.3512127 0
0.46775115 -7.4261484 -0.13282374 0
-1.0576103 -16.844446 -0.49429953 0.039215688
0.079547822 -8.1147079 -2.2761033 0.047058824
-0.49751061 -10.228091 -2.0557377 0.0078431377
-0.27508503 -18.076429 -0.0024901088 0.054901961
-2.1544886 -18.810059 -0.22286285 0.0039215689
-0.11616945 -13.603619 -2.1204882 0.070588239
-0.82340306 -14.075605 -1.8005731 0.039215688
0.62439704 -19.269911 0.10931195 0
-1.1833541 -18.329954 -0.10913278 0.047058824
-0.15474862 -14.689625 -1.5860013 0.027450981
-1.7007546 -15.426064 -1.4551013 0.043137256
-1.0654004 -40.243397 0.93578237 0.015686275
-2.2017021 -19.162851 0.22320653 0.0039215689
-0.22321868 -16.612822 -1.1649934 0.0039215689
-1.1655028 -18.114622 -1.4863199 0.0039215689
0.792974 -32.003532 0.92931253 0.16078432
-2.034791 -28.381887 0.49566871 0.0078431377
0.65015531 -21.250528 -1.3646528 0.0039215689
-2.1320541 -18.641029 -1.0972683 0.0039215689
-0.82922059 -33.629433 1.9581252 0.0078431377
-2.6934988 -36.16021 1.4775158 0.023529412
-0.2223435 -16.591406 -0.77592003 0
-1.0378211 -16.609585 -0.8759287 0.019607844
-2.6888132 -36.109871 2.9574361 0.062745102
0.6141665 -18.51498 -0.75711399 0.0039215689
-2.1069918 -18.455193 -0.65219229 0.0039215689
-2.6866932 -36.097088 6.6041012 0.043137256
-0.23682642 -17.000528 -0.39839554 0.035294119
-0.067277253 -4.9437604 -2.3174033 0
0.55087227 -18.640215 -0.3280853 0.0039215689
-1.1188583 -16.867241 -0.49509537 0.031372551
0.050771743 -8.1251945 -2.2793298 0.054901961
-0.5338971 -10.23282 -2.057296 0.011764706
-0.33864772 -18.08606 -0.0024713497 0.050980393
-2.2064865 -18.702074 -0.22168866 0.0039215689
-0.16303128 -13.586044 -2.1180155 0.047058824
-0.87566763 -14.106931 -1.8051023 0.023529412
0.5532403 -18.870707 0.10698959 0
-0.20524174 -14.667837 -1.5838459 0.027450981
-1.7556748 -15.426634 -1.4558289 0.043137256
-2.250566 -19.023003 0.22167765 0.0039215689
-0.27979714 -16.574768 -1.1624675 0.0039215689
-1.2266204 -18.085327 -1.4843509 0.0039215689
0.68032634 -31.908861 0.92654806 0.16078432
-2.1359541 -28.397223 0.49611741 0.0078431377
-2.1971066 -18.632185 -1.09725 0.0039215689
-0.95315939 -33.792633 1.9679359 0.0078431377
-2.8337502 -36.308548 1.4840761 0.023529412
-1.0964918 -16.612532 -0.87633032 0.023529412
-0.95095187 -33.752193 4.1458731 0.082352944
-2.8320053 -36.293571 2.9734333 0.062745102
0.54732358 -18.28792 -0.74782377 0.0039215689
-2.176306 -18.482077 -0.65342748 0.0039215689
-2.8303041 -36.286106 6.6407423 0.027450981
-0.29694688 -17.018286 -0.39884266 0.027450981
-0.091044307 -5.0035 -2.3461316 0
0.48075771 -18.344807 -0.32291257 0.0039215689
-1.1825008 -16.881582 -0.49565822 0.031372551
0.02165404 -8.1085796 -2.2750089 0.043137256
-0.56995904 -10.213817 -2.0541484 0.0078431377
-0.40544593 -18.095333 -0.0024516738 0.047058824
-2.2514834 -18.526176 -0.21972798 0.0039215689
-0.21113008 -13.544514 -2.1118546 0.039215688
-0.9208228 -14.031149 -1.7960014 0.023529412
0.48395264 -18.851254 0.10689244 0
-0.25865787 -14.657686 -1.5829741 0.027450981
-1.8116443 -15.4148 -1.4554415 0.043137256
-2.3113077 -18.949907 0.22094682 0.0039215689
-0.339347 -16.544373 -1.1604985 0.0039215689
-1.2928963 -18.079357 -1.4843321 0.0039215689
0.56291026 -31.83382 0.92436761 0.16078432
-2.2429485 -28.419712 0.49670777 0.0078431377
0.37417358 -0.75436211 -0.051814791 0.0039215689
-2.2334919 -18.397285 -1.0839946 0.0039215689
-1.0845239 -33.963093 1.9782139 0.0078431377
-2.9887571 -36.535351 1.4939008 0.070588239
-0.33951265 -16.550819 -0.77421296 0.0039215689
-1.1610279 -16.646824 -0.87840366 0.043137256
-1.0819521 -33.917683 4.1668801 0.082352944
-2.9836164 -36.484055 2.9900839 0.062745102
0.47925332 -18.116596 -0.74081022 0.0039215689
-2.2165883 -18.278675 -0.64658481 0.0039215689
-2.9812825 -36.470062 6.6766682 0.015686275
-0.36120075 -17.059675 -0.39984584 0.031372551
-0.10763407 -5.0019464 -2.3461268 0
0.41937423 -18.145105 -0.31941342 0.0039215689
-1.2415085 -16.908184 -0.49657089 0.027450981
-0.0055891871 -8.1150808 -2.2771573 0.062745102
-0.60456896 -10.218455 -2.0557072 0.0078431377
-0.46673995 -18.120634 -0.0024328579 0.043137256
-2.2957022 -18.398628 -0.21832407 0.0039215689
-0.2549482 -13.518826 -2.1081536 0.05882353
-0.96998066 -14.054443 -1.7995217 0.015686275
0.42096516 -18.679531 0.10590316 0
-2.2334037 -27.319746 -0.16100857 0.0039215689
-0.30817914 -14.67539 -1.585101 0.027450981
-1.8610373 -15.395659 -1.4543128 0.043137256
-1.4766028 -40.006451 0.93077224 0.015686275
-2.3523448 -18.790491 0.21918197 0.0039215689
-1.3517065 -18.061836 -1.4833394 0.0039215689
0.45768443 -31.958231 0.92801082 0.16078432
-2.3447649 -28.490517 0.49813649 0.0078431377
0.41912359 -18.142685 -1.1654353 0.0039215689
-2.256125 -18.123768 -1.0684192 0.0039215689
-1.2061615 -34.153545 1.9896528 0.0078431377
-3.1261945 -36.695095 1.5009493 0.023529412
-0.39384121 -16.536406 -0.7736395 0.011764706
-1.2184966 -16.665516 -0.87964219 0.078431375
-3.1238656 -36.675137 3.006731 0.062745102
0.41870496 -17.945002 -0.73379892 0.0039215689
-2.2909451 -18.364948 -0.64990985 0.0039215689
-0.41758507 -17.053165 -0.39973682 0.043137256
-0.12616146 -5.0110755 -2.3511927 0
0.35627654 -17.825218 -0.31382501 0.0039215689
-1.3040564 -16.938267 -0.49759871 0.027450981
-0.033530265 -8.1060295 -2.2749929 0.050980393
-0.63984531 -10.211093 -2.054913 0.0078431377
-0.53077966 -18.133585 -0.0024138107 0.043137256
-0.3005631 -13.484985 -2.1032226 0.054901961
-1.0186403 -14.045736 -1.799003 0.015686275
0.35587826 -18.5236 0.10500818 0
-2.335042 -27.374184 -0.16134876 0.0039215689
-0.36038709 -14.692796 -1.5872271 0.027450981
-1.9124236 -15.372022 -1.4528118 0.035294119
-1.3475573 -34.587906 0.80440313 0.0078431377
-2.3967779 -18.638447 0.21751158 0.0039215689
-0.45154709 -16.531195 -1.1599088 0.0039215689
-1.3994508 -17.900991 -1.4706401 0.0039215689
0.34602275 -32.106281 0.93235511 0.16078432
-2.4500952 -28.540569 0.49921629 0.0078431377
0.35595018 -17.939167 -1.1523792 0.0039215689
-2.3193712 -18.114494 -1.0684015 0.0039215689
-1.333286 -34.307365 1.9989985 0.0078431377
-3.2731204 -36.873581 1.5088155 0.023529412
-0.45135981 -16.529648 -0.77343714 0.019607844
-1.2801945 -16.695648 -0.88150722 0.074509807
-1.3072782 -33.795986 4.1532907 0.011764706
-3.2726321 -36.872993 3.0240326 0.06666667
0.35612378 -17.869127 -0.7306906 0.0039215689
-2.3057282 -18.023394 -0.6381948 0.0039215689
-0.47690731 -17.046322 -0.399627 0.047058824
-0.14143378 -4.9876781 -2.3410463 0
-1.3668377 -16.968121 -0.49862656 0.031372551
-0.06161949 -8.100728 -2.2739069 0.050980393
-0.67428535 -10.195802 -2.0525503 0.011764706
-0.59471196 -18.142311 -0.0023949859 0.043137256
-2.3916273 -18.16604 -0.21579249 0.023529412
-0.34700239 -13.470725 -2.1013653 0.070588239
-1.0684707 -14.048702 -1.7999986 0.015686275
0.29189301 -18.363445 0.10408946 0
-0.31201112 -6.6610284 -0.041913774 0
-0.41061616 -14.670302 -1.5850717 0.023529412
-1.9642746 -15.352152 -1.4516826 0.027450981
-2.4528086 -18.569361 0.21682611 0.0039215689
-0.50691843 -16.484394 -1.1568257 0.0039215689
-1.4387908 -17.668642 -1.4520882 0.0039215689
0.2333376 -32.249939 0.9365831 0.13725491
-3.4815609 -37.637592 0.65972036 0.015686275
0.29444844 -17.675552 -1.1354884 0.0039215689
-2.3717864 -18.033936 -1.064204 0.0039215689
-1.4623594 -34.476665 2.0092762 0.0078431377
-3.426224 -37.099194 1.5186396 0.023529412
-0.50757158 -16.498751 -0.77211952 0.027450981
-1.3409054 -16.713631 -0.88274497 0.027450981
-1.4330356 -33.936607 4.1713696 0.023529412
-3.4228303 -37.070248 3.0413339 0.06666667
0.29503575 -17.565226 -0.71831173 0.0039215689
-0.53661978 -17.047253 -0.39970279 0.043137256
-0.15922254 -4.9894719 -2.3427317 0
0.2325439 -17.732706 -0.31218788 0.0039215689
-1.4298441 -16.99774 -0.49965429 0.039215688
-0.089674711 -8.0953302 -2.2728207 0.050980393
-0.71069413 -10.199899 -2.0541084 0.011764706
-0.65939087 -18.162798 -0.0023754123 0.043137256
-0.3933472 -13.456305 -2.0995078 0.070588239
-1.1225138 -14.090949 -1.806042 0.023529412
-0.46046865 -14.643667 -1.5824883 0.027450981
-2.0190723 -15.351785 -1.4524103 0.035294119
-2.4899418 -18.381548 0.21473292 0.0039215689
-0.074277341 -7.8322315 -0.55157751 0
-1.4895396 -17.559143 -1.4436167 0.0039215689
0.11956447 -32.40519 0.9411611 0.14117648
-3.5956542 -37.460857 0.65688306 0.015686275
0.23364757 -17.559423 -1.1280571 0.0039215689
-2.4150729 -17.897993 -1.0567559 0.0039215689
-1.5935304 -34.661423 2.0204849 0.0078431377
-3.5746291 -37.264565 1.5260172 0.023529412
-0.56538248 -16.49958 -0.77228892 0.023529412
-1.402179 -16.735363 -0.88419169 0.0078431377
-1.5674179 -34.211536 4.2060318 0.023529412
-3.5748615 -37.270866 3.0589614 0.06666667
0.23530042 -17.361034 -0.7099995 0.0039215689
-2.4069088 -17.846277 -0.63258976 0.0039215689
-0.59634537 -17.047979 -0.39977857 0.039215688
-0.16992387 -4.9948034 -2.3461661 0
0.17840247 -17.704124 -0.31172562 0.0039215689
-1.4856347 -17.027119 -0.50071925 0.039215688
-0.11044452 -8.0936775 -2.2728674 0.050980393
-0.73839021 -10.192163 -2.0533638 0.0078431377
-0.71678483 -18.183044 -0.0023944709 0.043137256
-2.4141254 -17.538002 -0.2086743 0.070588239
-0.43309352 -13.457504 -2.1001556 0.070588239
-1.1633726 -14.07776 -1.8050611 0.015686275
-1.8033705 -19.932678 -0.11853573 0.0039215689
-0.50317025 -14.624798 -1.5808053 0.027450981
-2.0664477 -15.351206 -1.4531753 0.039215688
-2.5309319 -18.272686 0.21354643 0.0039215689
-1.5390463 -17.512909 -1.440384 0.0039215689
0.01216197 -32.552044 0.9454844 0.16470589
-3.7177458 -37.434837 0.65670931 0.015686275
0.30482945 -6.4343328 -0.41564018 0
-2.4500077 -17.761953 -1.0493404 0.0039215689
-1.7174563 -34.825745 2.0305183 0.0078431377
-3.7108078 -37.373707 1.5311108 0.023529412
-0.61768436 -16.532108 -0.77398652 0.035294119
-3.7205577 -37.466888 3.0762634 0.047058824
0.18393816 -17.200603 -0.70352018 0.0039215689
-2.4303293 -17.639067 -0.62564301 0.0039215689
-0.32557717 -6.4269385 1.1757541 0
-0.64840257 -17.0445 -0.39980209 0.039215688
-0.18491247 -4.9712515 -2.3360202 0
0.1185441 -17.571358 -0.3094106 0.0039215689
-1.5513433 -17.076136 -0.50232679 0.027450981
-0.13942996 -8.1034603 -2.2760935 0.05882353
-0.77264106 -10.176516 -2.0510011 0.0078431377
-0.78279316 -18.219034 -0.0023735021 0.043137256
-2.4676213 -17.48078 -0.20810257 0.12156863
-0.47981456 -13.45065 -2.0995271 0.070588239
-1.2102786 -14.052583 -1.8025231 0.015686275
0.10921493 -18.213638 0.10323544 0.06666667
-1.8522909 -19.742111 -0.11746094 0
-0.55421698 -14.621636 -1.5807906 0.027450981
-2.1181016 -15.330791 -1.4520458 0.043137256
-2.57864 -18.163731 0.21239117 0.0039215689
-0.68345952 -16.653509 -1.1693619 0.0039215689
-1.6028532 -17.529884 -1.4423172 0.0039215689
-0.10358515 -32.694496 0.94971395 0.16470589
0.31441313 -4.2587337 -0.27631715 0
-2.4844108 -17.582497 -1.0393388 0.0039215689
-1.8506813 -35.001534 2.0412626 0.0078431377
-5.1654668 -49.086857 2.0129175 0.043137256
-0.68072116 -16.612276 -0.77787304 0.0039215689
-1.5263211 -16.853565 -0.89109403 0.0039215689
-3.8759222 -37.670238 3.0942187 0.047058824
0.12648433 -17.023989 -0.69634718 0.0039215689
-2.4873917 -17.601542 -0.6246509 0.0039215689
-0.0063940883 -3.3979187 0.62019336 0
-0.70764124 -17.036823 -0.39969209 0.035294119
-0.20142165 -4.9620585 -2.3326344 0
-1.6206508 -17.1527 -0.50474656 0.027450981
-0.16642013 -8.0823936 -2.2706952 0.062745102
-0.80906355 -10.180235 -2.0525594 0.0078431377
-0.84959817 -18.262766 -0.0023519387 0.047058824
-2.5325592 -17.494415 -0.20836236 0.019607844
-0.52808511 -13.467297 -2.1025867 0.054901961
0.04564032 -18.212591 0.10325397 0.06666667
-0.60364902 -14.594489 -1.5782071 0.035294119
-2.1702924 -15.314133 -1.4512879 0.043137256
-3.2545598 -54.071346 1.2610722 0.031372551
-2.6289003 -18.07439 0.2114704 0.0039215689
-1.667259 -17.550585 -1.4445757 0.0039215689
-0.22046903 -32.844524 0.9541769 0.16470589
0.067033559 -17.018234 -1.0935378 0.0039215689
-2.5320067 -17.489679 -1.0344454 0.0039215689
-1.985419 -35.180801 2.0522406 0.0078431377
-5.3409343 -49.102936 2.0144348 0.043137256
-0.73950458 -16.620441 -0.77841383 0.0078431377
-1.5897593 -16.886496 -0.89316732 0.0039215689
-1.9482498 -34.636959 4.2612367 0.011764706
-4.0332084 -37.876915 3.1124997 0.047058824
0.068081409 -16.967064 -0.69405311 0.0039215689
-2.5370076 -17.520454 -0.62212741 0.0039215689
-0.29300156 -9.9881411 2.6794996 0
-0.76710296 -17.032932 -0.39967489 0.039215688
-0.22090176 -4.9780087 -2.3410804 0
-1.69052 -17.228987 -0.50716615 0.011764706
-0.19435874 -8.0766068 -2.269609 0.050980393
-0.84365833 -10.168245 -2.0509808 0.0078431377
-0.91559863 -18.290293 -0.0023313675 0.047058824
-0.57369685 -13.444344 -2.0994999 0.074509807
-1.3163851 -14.108137 -1.8110758 0.0078431377
-0.018021107 -18.215322 0.10329594 0.06666667
-1.9605148 -19.479836 -0.11600023 0.027450981
-0.6515038 -14.547339 -1.573483 0.035294119
-2.223068 -15.30122 -1.4509013 0.047058824
-3.430604 -53.878834 1.2569273 0.031372551
-0.80363727 -16.701427 -1.1732309 0.0078431377
-0.33815351 -32.982147 0.9582904 0.05882353
-4.4187856 -39.967014 0.70233899 0.027450981
0.01109466 -16.85741 -1.0832957 0.0039215689
-2.569628 -17.341631 -1.026302 0.0039215689
-2.1228507 -35.379467 2.064383 0.031372551
-5.5204034 -49.150135 2.0172577 0.043137256
-0.79695296 -16.608471 -0.77802545 0.011764706
-2.080338 -34.787041 4.2807808 0.023529412
-4.1915231 -38.078995 3.130456 0.050980393
0.011109799 -16.861994 -0.68980783 0.0039215689
-2.5767212 -17.38406 -0.61765504 0.0039215689
-0.81462812 -9.9355803 1.821789 0
-0.8285284 -17.056759 -0.40030721 0.035294119
-0.23471424 -4.9471102 -2.3275542 0
-0.064841002 -17.543699 -0.30893946 0.039215688
-0.22226182 -8.0707235 -2.2685227 0.043137256
-0.87866282 -10.160031 -2.0501866 0.0078431377
-0.9820981 -18.321571 -0.0023104753 0.043137256
-2.6655633 -17.536732 -0.20906655 0.0039215689
-0.62178981 -13.456713 -2.1019449 0.06666667
-1.358807 -14.047009 -1.8039953 0.023529412
-0.081701458 -18.217829 0.10333791 0.06666667
-2.0132928 -19.348497 -0.11527026 0.015686275
-0.70050991 -14.519868 -1.5708997 0.054901961
-2.2798672 -15.311673 -1.4527429 0.062745102
-3.9727597 -58.638794 1.368692 0.031372551
-2.7522755 -18.037197 0.21131843 0.035294119
-0.86281335 -16.709143 -1.1740505 0.0039215689
-1.8273826 -17.840553 -1.4695756 0.023529412
-0.57560837 -7.7120967 0.13271515 0
-0.044827938 -16.740307 -1.0758657 0.0039215689
-2.6253638 -17.303698 -1.0246595 0.0039215689
-2.2596221 -35.549728 2.0748959 0.031372551
-5.6919298 -49.12925 2.0173068 0.043137256
-0.85728419 -16.63615 -0.77949542 0.011764706
-1.74336 -17.161755 -0.90839171 0.0039215689
-2.2493119 -35.419651 4.3598313 0.011764706
-4.3532491 -38.296253 3.1497152 0.050980393
-0.045530915 -16.772717 -0.6862132 0.0039215689
-0.88924265 -17.068401 -0.40066114 0.039215688
-0.25152096 -4.94135 -2.3258591 0
-0.12607595 -17.542049 -0.30892166 0.035294119
-2.0350819 -18.979187 -0.55876487 0
-0.25102684 -8.0762663 -2.2706707 0.050980393
-0.91263485 -10.143915 -2.0478239 0.0078431377
-1.049451 -18.360582 -0.0022889723 0.043137256
-2.6911848 -17.325142 -0.20669416 0.0039215689
-0.67059326 -13.476789 -2.1056192 0.062745102
-1.4163351 -14.107784 -1.8125618 0.039215688
-0.14551875 -18.224113 0.10340334 0.062745102
-2.0596347 -19.173378 -0.1142885 0.011764706
-0.75827444 -14.607215 -1.5807316 0.039215688
-2.3339918 -15.306229 -1.4530993 0.050980393
-2.4248495 -36.065392 0.84069365 0.0078431377
-2.8200986 -18.053732 0.21166497 0.035294119
-0.92143917 -16.708693 -1.1743122 0.0039215689
-1.8876317 -17.816931 -1.4682573 0.023529412
-1.1030965 -51.624756 1.5023307 0.05882353
-0.10154083 -16.678881 -1.0720146 0.0039215689
-2.6578882 -17.135832 -1.0153556 0.0039215689
-2.3979216 -35.723446 2.0856421 0.031372551
-0.91782284 -16.66361 -0.78096545 0.011764706
-2.0299044 -18.937449 -1.0024298 0.0039215689
-4.5150375 -38.50098 3.1679976 0.050980393
-2.6506028 -17.095348 -0.6081543 0.0039215689
-0.95036244 -17.083813 -0.40110785 0.035294119
-0.27588472 -5.0003529 -2.3545873 0
-0.18462941 -17.552277 -0.30911353 0.035294119
-2.0819716 -18.848179 -0.55515003 0
-0.27749392 -8.0703011 -2.2695849 0.050980393
-0.94626665 -10.139584 -2.0478144 0.0078431377
-1.1151762 -18.415556 -0.0022671991 0.043137256
-0.71591735 -13.481122 -2.1068356 0.054901961
-1.4620821 -14.093893 -1.8115389 0.043137256
-0.20633397 -18.234276 0.10349134 0.062745102
-2.1113019 -19.073967 -0.11374334 0.015686275
-0.8083148 -14.62319 -1.5828582 0.054901961
-2.3854425 -15.301075 -1.4534563 0.043137256
-2.8813717 -18.050905 0.2117759 0.035294119
-0.97748566 -16.712252 -1.1748537 0.0039215689
-1.9446394 -17.793512 -1.46694 0.023529412
-1.2753075 -51.651535 1.5033131 0.05882353
-4.6960821 -38.888374 0.68428892 0.015686275
-2.7068923 -17.082449 -1.0127857 0.0039215689
-2.5312045 -35.897129 2.0963867 0.035294119
-4.6954837 -38.885792 1.5974149 0.023529412
-0.97953081 -16.738876 -0.78466636 0.011764706
-2.0839047 -18.862022 -0.99885863 0.0039215689
-2.5239995 -35.816452 4.4111152 0.082352944
-4.6751728 -38.733593 3.1885591 0.050980393
-0.15661886 -16.67358 -0.68227744 0.0039215689
-2.7001748 -17.045874 -0.60674608 0.0039215689
-1.008623 -17.099245 -0.40155536 0.027450981
-0.28986374 -4.96559 -2.3393705 0
-0.24824527 -17.530115 -0.3087469 0.05882353
-2.1244473 -18.640896 -0.54932916 0
-0.30674323 -8.0640116 -2.2684982 0.070588239
-0.98394299 -10.138555 -2.0485878 0.0078431377
-2.8193126 -17.342632 -0.20712155 0.05882353
-0.76632249 -13.488842 -2.1086652 0.054901961
-1.5126708 -14.079193 -1.8105147 0.043137256
-0.27373275 -18.248003 0.10360466 0.062745102
-2.1678956 -18.965609 -0.11315069 0
-0.85888076 -14.583083 -1.5789897 0.027450981
-2.4378955 -15.271265 -1.4515834 0.039215688
-2.952585 -18.066376 0.21212338 0.035294119
-2.0087802 -17.776981 -1.4662709 0.023529412
-1.4650371 -51.657116 1.5037179 0.05882353
-4.8407087 -38.885372 0.68461025 0.015686275
-0.21540698 -16.603329 -1.06738 0.0039215689
-2.7376318 -16.898237 -1.0025527 0.0039215689
-2.6802831 -36.093132 2.1085324 0.035294119
-4.8342538 -38.839207 1.5963135 0.023529412
-1.0435723 -16.765646 -0.78613538 0.0078431377
-2.3187952 -20.0881 -1.0640479 0.0039215689
-2.6565955 -35.821396 4.4131041 0.05882353
-4.8489137 -38.951893 3.2081475 0.050980393
-2.7307472 -16.861502 -0.60060346 0.0039215689
-1.0739872 -17.125929 -0.40227944 0.027450981
-0.30867854 -4.9740086 -2.3444364 0
-0.31006005 -17.543812 -0.30900744 0.070588239
-2.1758611 -18.53303 -0.5464102 0
-0.33488789 -8.0615778 -2.2684901 0.06666667
-1.0182544 -10.125973 -2.0470095 0.0078431377
-2.0415461 -27.409412 -0.0015763061 0.027450981
-2.882786 -17.347094 -0.20728905 0.05882353
-0.81305325 -13.480834 -2.108037 0.05882353
-1.5655967 -14.100028 -1.8140337 0.015686275
-0.33789673 -18.257608 0.1036936 0.05882353
-1.0550985 -10.397568 -0.063661218 0
-0.90733039 -14.550951 -1.5759784 0.027450981
-2.4889786 -15.249604 -1.4504541 0.043137256
-4.4908948 -55.17049 1.2892144 0.031372551
-3.0193229 -18.074295 0.21237604 0.035294119
-1.089323 -16.614685 -1.1686871 0.019607844
-2.0697312 -17.760647 -1.4656031 0.023529412
-1.5927806 -50.307968 1.4645946 0.054901961
-5.4839392 -42.551563 0.74989241 0.027450981
-0.27664277 -16.684921 -1.0727307 0.0039215689
-2.8010249 -16.91081 -1.003929 0.0039215689
-2.8245037 -36.289085 2.1206765 0.035294119
-5.1083112 -39.826439 1.6377982 0.043137256
-1.1020874 -16.760584 -0.78611851 0.0039215689
-2.1768401 -18.539232 -0.98272717 0.0039215689
-2.8137126 -36.174423 4.4580145 0.070588239
-5.017487 -39.170372 3.2277343 0.050980393
-0.27200732 -16.569494 -0.67817789 0.090196081
-2.7666984 -16.728758 -0.59627169 0.0039215689
-1.1362206 -17.148645 -0.40291154 0.027450981
-0.32400587 -4.9572277 -2.3376706 0
-0.37146643 -17.545301 -0.30905926 0.082352944
-2.2159224 -18.349812 -0.54128712 0
-0.36302391 -8.0590448 -2.268482 0.05882353
-1.0535922 -10.121042 -2.0469995 0.0078431377
-2.1404989 -27.436653 -0.0015461196 0.0078431377
-2.944072 -17.339539 -0.20731805 0.05882353
-0.85974169 -13.472662 -2.107409 0.078431375
-1.6081396 -14.046015 -1.807963 0.015686275
-0.40213552 -18.266991 0.10378256 0.05882353
-0.96065986 -14.5741 -1.5789604 0.027450981
-2.5436912 -15.247332 -1.4511819 0.050980393
-4.3578897 -51.60503 1.2060992 0.031372551
-3.0861559 -18.081972 0.21262877 0.031372551
-2.132829 -17.759893 -1.4662355 0.023529412
-5.2827172 -40.055813 0.70608604 0.027450981
-0.33385924 -16.658611 -1.0711802 0.0039215689
-2.8239756 -16.711361 -0.99276906 0.0039215689
-2.9693997 -36.476509 2.1323555 0.035294119
-6.5864544 -49.284935 2.0286477 0.043137256
-2.9591877 -36.372597 4.4839025 0.086274512
-5.1887641 -39.396046 3.2479734 0.050980393
-0.32950142 -16.559141 -0.67783594 0.11764706
-2.8137937 -16.658789 -0.59416717 0.0039215689
-0.23911378 -6.7214856 1.8055581 0
-0.9811666 -9.6162014 1.768012 0
-1.1989955 -17.175114 -0.4036364 0.027450981
-0.34044084 -4.9548769 -2.3376658 0
-0.43056414 -17.562698 -0.30939022 0.062745102
-2.2738962 -18.321325 -0.54068965 0
-0.38901481 -8.0488796 -2.2663188 0.050980393
-1.0865854 -10.112361 -2.0462055 0.0078431377
-2.235635 -27.471951 -0.0015166721 0.0078431377
-3.0053816 -17.348057 -0.20753257 0.05882353
-0.90441227 -13.468487 -2.1073961 0.078431375
-1.6552756 -14.043282 -1.8084545 0.047058824
-0.46381024 -18.288279 0.10394105 0.06666667
-2.3023419 -18.518772 -0.11066803 0
-1.0078526 -14.55771 -1.5776623 0.027450981
-2.5927131 -15.229744 -1.4504248 0.047058824
-4.5339155 -51.640793 1.2073619 0.031372551
-3.1522229 -18.101791 0.2130215 0.031372551
-1.2076721 -16.659933 -1.1725568 0.054901961
-2.1928515 -17.759365 -1.4668691 0.023529412
-1.8576784 -48.607895 1.4154878 0.043137256
-5.4441524 -40.234726 0.70963204 0.027450981
-2.8602688 -16.602667 -0.98694962 0.0039215689
-3.108866 -36.659996 2.1438 0.035294119
-6.752142 -49.277386 2.0293472 0.043137256
-3.0985751 -36.558945 4.5083256 0.074509807
-5.3570499 -39.637779 3.2695141 0.090196081
-0.38367584 -16.540737 -0.67716962 0.10980392
