# .PCD v0.7 - Point Cloud Data file format
VERSION 0.7
FIELDS x y z intensity
SIZE 4 4 4 4
TYPE F F F F
COUNT 1 1 1 1
WIDTH 1154
HEIGHT 1
VIEWPOINT 0 0 0 1 0 0 0
POINTS 1154
DATA ascii
25.785646 4.2065086 -2.4377778 0.0078431377
33.884773 8.9926996 -2.4518058 0.011764706
29.239969 6.2491488 -2.4404933 0.0078431377
40.951855 6.683754 -2.4174652 0.027450981
8.0363293 2.0963027 -2.3170218 0
10.917965 2.2893183 -2.2257538 0
14.890452 3.8914728 -2.390816 0.011764706
18.849588 3.9574065 -2.4490845 0.011764706
21.319094 5.5752072 -2.3719668 0.015686275
25.914225 4.1348004 -2.4485638 0.0078431377
33.815598 8.8481817 -2.4445424 0.011764706
29.21089 6.1364832 -2.4362571 0.0078431377
40.316422 6.4356642 -2.3785844 0.027450981
8.0398693 2.06739 -2.315943 0
11.03344 2.273536 -2.2477248 0
14.900116 3.8386006 -2.3901997 0.011764706
18.874947 3.8941121 -2.450599 0.011764706
21.338421 5.500874 -2.3719654 0.015686275
26.026875 4.0598001 -2.4578621 0.0078431377
33.881046 8.7391882 -2.4470537 0.011764706
29.204798 6.0289516 -2.4339747 0.0078431377
40.31102 6.2907028 -2.3769512 0.027450981
8.0395718 2.0375245 -2.3137856 0
11.172001 2.2616522 -2.2744043 0
14.913425 3.7866752 -2.3901987 0.015686275
18.896202 3.8298895 -2.4516082 0.011764706
21.34593 5.4235201 -2.3706779 0.0078431377
26.009392 3.9642243 -2.4548836 0.0078431377
33.636791 8.5511065 -2.4272227 0.011764706
29.16316 5.9143853 -2.4287612 0.0078431377
40.301159 6.1452365 -2.3750851 0.027450981
57.358681 17.610376 -2.4473789 0.14509805
8.0690508 2.0151801 -2.3202558 0
11.318304 2.2503617 -2.3026531 0
14.918887 3.7327812 -2.3889673 0.011764706
18.889999 3.760134 -2.4490802 0.015686275
21.360878 5.3481159 -2.3702476 0.0078431377
25.987619 3.868233 -2.4515333 0.0078431377
33.592899 8.4153051 -2.4219141 0.011764706
29.214903 5.818892 -2.4313643 0.0078431377
9.1424885 2.7638426 0.27614304 0
40.417156 6.0187511 -2.3806689 0.027450981
57.920818 17.562145 -2.468739 0.14509805
8.0569944 1.9839023 -2.3148627 0
11.456573 2.238575 -2.3293321 0
97.32328 14.170259 -1.1508542 0.082352944
14.938855 3.6853025 -2.3901968 0.011764706
18.925728 3.7021704 -2.4521105 0.011764706
21.382353 5.2783279 -2.3706751 0.0078431377
26.031828 3.7867503 -2.4545069 0.0078431377
33.628361 8.3059063 -2.4224703 0.011764706
29.183178 5.7121415 -2.4271281 0.0078431377
36.872612 5.3656993 -2.1706822 0.015686275
58.526184 17.534229 -2.4920568 0.14509805
15.86103 3.9134264 4.3675346 0.0039215689
8.0791416 1.9589827 -2.3172266 0
11.495174 2.2049558 -2.3342974 0
14.955309 3.6346922 -2.389899 0.011764706
18.946053 3.6392164 -2.4524837 0.011764706
21.396326 5.2043586 -2.3698101 0.0078431377
26.052397 3.7001278 -2.4549797 0.0078431377
36.994156 5.256671 0.43133217 0.0078431377
33.69883 8.2024584 -2.4256022 0.011764706
29.221886 5.6172738 -2.4286389 0.0078431377
36.894432 5.2424006 -2.1710865 0.015686275
59.121204 17.495911 -2.5156157 0.14509805
36.926533 5.246995 -1.3042544 0.019607844
8.0975046 1.9321991 -2.3204618 0
11.510888 2.1644084 -2.3358655 0
14.972373 3.58092 -2.3905129 0.011764706
18.943668 3.5669515 -2.45046 0.011764706
6.9820271 1.3098911 -0.041986212 0
21.419125 5.1269727 -2.3702369 0.0078431377
26.018448 3.598201 -2.4505119 0.0078431377
36.993362 5.1184406 0.43110526 0.0078431377
33.926567 8.1264896 -2.4398456 0.011764706
29.246199 5.5110121 -2.4289615 0.0078431377
36.901527 5.1056356 -2.1703835 0.015686275
45.510536 8.5800495 -2.4289842 0.039215688
36.953438 5.1128535 -1.3045298 0.019607844
8.1001215 1.9045826 -2.3193827 0
11.533432 2.1292148 -2.3390036 0
14.972629 3.5286534 -2.3886659 0.011764706
18.955397 3.5042415 -2.450458 0.011764706
21.436012 5.0560441 -2.370235 0.0078431377
26.034184 3.5125613 -2.4508812 0.0078431377
37.073555 5.0044327 0.43184945 0.0078431377
33.972748 8.0186539 -2.4412394 0.011764706
29.248634 5.4112191 -2.4276555 0.0078431377
37.001362 4.9945917 -2.1752694 0.015686275
46.241802 8.5594568 -2.4665072 0.039215688
37.033569 4.9989724 -1.3067641 0.019607844
8.1070471 1.8750316 -2.319382 0
11.560452 2.0905805 -2.3429263 0
14.977761 3.4721141 -2.387434 0.015686275
18.952494 3.4320617 -2.4484348 0.011764706
21.458271 4.978497 -2.3706615 0.0078431377
26.038984 3.416234 -2.4501338 0.0078431377
33.982471 7.8897219 -2.4398394 0.011764706
29.27219 5.3048477 -2.427978 0.0078431377
40.238239 5.282052 -2.3645773 0.027450981
46.618721 8.4528389 -2.4849515 0.039215688
8.1323166 1.8511591 -2.3247743 0
11.590851 2.0544791 -2.3476336 0
97.222855 12.425097 -1.1483341 0.082352944
15.009053 3.4243624 -2.3905089 0.015686275
18.948732 3.3632498 -2.4464111 0.011764706
21.475517 4.9037089 -2.3706596 0.0078431377
26.046799 3.3249619 -2.4497588 0.0078431377
34.037033 7.7774301 -2.4417915 0.011764706
29.306232 5.2055764 -2.4292781 0.0078431377
40.236626 5.1391797 -2.3634083 0.027450981
46.482769 8.260829 -2.4761415 0.039215688
8.1083488 1.8175448 -2.3161447 0
11.582143 2.0134718 -2.3444934 0
97.573112 12.141319 -1.1519787 0.082352944
15.031894 3.377315 -2.3923531 0.011764706
18.95978 3.3005333 -2.4464095 0.011764706
21.417946 4.8159986 -2.3625124 0.0078431377
26.033968 3.2357574 -2.4475231 0.0078431377
34.023708 7.6558881 -2.4389954 0.011764706
29.311548 5.1064501 -2.428298 0.0078431377
40.293068 5.010798 -2.3657324 0.027450981
46.175426 8.0484333 -2.4583168 0.039215688
8.1334486 1.7935367 -2.321537 0
11.577504 1.9711868 -2.3421378 0
99.751198 12.059133 -1.1771799 0.082352944
15.043593 3.3249605 -2.3923516 0.011764706
18.971188 3.2344673 -2.4464073 0.011764706
21.411331 4.7361798 -2.3599384 0.0078431377
26.049063 3.1454751 -2.4478924 0.0078431377
34.042439 7.5354824 -2.4384334 0.011764706
29.329199 5.0042362 -2.4282949 0.0078431377
40.334099 4.8731251 -2.3671248 0.027450981
46.116615 7.8725305 -2.4536994 0.039215688
8.1547146 1.7685548 -2.3258507 0
11.622999 1.9373705 -2.3499844 0
101.29823 11.887727 -1.1949291 0.082352944
15.035798 3.2683573 -2.3892741 0.011764706
19.005844 3.1722896 -2.4494376 0.011764706
21.416077 4.6590061 -2.3586504 0.0078431377
26.075705 3.0565186 -2.4493775 0.0078431377
34.060741 7.4150391 -2.4378717 0.011764706
29.342554 4.9013033 -2.4279659 0.0078431377
40.311211 4.727777 -2.3647914 0.027450981
46.230492 7.7261329 -2.458307 0.039215688
8.1460762 1.7355788 -2.3215356 0
11.614537 1.8923768 -2.346844 0
14.835113 3.1678636 -2.3554358 0.011764706
19.029093 3.1046822 -2.4509516 0.011764706
21.433008 4.5806341 -2.3586483 0.0078431377
26.102562 2.9628801 -2.4508626 0.0078431377
34.068172 7.286128 -2.4364715 0.011764706
29.372126 4.7958093 -2.4289401 0.0078431377
40.360004 4.5837641 -2.3666494 0.027450981
46.613289 7.6148057 -2.47717 0.039215688
11.620426 1.8560085 -2.346843 0
14.852727 3.123003 -2.3566649 0.011764706
18.795835 3.0060823 -2.4196165 0.0078431377
21.466751 4.5175109 -2.3607895 0.015686275
26.080072 2.8774946 -2.4478831 0.0078431377
34.090897 7.1791978 -2.4364686 0.011764706
29.371298 4.7011189 -2.427634 0.0078431377
34.898003 9.1485281 -2.3128586 0.019607844
40.421833 4.4623451 -2.3694391 0.027450981
46.735588 7.4842687 -2.4824069 0.039215688
92.239967 19.439419 -2.2002852 0.10196079
11.66171 1.8210372 -2.3539045 0
14.809357 3.0600493 -2.3480506 0.011764706
18.786615 2.9375191 -2.4170876 0.011764706
21.536911 4.4539824 -2.3667896 0.015686275
25.74939 2.750144 -2.4158816 0.0078431377
34.123566 7.0619059 -2.4370241 0.011764706
29.328455 4.5894418 -2.4227445 0.0078431377
35.126816 9.0777788 -2.3259189 0.019607844
40.413338 4.3188009 -2.368037 0.027450981
46.816677 7.3298717 -2.4853365 0.039215688
94.116325 19.492271 -2.2434096 0.10196079
8.1487055 1.6475368 -2.3172185 0
14.793882 2.997813 -2.3437424 0.011764706
18.727152 2.8547363 -2.4079888 0.011764706
21.60062 4.3809171 -2.3719313 0.015686275
25.668642 2.6420219 -2.4073207 0.0078431377
34.130875 6.9270196 -2.4356236 0.011764706
29.294624 4.46913 -2.4185059 0.0078431377
35.513432 9.0326357 -2.3492248 0.019607844
40.163494 4.1363225 -2.3524306 0.027450981
46.816837 7.145999 -2.4838634 0.039215688
37.196743 5.6765113 3.0651791 0.015686275
11.63632 1.7286904 -2.3447406 0
14.800773 2.9437625 -2.3422062 0.015686275
18.733372 2.7874653 -2.4068351 0.015686275
21.768246 4.3341179 -2.3882115 0.0078431377
25.646215 2.5482354 -2.4040565 0.0078431377
34.119995 6.7989054 -2.4331627 0.011764706
29.29455 4.36304 -2.4170747 0.0078431377
35.955635 9.0092831 -2.3765202 0.019607844
40.173923 3.9944851 -2.3524034 0.027450981
46.833889 6.9796529 -2.483815 0.039215688
23.736197 3.5340736 4.3639131 0.0039215689
14.799323 2.8899662 -2.3403585 0.015686275
18.723356 2.7193627 -2.4043055 0.011764706
21.876909 4.2766213 -2.398499 0.0078431377
25.662886 2.4596221 -2.4047971 0.0078431377
33.763695 6.6055069 -2.4060574 0.011764706
29.301714 4.2597699 -2.4164193 0.0078431377
36.455765 8.9997892 -2.4075174 0.019607844
40.271099 3.8624024 -2.3572886 0.027450981
46.873783 6.8185897 -2.4846475 0.039215688
37.145092 5.4021235 3.0564127 0.015686275
37.21035 5.4117723 6.8429942 0.015686275
36.984226 5.2601023 -1.0896224 0.011764706
14.800567 2.8421185 -2.3391263 0.015686275
18.723948 2.6595652 -2.4032924 0.015686275
36.991394 5.2611575 -0.22072528 0.011764706
25.698244 2.3817225 -2.4073987 0.0078431377
33.72551 6.4882374 -2.4018624 0.011764706
29.378099 4.1768456 -2.4216287 0.0078431377
36.994381 5.2616162 0.64754546 0.015686275
36.825127 8.9686012 -2.4300601 0.019607844
40.489788 3.7552269 -2.3693943 0.027450981
37.056507 5.2704973 1.5190871 0.023529412
36.957062 5.2562003 -1.9576509 0.019607844
37.06715 5.2720728 3.0486152 0.015686275
37.196003 5.2905693 6.8372626 0.015686275
14.818652 2.7895012 -2.3403549 0.015686275
18.753223 2.5938284 -2.4058168 0.015686275
21.901604 4.1272135 -2.3980653 0.0078431377
25.770271 2.2933609 -2.4133487 0.0078431377
33.772591 6.3692141 -2.4035349 0.011764706
29.535374 4.0890403 -2.4333541 0.0078431377
37.00153 5.1245294 0.64734238 0.015686275
36.818932 8.824441 -2.4274938 0.019607844
40.737946 3.6279094 -2.3831296 0.027450981
37.035988 5.1293416 1.5174676 0.023529412
37.317501 7.0389662 4.6529064 0.011764706
37.137562 5.1434875 3.0528464 0.015686275
3.0762262 0.72663641 -0.12760213 0
5.0062351 0.6707198 -2.3337712 0
14.843367 2.7433848 -2.3428144 0.015686275
18.816771 2.5392296 -2.4128904 0.011764706
37.12632 5.0165281 -0.22130542 0.011764706
21.926903 4.0568924 -2.399349 0.0078431377
25.976141 2.2250712 -2.4319513 0.0078431377
33.848454 6.2675214 -2.4074423 0.011764706
29.766062 4.0206256 -2.4512701 0.011764706
36.844109 8.7015276 -2.4272339 0.019607844
40.976536 3.512409 -2.3963997 0.027450981
46.446484 8.6035995 -2.2029452 0.015686275
37.004734 5.0000095 -1.95827 0.019607844
14.880075 2.6966696 -2.3471193 0.011764706
18.884531 2.4814699 -2.420469 0.011764706
21.905716 3.9740899 -2.3954875 0.0078431377
25.805136 2.1198463 -2.4152017 0.0078431377
33.972198 6.1680493 -2.4147024 0.011764706
29.815489 3.9215457 -2.4541986 0.011764706
36.660435 8.5232468 -2.4131389 0.019607844
40.88905 3.3613224 -2.3905706 0.027450981
46.142487 6.072515 -2.4412136 0.039215688
37.203339 4.8950624 3.0554574 0.015686275
14.905423 2.6450658 -2.3495786 0.011764706
18.810848 2.4018395 -2.4098525 0.011764706
21.896645 3.8897748 -2.3929121 0.0078431377
23.81959 1.868751 -2.22839 0.0078431377
33.943504 6.034586 -2.4110658 0.011764706
29.794073 3.807869 -2.4512618 0.011764706
6.2691612 1.4241915 0.18465111 0
36.617496 8.3720808 -2.4082668 0.019607844
40.91304 3.2125599 -2.3912628 0.027450981
47.816818 8.5045843 -2.2650352 0.015686275
46.101036 5.8954263 -2.4378517 0.039215688
37.165665 4.7517724 3.0509114 0.015686275
14.914111 2.5957873 -2.349577 0.011764706
17.397284 2.1624427 -2.2273898 0.0039215689
21.901583 3.8159392 -2.3920519 0.0078431377
23.877285 1.7938044 -2.2332239 0.0078431377
33.880787 5.9077473 -2.4051943 0.011764706
29.79467 3.7077353 -2.4502804 0.011764706
36.586643 8.237606 -2.4044197 0.019607844
40.859756 3.072243 -2.3875303 0.027450981
48.572926 8.4732952 -2.2995303 0.015686275
46.156013 5.7471342 -2.439733 0.039215688
37.383778 6.5198941 10.151078 0.011764706
14.911397 2.5418787 -2.3477292 0.011764706
17.444118 2.106637 -2.2324417 0.0039215689
99.655289 12.062785 -0.59262061 0.015686275
21.895176 3.7362771 -2.3899055 0.0078431377
24.236948 1.7359822 -2.2663393 0.0078431377
33.869736 5.7842245 -2.4029548 0.011764706
29.799515 3.6029127 -2.4496245 0.011764706
36.677532 8.1238346 -2.4085147 0.019607844
40.910069 2.9326148 -2.3898532 0.027450981
48.830647 8.3429165 -2.3103409 0.015686275
46.159927 5.5842214 -2.4388874 0.039215688
17.486475 2.0531106 -2.2369883 0.0039215689
21.907444 3.6638048 -2.3899028 0.0078431377
25.017378 1.7087775 -2.3389001 0.0078431377
33.865116 5.6680703 -2.4012747 0.011764706
29.815258 3.5046935 -2.4499464 0.011764706
36.97337 8.06106 -2.4261889 0.019607844
40.927532 2.7976313 -2.3903127 0.027450981
48.787109 8.1692009 -2.306978 0.015686275
46.07505 5.4191232 -2.433429 0.039215688
61.35973 4.1959767 -2.1518881 0.078431375
13.836275 2.2615275 -2.1754494 0
17.670937 2.0124912 -2.2597299 0.0039215689
21.924023 3.5881283 -2.3903286 0.0078431377
25.257671 1.6368393 -2.3608518 0.0078431377
33.849258 5.5441885 -2.3987558 0.011764706
29.843157 3.4025829 -2.4512453 0.011764706
37.044209 7.9413409 -2.429003 0.019607844
40.893223 2.6520829 -2.3877444 0.027450981
48.452583 7.9395313 -2.2898147 0.015686275
46.061939 5.2548118 -2.4317448 0.039215688
61.481709 3.9889414 -2.1556571 0.078431375
13.855794 2.2152603 -2.1772935 0
17.997309 1.9863119 -2.300667 0.0039215689
21.940342 3.5123711 -2.3907547 0.0078431377
25.342733 1.5537094 -2.3682902 0.0078431377
33.872349 5.4267912 -2.3990307 0.011764706
29.827112 3.2954814 -2.4489603 0.011764706
37.075611 7.8129687 -2.4292548 0.019607844
40.930122 2.5111942 -2.3893683 0.027450981
48.440548 7.7641778 -2.2879434 0.015686275
46.028381 5.088438 -2.4290121 0.039215688
61.35162 3.765635 -2.150609 0.078431375
13.969561 2.1797361 -2.1929657 0
18.407129 1.9624493 -2.3515594 0.0039215689
21.937632 3.4281051 -2.3885937 0.0078431377
25.439865 1.4654522 -2.3765476 0.0078431377
33.852863 5.2948933 -2.396271 0.011764706
29.843161 3.1854689 -2.4491534 0.011764706
37.108284 7.6758704 -2.4296577 0.019607844
40.90731 2.3584597 -2.3877041 0.027450981
48.622932 7.6089597 -2.2956612 0.015686275
46.019138 4.9154067 -2.4278829 0.039215688
61.444988 3.5442088 -2.1540878 0.078431375
14.133362 2.1550782 -2.2175765 0
18.532276 1.9106214 -2.3667212 0.0039215689
21.92981 3.34869 -2.3864462 0.0078431377
33.81987 5.1690316 -2.392633 0.011764706
29.842201 3.0802364 -2.4481707 0.011764706
37.146595 7.5488682 -2.4304214 0.019607844
40.357063 2.1855659 -2.3550818 0.027450981
48.901978 7.4780717 -2.3075931 0.015686275
46.000259 4.7512269 -2.4259872 0.039215688
61.097736 3.3104024 -2.1414762 0.078431375
14.339779 2.138232 -2.2489564 0
18.617474 1.8572484 -2.3768277 0.0039215689
21.928993 3.2743759 -2.3851566 0.0078431377
33.7579 5.0452318 -2.3870387 0.011764706
29.907789 2.9870105 -2.452728 0.011764706
37.175331 7.4266224 -2.4306729 0.019607844
40.128796 2.0399439 -2.3413298 0.027450981
48.796101 7.2965422 -2.3014297 0.015686275
46.019733 4.5992532 -2.4261894 0.039215688
61.228146 3.1140742 -2.1456652 0.078431375
14.597449 2.1249406 -2.2883351 0
18.627792 1.7928331 -2.3773301 0.0039215689
21.916677 3.1945615 -2.3825803 0.0078431377
33.767406 4.926415 -2.3864748 0.011764706
29.862476 2.8774354 -2.4481606 0.011764706
37.216698 7.3000946 -2.4316926 0.019607844
40.199493 1.9030879 -2.3450496 0.027450981
48.837082 7.128686 -2.3021681 0.015686275
46.023579 4.4376431 -2.4255521 0.039215688
61.334476 2.9050834 -2.1490138 0.078431375
37.110191 5.2829871 -0.0045015449 0.023529412
21.931635 3.1187916 -2.3830056 0.0078431377
33.800205 4.8109565 -2.3875875 0.011764706
29.800888 2.766722 -2.4422901 0.0078431377
37.214516 7.1650362 -2.4298935 0.019607844
40.413334 1.772049 -2.3571556 0.027450981
36.935398 5.257987 -1.7397217 0.0078431377
46.038792 4.2771487 -2.4255443 0.039215688
37.125309 5.2853508 4.5928965 0.011764706
61.763584 2.7095623 -2.163702 0.078431375
14.748947 2.0424218 -2.3098669 0
21.977839 3.0473475 -2.3868616 0.015686275
37.01152 5.137414 0.86369723 0.019607844
33.773315 4.6871033 -2.3845081 0.011764706
29.873898 2.6685708 -2.4474983 0.011764706
37.196163 7.027133 -2.4270694 0.019607844
37.058006 5.1439352 2.1710742 0.011764706
46.00172 4.1119962 -2.4228091 0.039215688
37.131729 5.154295 4.5914412 0.011764706
61.896484 2.4991653 -2.16803 0.078431375
36.947975 5.1285005 -0.87116796 0.023529412
37.051914 5.0048351 -0.0044793203 0.023529412
14.815084 1.9965018 -2.3190944 0
21.988859 2.9669764 -2.3868577 0.0078431377
37.105389 5.0121098 0.86546338 0.0078431377
33.802128 4.5650907 -2.3853407 0.011764706
29.605431 2.535403 -2.4246819 0.0078431377
37.209892 6.8887696 -2.4262953 0.019607844
46.032402 3.9449263 -2.42364 0.039215688
61.937191 2.2736528 -2.1691375 0.078431375
14.861149 1.9501376 -2.3252451 0
21.730968 2.855088 -2.3576953 0.0078431377
33.825771 4.4483185 -2.3858941 0.011764706
29.379675 2.4129591 -2.4054506 0.0078431377
37.229786 6.7583323 -2.4260333 0.019607844
48.774532 6.4175024 -2.2946751 0.015686275
45.870724 3.7700119 -2.4144022 0.039215688
61.812904 2.0532656 -2.1645055 0.078431375
14.871455 1.9015397 -2.3258586 0
21.720596 2.7806706 -2.3555479 0.015686275
33.729519 4.3220944 -2.3780646 0.011764706
29.308031 2.3094378 -2.3989284 0.0078431377
36.670387 6.5312848 -2.3881021 0.019607844
48.862919 6.2645702 -2.2978387 0.015686275
45.843159 3.6149321 -2.4122968 0.039215688
26.192921 3.354984 3.232074 0.0039215689
61.819378 1.8484755 -2.164494 0.078431375
14.842706 1.8454057 -2.320318 0
21.670973 2.6976388 -2.3491123 0.0078431377
33.692932 4.1980948 -2.3744264 0.011764706
29.411325 2.2145069 -2.406744 0.0078431377
36.669373 6.3993058 -2.3865595 0.019607844
48.24218 6.0139885 -2.2676108 0.015686275
45.990929 3.4652896 -2.4194205 0.039215688
61.565704 1.6259893 -2.1553822 0.078431375
99.786301 12.093933 -0.011068948 0.24705882
14.900064 1.7999697 -2.3283148 0
4.5845227 0.32575136 -0.57881248 0
21.652622 2.6188278 -2.3461072 0.015686275
33.691532 4.0787416 -2.3733029 0.011764706
29.57793 2.1234734 -2.4197731 0.0078431377
36.68755 6.2707992 -2.3862977 0.019607844
48.23114 5.8419142 -2.2661104 0.015686275
46.389202 3.3327358 -2.4397581 0.039215688
39.098137 2.8085711 3.1907957 0.015686275
37.278591 4.5143204 10.041848 0.011764706
98.824791 11.645144 -0.010947782 0.22745098
14.909877 1.7512032 -2.3289278 0
21.673037 2.5486 -2.3473902 0.015686275
33.760349 3.9737306 -2.3772097 0.011764706
29.807547 2.0408502 -2.4380167 0.0078431377
36.747513 6.1559043 -2.3888552 0.019607844
5.679039 0.3857893 0.22846885 0
48.2939 5.6872864 -2.2681549 0.015686275
46.511585 3.1867366 -2.4456232 0.039215688
60.736019 1.1908318 -2.1259589 0.078431375
37.274174 4.3886127 10.03668 0.011764706
14.93188 1.7000225 -2.3304579 0
21.685989 2.4723585 -2.3473613 0.015686275
33.964539 3.8764167 -2.3906467 0.011764706
27.256624 1.7695715 -2.2283044 0.0078431377
36.780903 6.0279007 -2.3897514 0.019607844
48.289879 5.5145359 -2.2674577 0.015686275
46.466793 3.0197284 -2.4430151 0.039215688
60.867832 0.98006201 -2.1310885 0.078431375
3.6392288 0.3955633 -0.0010517803 0
21.722572 2.396162 -2.350359 0.015686275
34.22044 3.7789149 -2.4076893 0.011764706
27.422091 1.6796743 -2.2413352 0.0078431377
4.5221586 0.71511501 0.13020018 0
36.727859 5.8812833 -2.3848748 0.019607844
4.2696452 0.25828603 0.17050856 0
48.206509 5.3263316 -2.2625964 0.015686275
46.648987 2.8601723 -2.4520266 0.039215688
61.066879 0.75965375 -2.1379361 0.078431375
21.794075 2.327318 -2.3572166 0.0078431377
34.225487 3.658807 -2.4071238 0.011764706
27.845694 1.6083544 -2.2755511 0.0078431377
36.807323 5.7625375 -2.3887131 0.019607844
48.224812 5.1582403 -2.2625871 0.015686275
46.523106 2.6896834 -2.4448831 0.039215688
21.821453 2.2572944 -2.3593569 0.0078431377
34.181873 3.5397317 -2.4032044 0.011764706
28.710726 1.5631298 -2.3459442 0.0078431377
6.2934966 0.95582438 0.18199864 0
36.889362 5.6503396 -2.3928082 0.019607844
48.174091 4.9914846 -2.2594059 0.015686275
46.491886 2.5334179 -2.4427755 0.039215688
20.147423 2.0128007 -2.1770873 0.0078431377
34.241665 3.4254174 -2.4065518 0.011764706
29.082304 1.4818513 -2.3759224 0.0078431377
48.199165 4.8243513 -2.2597694 0.015686275
46.57225 2.3750405 -2.446542 0.039215688
20.206127 1.9441328 -2.1826582 0.0078431377
34.289734 3.303555 -2.4090602 0.011764706
37.068367 5.4072485 1.0831863 0.023529412
36.676056 5.3497458 -2.3763905 0.019607844
48.212559 4.6474786 -2.259573 0.015686275
46.668423 2.2086921 -2.4511471 0.039215688
5.07723 0.22086638 -2.3408165 0
36.992989 5.2711577 -0.65624547 0.023529412
36.982246 5.2696695 0.21160814 0.0078431377
20.418373 1.8965302 -2.2049549 0.0078431377
34.300499 3.1900659 -2.4090536 0.011764706
36.626419 5.2187457 -2.3720274 0.019607844
48.235653 4.4885626 -2.259937 0.015686275
46.615631 2.0515304 -2.4479904 0.039215688
4.483315 0.39626288 -0.0011467002 0
20.777403 1.8570722 -2.243119 0.0078431377
34.275661 3.0673256 -2.4065313 0.011764706
37.036983 5.1458974 1.0812294 0.023529412
36.616737 5.0872288 -2.3702266 0.019607844
48.302769 4.3250136 -2.2623532 0.015686275
45.880142 1.8588939 -2.4089565 0.039215688
36.950436 5.1337156 -1.5223589 0.019607844
5.0714049 0.18559663 -2.3374324 0
37.028889 5.0132055 -0.656232 0.023529412
6.1595559 0.22604272 -0.77762067 0
37.089481 5.0214696 0.21203136 0.0078431377
87.04776 3.2252629 -0.51651067 0.16078432
21.23546 1.8236628 -2.2920048 0.0078431377
34.298084 2.9489064 -2.4073627 0.011764706
3.0025778 0.10903975 0.050349269 0
36.650093 4.9617434 -2.3712449 0.019607844
48.321552 4.1569352 -2.2625301 0.015686275
45.758621 1.6942087 -2.4022329 0.039215688
5.0539069 0.16751237 -2.3289771 0
99.702225 13.159163 0.57140666 0.10980392
21.396269 1.7625277 -2.3087258 0.0078431377
34.276356 2.8267713 -2.4051199 0.011764706
36.73447 4.8428988 -2.3755956 0.019607844
48.26807 3.9828796 -2.2593479 0.015686275
45.804176 1.5360476 -2.4043207 0.039215688
5.072578 0.15063927 -2.3374302 0
99.711845 12.806667 0.57122022 0.10980392
21.493477 1.6952639 -2.3185849 0.0078431377
34.242256 2.7038622 -2.4020383 0.011764706
36.766987 4.7168932 -2.3766139 0.019607844
48.202019 3.808279 -2.2556064 0.015686275
45.901089 1.3791285 -2.4091361 0.039215688
37.178013 2.9365306 4.5660825 0.011764706
5.0766511 0.13500454 -2.3391199 0
99.699997 12.487108 0.57094103 0.10980392
21.542318 1.6312523 -2.3232985 0.0078431377
34.218754 2.5940664 -2.399796 0.011764706
36.745979 4.5971065 -2.374301 0.019607844
48.066326 3.6458457 -2.2486935 0.015686275
54.667988 6.8432269 -2.2492187 0.06666667
5.0815592 0.11734685 -2.3375783 0
99.695686 12.131048 0.56906122 0.10980392
34.227772 2.4737535 -2.3998094 0.011764706
36.718445 4.4622278 -2.371593 0.019607844
48.086906 3.477566 -2.2494657 0.015686275
43.800838 1.024843 -2.2986243 0.039215688
33.786369 2.3235383 -2.3682122 0.011764706
36.745689 4.3357153 -2.3723543 0.019607844
48.337921 3.3264611 -2.2606535 0.015686275
5.0822563 0.08237908 -2.3375757 0
33.64695 2.1961968 -2.3578608 0.011764706
36.621799 4.1917477 -2.3633735 0.019607844
4.0653286 0.06583181 0.16145444 0
48.712067 3.181685 -2.277627 0.015686275
46.255222 0.75983465 -2.4272418 0.039215688
5.075264 0.064797491 -2.3341925 0
33.634499 2.0777462 -2.3564548 0.011764706
36.612404 4.0614867 -2.3618276 0.019607844
48.686989 3.0096481 -2.2759356 0.015686275
5.0827098 0.047404915 -2.3375731 0
33.705284 1.964311 -2.3609197 0.011764706
36.681923 3.9399021 -2.3654087 0.019607844
48.677254 2.8387804 -2.2749908 0.015686275
5.0828447 0.029915694 -2.3375716 0
33.879276 1.8560779 -2.3726528 0.011764706
36.858234 3.8290234 -2.3759117 0.019607844
48.738731 2.6719365 -2.2774055 0.015686275
5.0647941 0.012383989 -2.3291159 0
37.189117 3.7325552 -2.3964124 0.019607844
48.735794 2.5014398 -2.2768338 0.015686275
87.545273 4.4973202 10.742135 0.10196079
5.064806 -0.0059137079 -2.3291144 0
37.194603 3.5957131 -2.395891 0.019607844
48.820465 2.3266709 -2.2803676 0.015686275
5.0502591 -0.022400893 -2.3223493 0
7.7236552 0.71559495 0.042934801 0
37.2103 3.4729724 -2.3961396 0.019607844
48.680222 2.1584573 -2.2734504 0.015686275
5.0755248 -0.039977517 -2.3341846 0
37.234123 3.344398 -2.3969002 0.019607844
48.599628 1.98519 -2.2693322 0.015686275
4.8469934 -0.054812789 -2.2276547 0
37.245567 3.2146509 -2.3968918 0.019607844
47.98737 1.7926224 -2.2403908 0.015686275
53.931019 4.6576233 -2.2102935 0.06666667
37.212803 3.0812519 -2.3940635 0.019607844
47.745747 1.6169714 -2.2288072 0.015686275
5.061203 -0.091165468 -2.3241832 0
37.250858 2.9591312 -2.3959637 0.019607844
47.818874 1.4600316 -2.232358 0.015686275
87.544769 2.6760986 10.730707 0.10196079
53.993542 4.2920709 -2.2121229 0.06666667
37.268921 2.8299615 -2.396467 0.019607844
48.035374 1.2991079 -2.2422392 0.015686275
53.860744 4.0926199 -2.2060628 0.062745102
5.8221612 0.13563336 0.13202411 0
37.258663 2.6986842 -2.3951752 0.019607844
53.830856 3.9016786 -2.2042513 0.062745102
37.31963 2.5724699 -2.398499 0.019607844
53.927876 3.7198169 -2.2076688 0.062745102
134.95869 2.2410209 -0.019920137 0.24705882
37.240746 2.4367206 -2.3928483 0.019607844
87.338097 1.4502641 5.0691175 0.078431375
53.689281 3.5153577 -2.1973598 0.062745102
36.711174 2.2736115 -2.3582227 0.019607844
53.713196 3.3289516 -2.1978359 0.062745102
36.547539 2.1356995 -2.3471873 0.019607844
54.031708 3.1597121 -2.2104042 0.06666667
8.3547325 0.050758377 -2.3181393 0
36.518894 2.0064197 -2.3448699 0.019607844
54.369633 2.9893875 -2.2237892 0.06666667
36.641293 1.8851761 -2.3522959 0.019607844
54.307899 2.7961619 -2.2208331 0.06666667
36.866943 1.7680849 -2.3663886 0.019607844
54.289387 2.6055145 -2.2196748 0.06666667
54.374008 2.419657 -2.2227645 0.06666667
87.366302 3.5850093 0.4943811 0.10980392
54.298264 2.22668 -2.2193182 0.06666667
87.006081 3.2798102 -1.5328169 0.24705882
87.202026 3.2873807 0.49203122 0.10980392
54.385357 2.0488141 -2.223104 0.06666667
54.352238 1.8579046 -2.221453 0.06666667
14.538684 -0.26180318 0.83855146 0
53.667297 1.6472338 -2.1931577 0.062745102
2.4918885 -0.051832967 -0.3750923 0
53.425018 1.453452 -2.183007 0.062745102
125.49625 -15.484644 -1.4898571 0.33333334
53.797356 1.275998 -2.1980283 0.062745102
5.4880624 -0.41883138 0.98559034 0
2.4644065 0.023404775 -0.15344882 0
115.67238 -15.913635 -6.8120632 0.15686275
111.19492 -16.087708 -1.3234981 0.027450981
111.16975 -16.480139 -1.3238302 0.082352944
5.4307938 -0.26465064 0.65497077 0
4.8806672 -0.03654578 -0.085235342 0
7.2419276 -0.15322304 -0.29326776 0
21.764301 -1.6025256 -2.3447149 0.0078431377
5.2777691 -0.12910323 0.14900477 0
3.5748274 -0.12306796 -0.062248465 0
15.046831 -1.3158213 -2.3381393 0
115.7194 -15.899399 -0.6971361 0.16862746
115.69255 -15.896386 -6.133955 0.24705882
115.77811 -16.319447 -3.4187686 0.15686275
115.683 -16.305689 -0.69720489 0.16862746
115.64823 -16.301468 -6.1345339 0.24705882
4.3525314 -0.19493747 -0.075981922 0
3.0519421 -0.42605829 -0.59692347 0
15.03748 -1.4196255 -2.3371735 0
115.70847 -16.721573 -0.69916815 0.16862746
40.41687 -7.8582153 -2.3993561 0.027450981
111.11687 -16.453581 -3.2855337 0.15686275
39.539268 -7.8301125 -2.3487341 0.027450981
4.1233959 -0.39588466 0.23340392 0
6.3015237 -0.63040358 -0.67293829 0
3.4077265 -0.17346114 0.09462738 0
38.766846 -7.8030586 -2.304178 0.015686275
5.6111379 -0.58045644 -0.0019616738 0
25.731234 -5.269949 -2.4473181 0.0078431377
38.370319 -7.8690963 -2.2822378 0.015686275
2.9322169 -0.1682651 -0.050943058 0
8.3650703 -0.89891446 -2.328326 0
3.3236411 -0.35005799 -0.50518048 0
5.9446101 -0.92571658 -0.036344588 0
14.083978 -0.83297795 -0.9009335 0
38.199394 -7.965703 -2.2735913 0.015686275
38.1987 -8.1044445 -2.2752039 0.015686275
4.4592967 -0.29055616 -0.07794556 0
8.4158182 -0.96466053 -2.3445024 0
4.1443253 -0.26954439 -0.26113987 0
38.13752 -8.2372484 -2.2733178 0.015686275
4.1638403 -0.47076598 0.49990484 0
8.3858004 -0.98901546 -2.3369462 0
38.024197 -8.3444395 -2.2681689 0.015686275
8.3861208 -1.0183843 -2.3380213 0
37.979256 -8.4732647 -2.2672164 0.015686275
125.54602 -15.425927 -2.9631557 0.10196079
5.0067611 -0.86614901 -2.3228395 0
8.3479424 -1.0443701 -2.3283067 0
37.815559 -8.5818939 -2.2592676 0.015686275
8.3100576 -1.0672255 -2.3185925 0
37.802452 -8.710495 -2.2601812 0.015686275
45.633099 -8.2005396 -2.4328425 0.039215688
8.4093647 -1.1096364 -2.3477204 0
4.5818915 -0.59790522 -0.0017717923 0
29.493933 -5.3995404 -2.4450996 0.0078431377
37.736832 -8.8338175 -2.2580626 0.015686275
44.633804 -8.181118 -2.380954 0.039215688
5.019762 -0.92017651 -2.3297379 0
8.3599033 -1.1328472 -2.3327973 0
115.74004 -15.882684 -0.021957593 0.24705882
37.681107 -8.9648094 -2.2567084 0.015686275
115.71269 -15.879718 -5.4573469 0.074509807
43.948006 -8.2204752 -2.3460708 0.039215688
5.0129604 -0.93661654 -2.3280439 0
8.3711557 -1.1637765 -2.3371091 0
115.65617 -16.282288 -0.021893704 0.36078432
37.746605 -9.119401 -2.2625167 0.015686275
115.69614 -16.288713 -5.459156 0.074509807
43.74641 -8.340436 -2.3368056 0.039215688
8.3674583 -1.1897137 -2.3371053 0
11.717961 -2.2560818 -2.3675056 0.0039215689
115.65591 -16.652617 -0.021849735 0.46666667
34.046692 -8.3353386 0.40000048 0.0078431377
37.737164 -9.2423487 -2.2636633 0.015686275
43.469048 -8.4286842 -2.3233426 0.039215688
79.885757 -15.79751 -2.3816056 0.15294118
8.3632555 -1.2185185 -2.337101 0
37.972015 -9.4402895 -2.2797322 0.015686275
43.235603 -8.5396204 -2.3123975 0.039215688
8.3813648 -1.253652 -2.3435702 0
3.3470263 -0.65308487 -0.6613974 0
38.159992 -9.6424847 -2.2932336 0.015686275
43.06155 -8.6766586 -2.304811 0.039215688
8.3274584 -1.274824 -2.3295391 0
68.546638 -10.619967 -0.013299934 0.11764706
33.876877 -8.6822062 -0.4125658 0.011764706
33.939011 -8.6980467 0.39987841 0.75686276
42.94492 -8.8088188 -2.3001666 0.039215688
8.3690643 -1.3078567 -2.342483 0
33.90749 -8.8033571 -0.41325587 0.011764706
33.919262 -8.8062849 0.39998826 0.85882354
33.825241 -8.7822056 -2.0355084 0.015686275
4.4351387 -0.68436325 -0.20567542 0
42.846653 -8.928628 -2.296365 0.039215688
4.4390945 -0.68487883 0.53581786 0
33.908375 -8.8037262 -1.2262309 0.015686275
7.4828525 -1.5392374 1.3701634 0
5.0245457 -1.044104 -2.3432479 0
8.38346 -1.3397472 -2.3478739 0
62.453655 -16.472485 -0.76207113 0.047058824
33.903782 -8.9283218 0.40019208 0.85882354
42.791782 -9.0727577 -2.2950809 0.039215688
4.9673591 -1.0514395 -2.3178785 0
8.3554573 -1.3677081 -2.3413951 0
62.281784 -16.682705 -0.76070863 0.047058824
33.861523 -9.0559254 0.40012237 0.65882355
33.970589 -5.6181202 -2.4069948 0.011764706
38.021652 -10.172759 -2.2931435 0.015686275
42.772243 -9.2399445 -2.2958946 0.039215688
8.3204947 -1.3898864 -2.3327591 0
62.037003 -16.837349 -0.75836051 0.047058824
42.725769 -9.377923 -2.2950318 0.039215688
4.9777775 -1.0884137 -2.3263285 0.015686275
126.27941 -15.516852 -2.242903 0.24705882
8.364934 -1.4270607 -2.3467813 0
61.761929 -16.993874 -0.7556802 0.047058824
37.759056 -10.377495 -2.2814398 0.015686275
48.127838 -8.3034678 -2.2793472 0.015686275
42.720062 -9.5327177 -2.2964776 0.039215688
4.9741421 -1.1045387 -2.3263259 0.015686275
8.3336039 -1.4497325 -2.3392243 0
61.497204 -17.140125 -0.75309634 0.047058824
25.959923 -7.2172866 -2.5103564 0.0078431377
61.547569 -17.153934 0.73141307 0.039215688
37.724434 -10.502275 -2.2814181 0.015686275
47.014008 -8.2711096 -2.2277615 0.015686275
42.820656 -9.7040462 -2.3035948 0.039215688
4.9746151 -1.1216035 -2.3247709 0.015686275
121.71814 -15.819132 -2.165158 0.24705882
80.846848 -18.655193 -2.4270775 0.15294118
8.3287344 -1.4786066 -2.337245 0
6.7712455 -1.5366246 -1.3673632 0
61.44569 -17.366947 -0.7538994 0.047058824
25.642401 -7.2276936 -2.4816704 0.0078431377
61.334404 -17.335154 0.72877496 0.039215688
37.693638 -10.640594 -2.2819123 0.015686275
46.373981 -8.3324003 -2.199065 0.015686275
42.960114 -9.8997984 -2.3131981 0.039215688
4.9743981 -1.1385194 -2.3264594 0.015686275
8.3275747 -1.5065104 -2.3383195 0
61.418522 -17.579031 -0.75423926 0.047058824
25.258438 -7.2090759 -2.446645 0.0078431377
61.149704 -17.501661 0.72729844 0.039215688
8.0495176 -1.8594741 0.13951734 0
37.754112 -10.792654 -2.2877197 0.015686275
6.9364171 -1.2506746 0.40102699 0
46.188896 -8.4568748 -2.1915653 0.015686275
43.121487 -10.087418 -2.3236752 0.039215688
6.1356955 -1.1036245 0.74840736 0
4.2775764 -0.55444711 -0.17279378 0
4.9737186 -1.1571397 -2.3281472 0.011764706
8.3295708 -1.5379965 -2.3404727 0
11.674306 -2.7549677 -2.378638 0.0039215689
60.789097 -17.639418 -0.74725401 0.047058824
8.3931837 -1.9723235 -1.0850443 0
115.68947 -15.855625 0.65445167 0.21960784
24.895313 -7.2033024 -2.4138529 0.0078431377
60.889275 -17.668266 0.72499967 0.039215688
46.016212 -8.5991726 -2.1848104 0.015686275
43.200798 -10.272751 -2.3299489 0.039215688
8.0952587 -1.9009696 0.66652203 0
92.205711 -17.253525 -2.1984289 0.10196079
114.88619 -16.113329 -2.0461915 0.24705882
79.013863 -19.074862 -2.3775332 0.15294118
8.3057804 -1.5601681 -2.335073 0
11.638908 -2.784795 -2.3731356 0.0039215689
60.576057 -17.783642 -0.74528164 0.047058824
115.71433 -16.229176 0.65493554 0.027450981
101.53394 -24.519508 -0.62582761 0.16862746
24.563082 -7.1900511 -2.3836706 0.0078431377
60.587883 -17.786842 0.72209811 0.039215688
45.792717 -8.7059011 -2.1754436 0.015686275
5.809948 -1.3750883 -0.30889335 0
115.76578 -16.237249 -4.7811918 0.24705882
6.0048943 -1.4219717 1.1012374 0
90.666206 -17.259682 -2.1629298 0.10196079
8.3189116 -1.5938311 -2.3404634 0
60.311157 -17.945673 -0.74278384 0.047058824
24.238871 -7.1908216 -2.3546035 0.0078431377
60.365124 -17.961487 0.72025818 0.039215688
3.8310874 -0.91097057 0.064821571 0
45.540863 -8.8305302 -2.1649518 0.015686275
43.560459 -10.671526 -2.3532112 0.039215688
89.299103 -17.338047 -2.1317382 0.10196079
4.9791322 -1.2114302 -2.3365939 0
8.3586378 -1.6314173 -2.3534064 0
11.573018 -2.8557506 -2.363699 0.0039215689
60.094997 -18.109415 -0.74085498 0.047058824
34.028664 -8.455884 -4.4554281 0.011764706
68.589981 -10.112939 0.38793012 0.05882353
24.000122 -7.2104902 -2.3337314 0.0078431377
60.110619 -18.113853 0.71800292 0.039215688
29.702127 -7.3766246 -2.4952536 0.011764706
45.376495 -8.9626274 -2.158572 0.015686275
5.0443616 -0.72688383 -0.20484795 0
88.355431 -17.47443 -2.1105852 0.10196079
4.9891462 -1.2310884 -2.3433554 0
5.6265907 -0.83152813 -0.099410079 0
8.3116484 -1.650353 -2.3415329 0
11.5825 -2.8985186 -2.3676178 0.0039215689
59.854828 -18.253254 -0.73859751 0.047058824
33.977356 -8.5624399 -4.452374 0.011764706
23.899906 -7.2663555 -2.3262677 0.0078431377
59.843658 -18.249565 0.71556199 0.039215688
29.275547 -7.3730173 -2.4613166 0.011764706
45.295605 -9.1023874 -2.1561177 0.015686275
4.9848194 -1.2480724 -2.3433523 0
8.313385 -1.6804804 -2.3436859 0
11.553315 -2.9336324 -2.3636849 0.0039215689
59.653187 -18.419092 -0.73685765 0.047058824
33.981846 -8.6894455 -4.4569039 0.011764706
68.570946 -10.586697 0.38829651 0.05882353
33.926052 -8.6743574 -0.21003787 0.87450981
23.832542 -7.3363638 -2.322155 0.0078431377
59.603821 -18.403538 0.71349007 0.039215688
28.793966 -7.3578038 -2.4228127 0.0078431377
38.18943 -11.778435 -2.3283834 0.015686275
3.6699712 -0.72754437 0.20909242 0
45.23616 -9.2544003 -2.1547828 0.015686275
3.09337 -0.60923886 0.37070325 0
55.891495 -8.6260004 -2.3109844 0.070588239
4.9696894 -1.2631464 -2.3382757 0
8.2770081 -1.70419 -2.3350487 0
11.561465 -2.9804571 -2.3676031 0.0039215689
59.321938 -18.554619 -0.73355764 0.047058824
33.942101 -8.8114929 -4.4558702 0.011764706
33.901775 -8.8002148 -0.21006325 0.8509804
23.786495 -7.417263 -2.3202763 0.0078431377
59.223011 -18.523335 0.70976728 0.039215688
28.377163 -7.3613262 -2.3898535 0.0078431377
37.883095 -11.835475 -2.3122652 0.015686275
10.351435 -2.1371424 0.60553443 0
45.115894 -9.4017096 -2.1506441 0.015686275
8.5285921 -2.1897664 0.70649874 0
54.193703 -8.566432 -2.2419202 0.06666667
4.9584646 -1.2773654 -2.3348908 0
8.3014536 -1.7376294 -2.3436761 0
11.551519 -3.0183775 -2.3675961 0.0039215689
58.966503 -18.657749 -0.72988421 0.047058824
33.887875 -8.9162703 -0.21013856 0.87058824
23.735193 -7.4872732 -2.3176539 0.0078431377
58.947742 -18.651524 0.70723403 0.039215688
27.982559 -7.3572664 -2.3585267 0.0078431377
4.2899566 -0.67424726 0.12090501 0
7.1712222 -1.8612316 0.12483321 0
37.424931 -11.827868 -2.2865884 0.015686275
44.986755 -9.5301104 -2.1459472 0.015686275
6.3626642 -1.6476454 0.52462989 0
53.068188 -8.5681982 -2.1964166 0.062745102
4.960753 -1.2969625 -2.3382695 0
62.470119 -16.708887 -1.8907467 0.06666667
8.276207 -1.7635278 -2.3382761 0
11.521437 -3.0551732 -2.3636627 0.0039215689
58.669228 -18.799931 -0.72700965 0.047058824
33.90659 -9.0545816 -4.4593668 0.011764706
33.858833 -9.0410042 -0.21013986 0.85882354
23.688633 -7.5676827 -2.3157749 0.0078431377
58.909451 -18.876787 0.70764315 0.039215688
27.743612 -7.4025702 -2.3405704 0.0078431377
8.2112474 -2.1676116 0.14357138 0
3.5126703 -0.56127852 -0.22209373 0
37.176025 -11.898584 -2.2739689 0.015686275
45.0023 -9.7054653 -2.1483479 0.015686275
52.646076 -8.6975594 -2.1801913 0.062745102
4.9561963 -1.3138469 -2.3382664 0
4.2900538 -0.70493829 -0.075758293 0
8.2587156 -1.7895 -2.3350341 0
11.548553 -3.1052344 -2.3715067 0.0039215689
100.48 -22.069059 -0.01952504 0.24705882
58.569012 -18.993057 -0.72654492 0.047058824
18.639095 -5.0320058 -2.4469762 0.0039215689
23.639347 -7.6425152 -2.3135245 0.0078431377
58.58073 -18.996584 0.7045148 0.039215688
34.275951 -7.5108523 -2.4528067 0.011764706
27.663748 -7.4843082 -2.3359869 0.0078431377
36.902607 -11.952573 -2.2597184 0.015686275
45.022778 -9.8740826 -2.1509364 0.015686275
52.319855 -8.8308487 -2.1678929 0.062745102
82.67025 -18.152937 -1.9830287 0.10196079
4.9843464 -1.3366827 -2.3502383 0
8.2795973 -1.8207941 -2.3406038 0
11.527329 -3.1380718 -2.3677878 0.0039215689
9.7606697 -2.1512308 -0.0031343228 0.0039215689
58.460358 -19.170109 -0.72658283 0.047058824
23.61429 -7.7183132 -2.3131089 0.0078431377
58.361881 -19.137445 0.70184237 0.039215688
34.169266 -7.6045508 -2.4468467 0.011764706
27.573727 -7.5558896 -2.3301749 0.0078431377
8.5090179 -2.3065863 0.14886439 0
7.5173383 -1.2749256 -0.48319793 0
36.77964 -12.045081 -2.2545905 0.015686275
45.12252 -10.051448 -2.157516 0.015686275
52.19191 -8.9862881 -2.1641834 0.062745102
68.22271 -22.37887 -2.5165248 0.098039217
4.9726691 -1.3516717 -2.3468525 0
61.486172 -17.123055 -1.8666129 0.06666667
8.3032398 -1.8560565 -2.3492308 0
11.538974 -3.184165 -2.3724911 0.0039215689
101.89555 -23.107357 -0.021002932 0.24705882
58.218491 -19.315548 -0.72436678 0.047058824
61.592354 -17.152391 -0.38362104 0.050980393
23.594761 -7.8027558 -2.3138366 0.0078431377
58.154297 -19.2939 0.70018739 0.039215688
33.551071 -7.5890183 -2.4042981 0.011764706
27.474226 -7.631279 -2.3239586 0.0078431377
6.4618421 -1.1153994 0.18457706 0
3.092412 -0.82646412 0.051868536 0
36.642643 -12.14144 -2.2487328 0.015686275
45.239124 -10.242948 -2.1647751 0.015686275
43.825588 -12.19454 -2.3869476 0.039215688
51.920124 -9.125658 -2.1541708 0.062745102
12.149603 -3.3536551 2.2716064 0
101.6764 -23.058044 -2.4440491 0.10196079
4.9609456 -1.3665954 -2.3434672 0
61.160557 -17.262039 -1.8584919 0.062745102
8.296711 -1.8845768 -2.3492253 0
6.259171 -1.7335743 -1.2763819 0
57.991489 -19.464636 -0.72233987 0.047058824
6.3344479 -1.7547753 -0.82316148 0
61.447422 -17.342882 -0.38305119 0.050980393
23.559832 -7.8820786 -2.3130746 0.0078431377
57.961487 -19.454243 0.69871587 0.039215688
32.945053 -7.5719552 -2.3625891 0.011764706
27.401386 -7.7136621 -2.3200254 0.0078431377
8.0897102 -1.4310219 -0.52116829 0
36.509197 -12.238263 -2.2431083 0.015686275
45.935036 -10.569243 -2.1998787 0.015686275
43.571354 -12.287199 -2.3753641 0.039215688
51.742409 -9.2802143 -2.1480851 0.062745102
8.2511988 -1.8732171 2.2302582 0
80.873611 -18.630947 -1.9451197 0.10196079
4.9735684 -1.3884473 -2.3519192 0
8.2900829 -1.9130741 -2.34922 0
11.55417 -3.2745478 -2.380327 0.0039215689
57.733868 -19.602064 -0.71993512 0.047058824
61.590302 -17.615223 -0.38427854 0.050980393
21.843853 -5.0903621 -2.4078529 0.0078431377
23.475624 -7.9445715 -2.3074706 0.0078431377
57.722832 -19.598009 0.69669354 0.039215688
32.374542 -7.5589523 -2.3233991 0.011764706
27.343637 -7.8000245 -2.3173974 0.0078431377
8.5322599 -1.5408959 -0.55041754 0
36.281025 -12.302141 -2.2316532 0.015686275
43.182613 -12.339711 -2.3564286 0.039215688
51.583912 -9.4372473 -2.1428177 0.062745102
9.8058224 -2.2674508 2.6596017 0
102.96906 -24.107761 -2.4789991 0.10196079
4.9584942 -1.401471 -2.3468428 0
60.87653 -17.629141 -1.8533747 0.062745102
8.2499704 -1.9320993 -2.3395035 0
11.505581 -3.301482 -2.3724678 0.0039215689
104.85871 -24.916931 -0.021423684 0.24705882
57.521049 -19.742237 -0.71805227 0.047058824
61.02832 -17.672895 -0.38109893 0.050980393
21.741739 -5.1420884 -2.3983986 0.0078431377
23.396425 -8.0038071 -2.3022399 0.0078431377
57.494888 -19.732937 0.6947608 0.039215688
32.003815 -7.5836353 -2.2984791 0.011764706
27.298477 -7.8846698 -2.3157485 0.0078431377
36.01725 -12.345315 -2.2178674 0.015686275
42.976494 -12.434537 -2.3473678 0.039215688
51.493404 -9.5968122 -2.1403332 0.062745102
4.9011631 -1.4038103 -2.3214724 0
8.242835 -1.9618493 -2.339498 0
11.470828 -3.336513 -2.3677483 0.0039215689
7.1750422 -1.703216 -0.0026138795 0
57.28587 -19.895914 -0.7159763 0.047058824
60.583241 -17.784222 -0.37868229 0.050980393
23.306753 -8.0680819 -2.2962625 0.0078431377
57.267303 -19.889147 0.69292396 0.039215688
31.863331 -7.6732125 -2.2903435 0.011764706
27.208202 -7.9661937 -2.3105099 0.0078431377
60.2953 -17.699217 1.0822992 0.06666667
35.722858 -12.390122 -2.2024465 0.015686275
6.2200317 -1.4722278 0.36245 0
46.078175 -11.110309 -2.212122 0.015686275
42.275341 -12.398713 -2.3114171 0.039215688
51.457882 -9.7850075 -2.1402998 0.062745102
4.944869 -1.4349545 -2.3451445 0
61.036213 -18.149015 -1.8620672 0.062745102
8.1648664 -1.9727062 -2.3189912 0
11.50422 -3.3895235 -2.3771622 0.0039215689
101.18542 -24.808367 -0.020612761 0.24705882
57.065166 -20.042177 -0.71404433 0.047058824
59.949284 -17.826366 -7.9575925 0.050980393
60.325298 -17.936876 -0.37741798 0.050980393
23.237127 -8.134388 -2.2921484 0.0078431377
57.023975 -20.027376 0.69085544 0.039215688
31.751102 -7.7630062 -2.2841678 0.011764706
27.130566 -8.0458651 -2.3062506 0.0078431377
35.694458 -12.519593 -2.2033525 0.015686275
46.039112 -11.270631 -2.2120914 0.015686275
41.998299 -12.476167 -2.2985744 0.039215688
9.1203861 -2.6785505 0.76288354 0
51.568577 -9.9923143 -2.1463213 0.062745102
77.494873 -18.992804 -1.8697762 0.05882353
4.9262018 -1.4467268 -2.338377 0
9.6954012 -1.8908398 -0.17335083 0
8.2292938 -2.0170286 -2.3394873 0
11.515446 -3.4340205 -2.3818655 0.0039215689
56.870262 -20.185293 -0.71239799 0.047058824
18.679867 -5.5947948 -2.4709435 0.0039215689
60.066341 -18.076336 -0.37613201 0.050980393
23.15374 -8.1909466 -2.286545 0.0078431377
56.832893 -20.171696 0.68938136 0.039215688
31.655485 -7.8504686 -2.2791119 0.011764706
27.080832 -8.1284523 -2.3042753 0.0078431377
36.190739 -12.828861 -2.2366776 0.015686275
41.711933 -12.541121 -2.2851031 0.039215688
6.6385255 -1.2865187 -0.2728461 0
56.63208 -20.100857 -2.1054854 0.078431375
77.113274 -19.170012 -1.8620361 0.05882353
4.9211235 -1.4634616 -2.3383734 0
60.024117 -18.292229 -1.8348243 0.062745102
8.2184715 -2.0443463 -2.3384032 0
11.50339 -3.4737444 -2.3818574 0.0039215689
56.641384 -20.326372 -0.71037167 0.047058824
18.565353 -5.630537 -2.4582858 0.0039215689
6.2668304 -1.2352542 0.03390941 0
59.849869 -18.23871 -0.37513146 0.050980393
23.121262 -8.2699194 -2.2861555 0.0078431377
56.622879 -20.319414 0.68772572 0.039215688
27.029419 -8.2154942 -2.3022993 0.0078431377
59.612602 -18.165955 1.0734407 0.06666667
8.4065485 -1.6661433 -0.54397655 0
36.292282 -13.007373 -2.2457461 0.015686275
6.5878315 -1.6317201 0.38541201 0
46.058186 -11.607344 -2.2167032 0.015686275
42.126339 -12.826211 -2.3102791 0.039215688
51.781467 -10.399013 -2.1580379 0.062745102
56.640564 -20.32638 -2.1083884 0.078431375
7.8192649 -2.3477998 1.4631311 0
76.464348 -19.291651 -1.8479159 0.05882353
4.9365044 -1.4874446 -2.3485165 0
59.505955 -18.372164 -1.8209664 0.062745102
8.2109241 -2.0739796 -2.3383975 0
11.468103 -3.5084515 -2.3771379 0.0039215689
33.919167 -8.6709681 -0.0076807025 0.85882354
56.423672 -20.481392 -0.70853221 0.039215688
18.639359 -5.7273936 -2.4709163 0.0039215689
59.595375 -18.399536 -0.37391329 0.050980393
23.049629 -8.3391523 -2.2820404 0.0078431377
7.3656216 -1.8565671 0.17118624 0
56.401436 -20.472998 0.68598026 0.027450981
31.474829 -8.0441198 -2.2701163 0.011764706
26.94581 -8.2975321 -2.297713 0.0078431377
59.549446 -18.385025 1.0735544 0.06666667
37.043468 -7.5727758 -2.4235685 0.019607844
36.360699 -13.182154 -2.2529471 0.015686275
41.99128 -12.952889 -2.3054163 0.039215688
52.882309 -10.821986 -2.2056112 0.062745102
56.599495 -20.545668 -2.1096058 0.078431375
76.013527 -19.473885 -1.8386707 0.05882353
4.9038711 -1.4947104 -2.3349845 0
59.31115 -18.527151 -1.8168288 0.062745102
8.1704531 -2.0920372 -2.328681 0
11.475119 -3.5518911 -2.3810561 0.0039215689
33.897968 -8.7849836 -0.0076604839 0.87058824
56.216541 -20.616896 -0.70674443 0.039215688
33.839622 -8.7708549 -5.4268494 0.36862746
59.377522 -18.547632 -0.3728911 0.047058824
23.014374 -8.4123631 -2.2812791 0.0078431377
56.145527 -20.590488 0.68372548 0.027450981
31.366886 -8.1269217 -2.2642212 0.011764706
26.933363 -8.3911772 -2.2989995 0.0078431377
59.377453 -18.547314 1.0715907 0.06666667
3.9634545 -0.79945922 -0.2529839 0
36.609127 -13.409695 -2.2711115 0.015686275
42.184441 -13.165628 -2.3184106 0.039215688
9.0561571 -2.3215353 2.4682515 0
8.3660192 -2.577754 1.5706606 0
4.8848033 -1.5069855 -2.3282166 0
6.0883803 -1.2644169 -0.10874917 0
59.120342 -18.693762 -1.8129234 0.062745102
8.1928949 -2.1279564 -2.3373077 0
11.399092 -3.5713286 -2.3677003 0.0039215689
33.882565 -8.9068842 -0.0076404992 0.86274511
55.964268 -20.745684 -0.70443523 0.039215688
33.816444 -8.8904905 -5.4280572 0.16078432
18.766373 -5.9059968 -2.4931436 0.0039215689
59.030254 -18.664915 -0.37107682 0.047058824
23.025934 -8.5074549 -2.2853584 0.0078431377
55.987072 -20.753853 0.68271226 0.027450981
31.292028 -8.2236919 -2.2608428 0.011764706
26.869707 -8.4738493 -2.2960446 0.0078431377
59.144604 -18.700853 1.0685921 0.06666667
36.420971 -7.7028556 -2.38606 0.019607844
36.517174 -13.52026 -2.268285 0.015686275
10.172799 -2.6498709 0.60171902 0
42.100155 -13.300282 -2.3162799 0.039215688
62.524227 -16.465574 -1.5146428 0.050980393
4.9117556 -1.5313991 -2.3401856 0
4.6495166 -0.97381198 -0.082839586 0
58.971195 -18.871096 -1.8108193 0.062745102
8.2381372 -2.1681614 -2.3504264 0
11.394606 -3.6108093 -2.3679006 0.0039215689
33.863136 -9.0261478 -0.0080965376 0.88235295
55.693401 -20.863901 -0.70248032 0.039215688
33.796951 -9.0095606 -5.4291277 0.13725491
99.733574 -21.503588 0.57015651 0.10980392
58.785973 -18.811367 -0.3706069 0.047058824
23.033905 -8.5988588 -2.2886498 0.0078431377
55.678749 -20.858078 0.67908615 0.027450981
31.213301 -8.3173923 -2.2570724 0.011764706
26.85174 -8.5687399 -2.296735 0.0078431377
6.6923733 -1.4148376 0.19243567 0
58.904045 -18.848921 1.0645701 0.06666667
35.738533 -7.6867847 -2.3429317 0.019607844
36.503834 -13.657545 -2.2703657 0.015686275
7.7297845 -2.0315187 0.45480779 0
46.092556 -12.299784 -2.2265439 0.015686275
42.152664 -13.476588 -2.3218472 0.039215688
4.8960381 -1.5446961 -2.3351088 0
5.1851606 -1.1079189 -0.09258192 0
8.1710443 -2.1802797 -2.3331559 0
11.475196 -3.6803601 -2.3875215 0.0039215689
33.900909 -9.162672 -0.0080858963 0.40784314
55.41082 -20.978216 -0.69978881 0.035294119
101.70901 -22.301464 0.58200467 0.10980392
58.575375 -18.969042 -0.36965048 0.047058824
23.040987 -8.6928606 -2.2923558 0.0078431377
55.500893 -21.012079 0.67784697 0.027450981
31.14172 -8.4143181 -2.2539721 0.011764706
26.742039 -8.6360884 -2.2898645 0.0078431377
58.594433 -18.974911 1.0601943 0.06666667
35.107162 -7.6783094 -2.3031285 0.019607844
36.123672 -13.658289 -2.2495775 0.015686275
10.705553 -2.8675053 0.63421595 0
45.821827 -12.398375 -2.2154837 0.015686275
