# .PCD v0.7 - Point Cloud Data file format
VERSION 0.7
FIELDS x y z intensity
SIZE 4 4 4 4
TYPE F F F F
COUNT 1 1 1 1
WIDTH 1147
HEIGHT 1
VIEWPOINT 0 0 0 1 0 0 0
POINTS 1147
DATA ascii
-52.144264 15.004368 -1.5694053 0.039215688
-7.732151 1.809938 -2.2029283 0
-10.803316 3.0949152 -2.2326257 0
-33.289265 7.837779 0.0051009911 0.023529412
-35.002022 11.943015 -0.42478961 0.035294119
-13.971815 3.281532 -2.220192 0
-18.367331 5.273901 -2.4211636 0.0039215689
-55.39875 10.228204 0.33585092 0.035294119
-98.161888 28.261116 -0.57860762 0.16862746
-20.367544 4.7899323 -2.2433798 0.0078431377
-20.96607 7.1452603 -2.0585387 0.023529412
-34.17532 8.0468655 0.82065862 0.050980393
-32.647755 11.13846 0.40548319 0.019607844
-29.080334 6.8448267 -2.0798781 0.0039215689
-24.000948 6.8968725 -2.0296061 0.031372551
-32.988876 6.0868206 0.97952169 0.039215688
-26.710279 4.9261413 -1.7321079 0.035294119
-31.884895 10.877335 -1.9535757 0.015686275
-34.472523 8.117137 2.0638719 0.06666667
-33.722744 9.6980171 1.4318653 0.023529412
-42.244949 9.9496489 -2.0120242 0.015686275
-39.16721 11.2659 -2.1265633 0.039215688
-35.688255 10.264475 3.0313973 0.015686275
-26.723047 4.9285846 -1.1000937 0.023529412
-51.665089 17.638224 -1.8966976 0.047058824
-9.9469576 2.3325694 -0.23470236 0
-4.6766486 1.3474013 -2.2375684 0
-51.815231 15.105399 -1.5610962 0.039215688
-7.7370334 1.8393679 -2.2061653 0
-10.80752 3.1367614 -2.2357671 0
-33.308395 7.9648747 0.005091765 0.023529412
-35.01683 12.084487 -0.42549953 0.011764706
-13.983347 3.3355656 -2.2238848 0
-18.280254 5.3177319 -2.4120922 0.0039215689
-98.36216 28.690767 -0.58042783 0.16862746
-20.23081 4.8320408 -2.2301285 0.0078431377
-20.89584 7.2025476 -2.0540957 0.035294119
-34.298698 8.2022028 0.82429433 0.062745102
-34.963757 12.066278 0.43481553 0.039215688
-29.079556 6.9516306 -2.081563 0.011764706
-23.90785 6.9602642 -2.0237706 0.031372551
-33.642502 9.8018274 0.61545396 0.031372551
-28.779881 5.4123092 -1.8678869 0.05882353
-31.786354 10.967454 -1.9498817 0.015686275
-35.612881 8.5171785 2.1340361 0.047058824
-33.82682 9.8557463 1.4377301 0.023529412
-7.0047932 1.6642389 -0.33122805 0
-37.129845 10.819245 -2.0178158 0.019607844
-7.4004817 1.7591989 0.92678535 0
-35.59481 10.371995 3.0264878 0.015686275
-51.235264 12.258783 -1.2164149 0.031372551
-4.6754036 1.3645034 -2.2392607 0
-110.82023 21.270723 -1.9508311 0.24705882
-7.7193465 1.8633906 -2.2029359 0
-10.807797 3.1775603 -2.2381244 0
-33.245419 8.0723381 0.005069776 0.023529412
-99.821014 34.877663 -1.2158954 0.082352944
-13.97931 3.3859804 -2.2251205 0
-18.052299 5.3193922 -2.3843541 0.0039215689
-100.15247 29.592773 -0.59165788 0.16862746
-20.101765 4.8751283 -2.2177324 0.0078431377
-20.825466 7.2594261 -2.0496526 0.023529412
-34.343693 8.3395882 0.82605672 0.074509807
-35.012047 12.219683 0.43592641 0.0078431377
-29.276131 7.1066003 -2.0974476 0.035294119
-23.856655 7.0355182 -2.0215092 0.039215688
-32.666821 6.2629561 0.97118467 0.082352944
-33.77301 9.9677124 0.61846256 0.015686275
-32.269432 6.1862326 -2.0963066 0.019607844
-31.725273 11.070188 -1.9485075 0.015686275
-36.851723 8.9498062 2.2102606 0.023529412
-34.926682 10.308931 1.4860796 0.023529412
-42.147301 10.237229 -2.0107675 0.015686275
-37.490246 11.066317 -2.0395474 0.019607844
-47.851597 9.1785641 -1.9747043 0.039215688
-4.6795926 1.3846781 -2.2443595 0
-109.4638 21.431904 -1.9287962 0.24705882
-51.554592 15.43296 -1.5568277 0.12156863
-7.703764 1.8898944 -2.2008216 0
-10.798552 3.2184975 -2.2389624 0
-99.9235 35.330475 -1.2191676 0.082352944
-13.977021 3.4404106 -2.2270298 0
-55.446045 10.850808 0.33654603 0.039215688
-19.997454 4.9284439 -2.2084117 0.0078431377
-20.763447 7.3244505 -2.0464063 0.035294119
-34.385136 8.4849892 0.82768726 0.050980393
-32.834869 11.595575 0.40916499 0.0078431377
-29.294893 7.2264476 -2.1009171 0.035294119
-23.794865 7.1134534 -2.0186918 0.054901961
-32.697151 6.3946724 0.97268134 0.082352944
-33.681011 10.076678 0.61733031 0.031372551
-32.233353 6.3034091 -2.0956802 0.019607844
-31.603764 11.159644 -1.9437747 0.015686275
-36.623295 9.0383768 2.1984448 0.023529412
-42.026413 10.373227 -2.0070512 0.015686275
-36.613613 10.955167 -1.9941946 0.019607844
-35.013981 10.476522 2.9832807 0.047058824
-47.867043 9.3658686 -1.9770148 0.039215688
-51.506329 18.200945 -1.8982282 0.047058824
-51.070744 12.60877 -1.2149001 0.10196079
-4.6576357 1.394703 -2.2359118 0
-4.56635 0.89956385 -0.079454333 0
-51.49548 15.601292 -1.556622 0.12156863
-7.6937265 1.9142693 -2.1997473 0
-10.79158 3.2552023 -2.2397516 0
-33.400139 8.3588018 0.0049420898 0.070588239
-99.960205 35.716629 -1.2211087 0.082352944
-13.98088 3.490361 -2.2294939 0
-17.899424 5.411077 -2.3693109 0.0039215689
-100.39637 30.43367 -0.59482515 0.16862746
-19.919285 4.9790349 -2.2015765 0.015686275
-20.701548 7.3796334 -2.0427051 0.035294119
-34.383968 8.6055517 0.8283264 0.0078431377
-36.694313 13.097836 0.45788786 0.0078431377
-29.204975 7.3068352 -2.0961974 0.023529412
-23.736818 7.1816835 -2.0157797 0.031372551
-32.616959 6.4911199 0.97091234 0.10196079
-37.738697 11.429037 0.69253534 0.015686275
-32.184879 6.4045792 -2.0939081 0.019607844
-31.59667 11.274917 -1.9456477 0.015686275
-36.372353 9.1042042 2.1851387 0.082352944
-33.517464 10.148798 1.4288883 0.019607844
-41.929779 10.496767 -2.0041025 0.015686275
-35.135967 10.6392 -1.9155003 0.015686275
-34.776867 10.531025 2.9659843 0.031372551
-47.910202 9.5391731 -1.9801182 0.039215688
-51.468277 18.379499 -1.8990902 0.047058824
-7.6301084 1.8989367 2.0902438 0
-51.024784 12.776865 -1.2148319 0.10196079
-4.6458173 1.4085865 -2.2325346 0
-108.57072 22.024868 -1.9157482 0.24705882
-51.482765 15.793613 -1.5579233 0.12156863
-7.6870079 1.9408748 -2.1997511 0
-10.795161 3.2972186 -2.242893 0
-33.467678 8.4997501 0.0049399426 0.074509807
-99.910187 36.092278 -1.2220861 0.082352944
-13.983944 3.5427992 -2.2319579 0
-17.815956 5.4534802 -2.3607435 0.011764706
-32.540833 6.5937724 0.19755021 0.031372551
-100.40427 30.818907 -0.59555948 0.16862746
-19.832415 5.0306458 -2.193886 0.023529412
-20.638218 7.4380698 -2.0390043 0.035294119
-36.82518 13.289505 0.46008033 0.0078431377
-29.117432 7.3927517 -2.0917571 0.035294119
-23.669697 7.25138 -2.0122185 0.039215688
-32.535343 6.592762 0.96914244 0.12156863
-32.127129 6.5094957 -2.0916259 0.019607844
-31.421936 11.336028 -1.9373125 0.015686275
-36.305538 9.2220087 2.1830223 0.047058824
-33.554436 10.287786 1.4319748 0.023529412
-41.861916 10.634938 -2.0026391 0.015686275
-35.136818 10.773266 -1.9176067 0.015686275
-2.822382 0.70369023 0.34936419 0
-34.537922 10.590075 2.9486871 0.015686275
-48.088142 9.749033 -1.9889005 0.039215688
-51.527889 18.60364 -1.9037087 0.047058824
-6.4998469 1.9785408 1.2277328 0
-51.026394 12.966477 -1.2159671 0.10196079
-4.6443434 1.4256338 -2.2342267 0
-8.3865814 1.721522 -0.1470688 0
-51.518959 16.001482 -1.5607303 0.082352944
-7.6913853 1.9703466 -2.2029884 0
-10.802322 3.3404663 -2.2468185 0
-33.561756 8.6482773 0.0049417038 0.074509807
-99.768562 36.435078 -1.2219589 0.082352944
-13.979156 3.5933297 -2.2331936 0
-17.709667 5.4883013 -2.349149 0.011764706
-32.921104 6.7904444 0.19999197 0.050980393
-100.58254 31.258036 -0.59731543 0.16862746
-19.776236 5.0896668 -2.1896176 0.031372551
-20.552286 7.487958 -2.0330758 0.035294119
-34.818691 8.9728365 0.84027702 0.031372551
-29.056684 7.4851332 -2.0892656 0.035294119
-23.594755 7.3183327 -2.0080073 0.031372551
-32.868462 6.7796745 0.97977138 0.10196079
-32.914814 10.216824 0.60510468 0.094117649
-32.065121 6.6132874 -2.0890889 0.019607844
-31.352182 11.434443 -1.9354742 0.015686275
-36.207405 9.3314819 2.1790407 0.070588239
-41.812943 10.777767 -2.0021036 0.015686275
-36.247139 11.252619 -1.980472 0.019607844
-12.530128 3.2198613 1.5821878 0
-48.132103 9.9327679 -1.9921678 0.039215688
-51.601562 18.83392 -1.9088837 0.047058824
-51.015678 13.153274 -1.216825 0.10196079
-4.6326833 1.438627 -2.2308493 0
-102.78999 21.580633 -1.8163335 0.24705882
-51.553349 16.199614 -1.5634204 0.039215688
-7.6848187 1.9956166 -2.2029922 0
-10.794937 3.3772225 -2.2476079 0
-99.624687 36.757195 -1.2217368 0.082352944
-13.98629 3.6444438 -2.2362721 0
-17.619461 5.5241513 -2.339572 0.015686275
-84.533035 26.574932 -0.50251788 0.16078432
-19.674612 5.1328483 -2.1802154 0.054901961
-20.437679 7.5227432 -2.0241768 0.035294119
-36.634106 9.5708866 0.88492262 0.043137256
-32.640255 12.028099 0.40866876 0.0078431377
-29.008553 7.5751634 -2.0876088 0.019607844
-23.570366 7.3963122 -2.0080192 0.031372551
-32.873199 6.8941646 0.98057538 0.10196079
-33.021915 10.370103 0.60769117 0.031372551
-32.019588 6.7144361 -2.0875721 0.019607844
-31.179239 11.488338 -1.9271379 0.015686275
-36.284443 9.4795818 2.1855512 0.094117649
-33.613281 10.55627 1.4374948 0.023529412
-41.649418 10.882764 -1.9960008 0.015686275
-35.73333 11.222696 -1.9543912 0.019607844
-34.145615 10.723968 2.9212666 0.062745102
-48.239719 10.121679 -1.9980296 0.039215688
-51.647598 19.044861 -1.912945 0.047058824
-6.0366206 1.5649127 1.6541457 0
-51.076244 13.349484 -1.2193464 0.10196079
-4.6380057 1.4578515 -2.2359216 0
-100.4456 21.454296 -1.7762433 0.24705882
-51.656509 16.430185 -1.5683123 0.039215688
-7.6740913 2.0212042 -2.2019179 0
-10.783092 3.4146461 -2.2476137 0
-99.091621 26.282949 0.014702673 0.24705882
-99.664429 37.167412 -1.2238659 0.082352944
-13.973492 3.6930063 -2.2362792 0
-17.494209 5.5516744 -2.3254547 0.015686275
-99.231689 31.579826 -0.59065706 0.16862746
-19.579702 5.1808562 -2.171669 0.054901961
-20.336676 7.5659556 -2.0167632 0.035294119
-36.604347 9.6994963 0.88499767 0.054901961
-36.866283 13.734427 0.4622784 0.0078431377
-28.873951 7.647481 -2.0798268 0.027450981
-23.521622 7.4710484 -2.0060828 0.039215688
-33.044434 7.0504179 0.98640794 0.082352944
-32.840714 10.438959 0.60499972 0.062745102
-31.941309 6.8142476 -2.0840139 0.019607844
-31.116508 11.58849 -1.9257636 0.015686275
-34.070477 9.0271997 2.053813 0.019607844
-41.572559 11.017596 -1.9941663 0.015686275
-35.488411 11.281676 -1.9431356 0.019607844
-34.062397 10.828343 2.917336 0.047058824
-48.149387 10.278077 -1.9957814 0.039215688
-56.299931 20.985714 -2.0882139 0.078431375
-51.156891 13.561307 -1.222424 0.10196079
-4.6259975 1.4715706 -2.2325442 0
-100.42484 21.816423 -1.7772604 0.24705882
-7.6893167 2.0537467 -2.2083886 0
-10.767385 3.4508228 -2.2468357 0
-100.96918 27.15859 0.014945517 0.24705882
-13.97961 3.7466559 -2.2393579 0
-17.384094 5.5832548 -2.3133554 0.011764706
-19.465498 5.2230911 -2.1609833 0.062745102
-20.231895 7.6071439 -2.0089786 0.035294119
-37.176537 9.9901314 0.89967859 0.031372551
-31.773344 11.960216 0.39879119 0.0078431377
-28.827822 7.7427959 -2.0784492 0.019607844
-23.518177 7.5602045 -2.0080447 0.031372551
-33.023548 7.1663294 0.98650914 0.039215688
-32.982998 10.610948 0.60828871 0.047058824
-31.843229 6.9093509 -2.07918 0.019607844
-31.105766 11.708065 -1.9276377 0.015686275
-34.081184 9.1572456 2.0563598 0.031372551
-32.838852 10.564618 1.4073972 0.06666667
-41.468262 11.144745 -1.9910332 0.015686275
-4.3842678 1.1646594 0.54945856 0
-33.705669 10.844209 2.8899333 0.078431375
-48.152279 10.454329 -1.9974266 0.039215688
-52.744007 19.868574 -1.9587622 0.047058824
-51.294609 13.789433 -1.226889 0.031372551
-4.624289 1.4885973 -2.2342365 0
-2.9183047 0.63288367 -0.050606776 0
-35.229305 11.470277 -1.0713958 0.011764706
-7.6560974 2.0732424 -2.2008481 0
-10.740366 3.4832888 -2.2437057 0
-100.05184 27.286373 0.014771619 0.24705882
-4.3992739 1.1847469 -0.69797796 0
-17.26642 5.6116824 -2.300247 0.011764706
-32.910316 7.2617693 0.20045465 0.086274512
-34.996265 11.39441 -0.20860903 0.086274512
-19.370422 5.2698364 -2.1524372 0.047058824
-20.14196 7.6533771 -2.0026786 0.043137256
-37.014141 10.084876 0.89656991 0.019607844
-28.727486 7.8231888 -2.0731735 0.019607844
-23.46891 7.6346045 -2.0061083 0.031372551
-34.717628 11.303666 0.64105594 0.098039217
-31.779949 7.0116196 -2.0766432 0.019607844
-31.053524 11.812079 -1.9269598 0.015686275
-34.022057 9.2685709 2.0547104 0.031372551
-32.790386 10.675238 1.4068892 0.043137256
-41.405991 11.282892 -1.9899412 0.015686275
-35.169548 11.450654 -1.9300197 0.054901961
-33.550125 10.923249 2.8798091 0.047058824
-48.216969 10.644549 -2.0016675 0.039215688
-52.648186 20.042376 -1.9578189 0.047058824
-10.209352 2.7707098 2.8184097 0
-14.156372 4.5981574 2.7039473 0
-54.32476 14.808247 -1.3007138 0.035294119
-4.6225162 1.5056289 -2.235929 0
-7.6413989 2.0976639 -2.1986966 0
-10.772847 3.5352707 -2.2531188 0
-99.312172 27.457119 0.014624672 0.24705882
-100.77023 38.786209 -1.2425516 0.082352944
-13.975991 3.8500125 -2.2430582 0
-17.171371 5.6468143 -2.2901657 0.011764706
-32.947224 7.390399 0.20082031 0.086274512
-19.294422 5.3212786 -2.1460297 0.047058824
-20.089113 7.7133827 -2.0000916 0.035294119
-33.648743 9.2925901 0.81565994 0.043137256
-32.196709 12.376782 0.40515694 0.039215688
-28.638483 7.9061618 -2.068733 0.019607844
-23.37398 7.6937551 -2.0002723 0.031372551
-33.897282 7.6039753 1.0141971 0.086274512
-31.814333 10.479527 0.58799124 0.027450981
-31.689075 7.1073971 -2.0723193 0.019607844
-30.851877 11.858459 -1.9169998 0.015686275
-34.051086 9.4040766 2.058423 0.019607844
-32.847813 10.820713 1.4109555 0.06666667
-41.381771 11.431384 -1.9907048 0.015686275
-35.121788 11.57061 -1.9296213 0.054901961
-6.3772516 1.7484043 0.80470133 0
-33.57616 11.061301 2.8853326 0.047058824
-48.3862 10.858994 -2.010289 0.039215688
-52.230976 20.09218 -1.9449146 0.047058824
-9.7416172 2.6793768 2.6909974 0
-53.698483 14.83869 -1.286962 0.035294119
-4.6138034 1.5203693 -2.2342415 0
-10.66902 2.4236786 -0.18827429 0
-35.027027 11.674945 -1.067728 0.047058824
-7.6414566 2.1261654 -2.200856 0
-10.764174 3.5738559 -2.2539086 0
-98.433884 27.584131 0.014457716 0.24705882
-13.981504 3.9038689 -2.2461374 0
-17.064999 5.6775761 -2.2785709 0.011764706
-32.862743 7.4917617 0.2004467 0.086274512
-19.256592 5.3829861 -2.1439006 0.039215688
-20.028671 7.7702198 -1.9967619 0.035294119
-38.656281 10.822998 0.93819344 0.015686275
-32.347145 12.564278 0.40758607 0.019607844
-28.591507 8.0004492 -2.0673554 0.035294119
-23.335646 7.7712688 -1.9993106 0.031372551
-34.78656 7.93119 1.0416659 0.019607844
-31.578463 7.1981745 -2.0667195 0.019607844
-30.735872 11.936871 -1.9123766 0.015686275
-33.57206 9.3975744 2.0313632 0.0078431377
-32.711288 10.902154 1.4066899 0.06666667
-41.333927 11.573359 -1.990355 0.015686275
-35.130451 11.709338 -1.9323552 0.015686275
-4.4062691 1.2194482 0.55384427 0
-33.544922 11.18072 2.8859661 0.10980392
-48.379181 11.034696 -2.0116105 0.039215688
-51.881123 20.165401 -1.9345136 0.047058824
-53.218964 14.905954 -1.2767242 0.035294119
-4.6222181 1.540868 -2.241004 0
-35.005013 11.803302 -1.0683265 0.070588239
-7.6302929 2.1515365 -2.1997821 0
-10.76279 3.6149361 -2.2562664 0
-98.144638 27.872665 0.014378199 0.24705882
-101.78869 39.996113 -1.2586507 0.082352944
-13.98301 3.9567344 -2.2486019 0
-16.966141 5.7102098 -2.2679851 0.011764706
-33.101357 7.6676712 0.20205197 0.086274512
-35.310867 11.906744 -0.21127817 0.035294119
-19.230045 5.4477615 -2.1430552 0.039215688
-19.975492 7.8296494 -1.9941748 0.035294119
-28.517357 8.0868816 -2.0640287 0.027450981
-23.244177 7.8307538 -1.9937998 0.039215688
-31.842728 10.735456 0.58985561 0.074509807
-31.506493 7.2972975 -2.0636721 0.019607844
-30.664297 12.032162 -1.9105384 0.015686275
-32.657898 11.010922 1.4060184 0.06666667
-41.270229 11.710783 -1.9892629 0.015686275
-35.146141 11.850833 -1.9355065 0.015686275
-6.4374714 1.8130314 0.81396759 0
-33.694557 11.361304 2.9022474 0.062745102
-48.340378 11.203268 -2.0116341 0.039215688
-51.821587 20.350531 -1.9349611 0.047058824
-52.701172 14.959138 -1.265561 0.035294119
-4.616549 1.5575501 -2.2410066 0
-35.048546 11.961021 -1.0710108 0.011764706
-7.6334705 2.1824389 -2.2030196 0
-10.775459 3.6629915 -2.2617602 0
-98.053352 28.235271 0.014326102 0.24705882
-101.49646 40.311066 -1.2569174 0.082352944
-13.979817 4.0109916 -2.2504525 0
-16.858747 5.7425861 -2.2563903 0.0078431377
-33.111973 7.7978787 0.20227337 0.086274512
-35.032341 11.955619 -0.20989063 0.050980393
-19.17174 5.506947 -2.138787 0.023529412
-19.920763 7.8922658 -1.9915882 0.023529412
-33.720848 9.6993971 0.81981951 0.019607844
-28.418516 8.1712141 -2.0590322 0.019607844
-23.188923 7.90662 -1.9915389 0.031372551
-34.390377 8.0995665 1.031456 0.086274512
-31.8221 10.858315 0.59018886 0.090196081
-31.355221 7.3831501 -2.0555208 0.019607844
-30.579182 12.128002 -1.9080048 0.015686275
-33.576874 9.6580973 2.0357566 0.019607844
-32.466064 11.078585 1.3994647 0.06666667
-41.223194 11.860613 -1.9891001 0.015686275
-35.125156 11.987075 -1.9367799 0.015686275
-7.6095977 2.1760359 0.96476799 0
-33.728142 11.510272 2.9087474 0.078431375
-48.306786 11.381957 -2.0119834 0.039215688
-51.780106 20.553371 -1.9362451 0.047058824
-4.5416141 1.5491199 -2.2072356 0
-52.118965 12.466605 -0.92663229 0.090196081
-51.763035 17.869644 -1.5848019 0.082352944
-7.6212516 2.2067554 -2.2019825 0
-10.735991 3.6899805 -2.256326 0
-98.405952 28.695765 0.013987709 0.24705882
-100.63159 40.360016 -1.2483084 0.082352944
-13.961317 4.0566192 -2.2499044 0
-16.766943 5.7743688 -2.246882 0.0078431377
-33.096092 7.9117446 0.2022029 0.074509807
-34.987015 12.07182 -0.2100191 0.050980393
-19.117613 5.5611129 -2.1350236 0.023529412
-19.892965 7.958962 -1.9916791 0.035294119
-33.732975 9.8259468 0.82079762 0.0078431377
-28.351429 8.2553177 -2.0563715 0.027450981
-23.085697 7.9582648 -1.9851435 0.039215688
-34.521233 8.2531109 1.0361034 0.019607844
-31.818293 10.976788 0.59068358 0.074509807
-31.290249 7.4790187 -2.0531032 0.019607844
-30.518547 12.223091 -1.9069784 0.011764706
-33.623581 9.7942104 2.0405071 0.0078431377
-32.185741 11.103911 1.3888695 0.090196081
-41.170425 11.995587 -1.9887186 0.015686275
-35.495033 12.247118 -1.9596932 0.019607844
-6.3891563 1.8477113 0.8095361 0
-34.095058 11.764048 2.9438069 0.031372551
-48.313728 11.55529 -2.0141332 0.039215688
-51.7355 20.737587 -1.9374387 0.047058824
-6.1786203 1.7864166 1.7069162 0
-52.09071 15.181961 -1.253693 0.035294119
-4.5977936 1.5862586 -2.2376583 0
-52.075138 12.64823 -0.92665786 0.090196081
-51.685261 18.044716 -1.5843673 0.082352944
-7.6282887 2.2374797 -2.2062976 0
-10.715648 3.7246125 -2.2547641 0
-100.39579 29.656775 0.014234873 0.24705882
-100.30106 40.634182 -1.2460177 0.082352944
-13.981196 4.1151781 -2.2554412 0
-16.739201 5.8300099 -2.245882 0.0039215689
-33.017757 8.0147095 0.20187698 0.062745102
-99.686775 34.822704 -0.59974313 0.16862746
-19.117163 5.6332159 -2.1371729 0.015686275
-19.831852 8.0146561 -1.9883491 0.035294119
-33.844208 9.9864807 0.82433683 0.019607844
-33.223278 13.44348 0.42079768 0.019607844
-28.257397 8.3347759 -2.0516522 0.027450981
-23.020153 8.0254154 -1.981907 0.039215688
-35.199314 8.5452604 1.057369 0.019607844
-31.776014 11.086238 0.5905956 0.074509807
-31.232931 7.580421 -2.0510767 0.019607844
-30.479404 12.330815 -1.9072285 0.011764706
-33.688763 9.9407215 2.0465503 0.0078431377
-31.920427 11.13684 1.3790509 0.090196081
-41.097652 12.129933 -1.9872553 0.015686275
-35.508633 12.390483 -1.9628452 0.019607844
-9.5160675 2.7959566 1.2111742 0
-34.102718 11.899861 2.9480257 0.062745102
-48.319706 11.734965 -2.0161035 0.039215688
-51.748013 20.952362 -1.9406687 0.047058824
-4.1302061 1.4233061 0.78538245 0
-52.025898 15.360067 -1.2534426 0.035294119
-4.6024928 1.605689 -2.2427304 0
-52.022919 12.82778 -0.92654508 0.090196081
-51.62574 18.226122 -1.584512 0.082352944
-7.5761576 2.2506058 -2.1933682 0
-10.739574 3.7748318 -2.2626097 0
-100.05497 40.941387 -1.2447867 0.082352944
-13.974327 4.1659913 -2.2566772 0
-16.692572 5.8789172 -2.2423594 0.0039215689
-33.490547 8.2533407 0.20493363 0.050980393
-99.715469 35.223557 -0.60070789 0.16862746
-19.185024 5.7259126 -2.1470232 0.047058824
-19.759537 8.0654936 -1.9839053 0.031372551
-36.314571 10.854377 0.88553238 0.0078431377
-69.280434 28.341568 0.87971485 0.043137256
-28.136396 8.4056654 -2.0449834 0.019607844
-22.928106 8.0829048 -1.9763958 0.039215688
-36.56284 9.0118427 1.0993315 0.023529412
-31.763529 11.206188 0.59107023 0.05882353
-31.148157 7.6748171 -2.0472629 0.019607844
-30.351192 12.402102 -1.9019089 0.011764706
-32.1376 11.338534 1.3901407 0.019607844
-41.00148 12.257045 -1.9846789 0.015686275
-35.322056 12.463541 -1.9549295 0.019607844
-33.876808 11.953502 2.9320343 0.047058824
-48.313381 11.911949 -2.0175879 0.039215688
-51.774456 21.173531 -1.9444551 0.047058824
-52.006454 15.55167 -1.2543025 0.035294119
-4.5866275 1.6178514 -2.2376633 0
-52.001114 13.014883 -0.92698634 0.090196081
-51.584408 18.414047 -1.5852358 0.082352944
-7.6088157 2.2890947 -2.2052276 0
-10.733729 3.8147016 -2.2641838 0
-100.20716 41.412411 -1.2485325 0.082352944
-13.967276 4.2168012 -2.2579131 0
-33.597343 8.4039793 0.20575072 0.086274512
-99.765198 35.63308 -0.60180938 0.16862746
-19.145899 5.786839 -2.1448939 0.062745102
-19.665024 8.1067858 -1.9772336 0.031372551
-66.168701 27.337307 0.84132892 0.043137256
-27.996151 8.4700146 -2.036922 0.019607844
-22.862221 8.1492348 -1.9731592 0.031372551
-36.542812 9.1420927 1.0996643 0.047058824
-31.569818 11.261574 0.58816922 0.090196081
-31.066978 7.7696748 -2.0437047 0.039215688
-30.292963 12.501627 -1.9009984 0.011764706
-33.389275 10.105682 2.0325289 0.06666667
-32.003754 11.416782 1.3860389 0.06666667
-40.93169 12.391733 -1.9834014 0.015686275
-35.195591 12.556946 -1.9503552 0.019607844
-33.650936 12.005697 2.9160426 0.031372551
-48.325798 12.093877 -2.0198834 0.039215688
-51.814762 21.401239 -1.9487983 0.047058824
-6.9696984 2.4700897 1.3375058 0
-52.00927 15.750268 -1.2557176 0.035294119
-4.5812459 1.6328309 -2.2376657 0
-52.023571 13.203776 -0.92818791 0.090196081
-51.590755 18.609232 -1.5873487 0.082352944
-7.5901427 2.3107038 -2.201998 0
-10.721028 3.8500538 -2.2641895 0
-2.3608494 0.70670247 0.00023077041 0
-100.55283 41.946091 -1.2546259 0.082352944
-13.96456 4.2663527 -2.2597632 0
-16.566345 5.9609475 -2.2307727 0.023529412
-33.328941 8.4540567 0.20425819 0.086274512
-99.725494 35.992031 -0.60234004 0.16862746
-19.084787 5.8372464 -2.1401973 0.054901961
-19.597609 8.1548576 -1.9731605 0.031372551
-37.371483 11.44803 0.91319895 0.035294119
-69.598991 29.026176 0.8861742 0.043137256
-27.918324 8.5473728 -2.0333157 0.027450981
-22.748833 8.1936388 -1.9656975 0.039215688
-34.485584 8.7480545 1.0384917 0.062745102
-31.667725 11.414884 0.590684 0.05882353
-31.064259 7.8783307 -2.0452509 0.019607844
-30.192385 12.577182 -1.8973024 0.011764706
-33.756435 10.339116 2.0569873 0.0078431377
-31.999561 11.534847 1.3874921 0.043137256
-40.86364 12.518976 -1.9821228 0.015686275
-35.270241 12.71543 -1.9568477 0.019607844
-33.978409 12.249712 2.9479697 0.062745102
-48.374527 12.276481 -2.0236382 0.039215688
-55.587578 23.177235 -2.0937862 0.078431375
-10.799994 3.2962718 3.0099394 0
-52.029396 15.944717 -1.2575015 0.035294119
-4.5653105 1.6448504 -2.2325981 0
-52.093361 13.415014 -0.93029118 0.090196081
-51.630661 18.827366 -1.5906217 0.039215688
-7.578362 2.335809 -2.2009244 0
-10.722272 3.8926008 -2.2673311 0
-101.56313 42.784428 -1.2691565 0.082352944
-13.968466 4.3207006 -2.2628427 0
-16.478357 5.9940133 -2.2217 0.035294119
-34.197842 8.8017721 0.20976672 0.054901961
-99.516594 36.309509 -0.60189605 0.16862746
-19.007338 5.8859019 -2.1337898 0.027450981
-19.521324 8.2028742 -1.9683453 0.031372551
-38.293674 11.877117 0.93676436 0.015686275
-66.346001 27.940422 0.84590942 0.043137256
-27.838791 8.6291542 -2.0297103 0.019607844
-22.663929 8.2522583 -1.9608361 0.031372551
-36.80497 9.4740114 1.1094508 0.023529412
-31.563835 11.50181 0.58947074 0.090196081
-30.920618 7.9565911 -2.0376086 0.019607844
-30.133591 12.676062 -1.8963921 0.011764706
-33.754471 10.467317 2.0590672 0.031372551
-31.947849 11.642133 1.386984 0.043137256
-40.781548 12.649458 -1.9802886 0.015686275
-35.311954 12.869743 -1.9616706 0.019607844
-34.051556 12.4104 2.9580557 0.094117649
-48.44363 12.473967 -2.028368 0.054901961
-55.33321 23.297918 -2.0872808 0.078431375
-52.114735 16.169899 -1.260952 0.035294119
-4.5629516 1.661798 -2.2342904 0
-52.16618 13.627911 -0.93246388 0.090196081
-51.722176 19.065386 -1.5955168 0.039215688
-7.5701718 2.3620155 -2.2009284 0
-10.690228 3.9229827 -2.2634172 0
-8.3123312 2.5957274 0.0010678674 0.0039215689
-93.52639 39.781647 -1.1704546 0.082352944
-13.972159 4.3751292 -2.2659221 0
-16.401499 6.0306578 -2.2141407 0.039215688
-34.182396 8.9249077 0.20984481 0.0078431377
-99.393013 36.657825 -0.60197526 0.16862746
-18.956331 5.9424372 -2.1303768 0.027450981
-19.448605 8.252018 -1.9639014 0.023529412
-33.319527 10.459437 0.81573176 0.0078431377
-70.138077 29.827314 0.8955934 0.043137256
-27.766634 8.7128801 -2.0266619 0.027450981
-22.57889 8.3103838 -1.9559745 0.031372551
-36.910946 9.6386166 1.1136417 0.023529412
-31.744875 11.693382 0.59360158 0.015686275
-30.827013 8.0470753 -2.0332844 0.019607844
-30.012009 12.748099 -1.8915365 0.011764706
-33.435848 10.496205 2.0418003 0.078431375
-32.259476 11.883423 1.4023197 0.06666667
-40.725719 12.787908 -1.9797537 0.015686275
-35.315533 13.010672 -1.9644054 0.019607844
-8.93997 2.7932653 1.1433159 0
-33.705086 12.417152 2.9316332 0.047058824
-48.566067 12.68624 -2.0353694 0.054901961
-55.306736 23.514179 -2.0894008 0.078431375
-5.8253603 2.1282194 1.1199478 0
-52.229649 16.405462 -1.2651429 0.035294119
-4.5707197 1.6825511 -2.2410531 0
-52.392757 13.882504 -0.9374066 0.090196081
-7.569231 2.3905311 -2.2030883 0
-10.702203 3.9696391 -2.2689111 0
-84.496727 26.876375 0.011773602 0.23921569
-54.048637 23.20186 -0.67713386 0.035294119
-13.960577 4.4248443 -2.2665436 0
-16.298563 6.057137 -2.2030492 0.047058824
-99.749275 26.444321 0.61383688 0.10980392
-99.365639 37.042088 -0.60264581 0.16862746
-18.943062 6.010756 -2.131243 0.035294119
-19.33919 8.2850342 -1.9557444 0.031372551
-65.57608 28.156116 0.83849144 0.043137256
-27.606781 8.7683773 -2.0172079 0.027450981
-22.478777 8.3624496 -1.9498134 0.039215688
-30.787167 8.1513367 -2.0325341 0.019607844
-29.956326 12.847827 -1.8908583 0.011764706
-33.619717 10.682882 2.0553017 0.0078431377
-32.229038 11.999925 1.4027914 0.090196081
-40.680836 12.929767 -1.9797755 0.015686275
-35.284885 13.139228 -1.965261 0.019607844
-34.005188 12.662697 2.9616024 0.047058824
-48.606472 12.878011 -2.0389638 0.054901961
-55.441017 23.799995 -2.0976424 0.078431375
-4.5376883 1.6880322 -2.2275355 0
-95.835274 25.763899 -1.7172332 0.24705882
-7.5645161 2.4178843 -2.20417 0
-10.702973 4.0122719 -2.2720532 0
-35.10519 11.290224 0.0048174788 0.023529412
-68.152557 29.54505 -0.85535324 0.050980393
-13.937532 4.4708886 -2.2653224 0
-16.217924 6.0913615 -2.1949856 0.039215688
-100.45982 27.008219 0.61873877 0.10980392
-99.497742 37.487225 -0.6042946 0.16862746
-18.891689 6.0668497 -2.12783 0.035294119
-19.295549 8.345912 -1.954271 0.031372551
-32.777542 10.540515 0.80418497 0.050980393
-27.55323 8.8571091 -2.0155518 0.027450981
-22.386044 8.4167185 -1.944302 0.031372551
-33.877502 9.0979462 1.023807 0.062745102
-31.486599 11.847947 0.5902608 0.090196081
-30.762394 8.259553 -2.032805 0.019607844
-29.892992 12.94413 -1.889716 0.011764706
-35.285011 11.348484 2.1597075 0.011764706
-32.048599 12.059947 1.3967295 0.06666667
-35.134155 13.222618 -1.9594334 0.019607844
-9.7705154 3.1290634 1.253108 0
-33.796658 12.719202 2.9472408 0.047058824
-48.565105 13.048398 -2.039151 0.054901961
-52.50082 22.753595 -1.989298 0.047058824
-8.1861324 2.6188276 2.2869337 0
-54.656475 17.588301 -1.3270018 0.035294119
-4.5487175 1.7100809 -2.2359884 0
-54.956924 14.973586 -0.98524213 0.098039217
-52.917114 20.13764 -1.6389369 0.039215688
-7.5194159 2.4321039 -2.1933961 0
-10.685245 4.0479784 -2.2712753 0
-53.947647 23.605429 -0.67798293 0.035294119
-13.918093 4.5180545 -2.2647154 0
-16.159489 6.1335769 -2.1899488 0.035294119
-99.820808 27.210091 0.61533076 0.10980392
-18.787222 6.1054072 -2.1184275 0.035294119
-19.259012 8.4097862 -1.95354 0.023529412
-32.782383 10.668268 0.80519664 0.031372551
-27.389368 8.9097157 -2.0058191 0.027450981
-22.304377 8.4747057 -1.9397653 0.031372551
-33.733681 9.1854067 1.0203991 0.15294118
-31.392731 11.937617 0.58925831 0.05882353
-30.640953 8.3414431 -2.0266943 0.019607844
-29.822031 13.036947 -1.8881094 0.011764706
-37.72813 12.280812 2.3121274 0.047058824
-32.054867 12.190013 1.3988346 0.090196081
-35.157127 11.442042 -1.7144207 0.05882353
-35.218445 13.394723 -1.9667633 0.019607844
-33.856377 12.876611 2.9563484 0.10980392
-48.538544 13.222868 -2.0399868 0.054901961
-52.183079 22.83223 -1.9802866 0.047058824
-53.948425 17.568047 -1.3113027 0.035294119
-4.5393457 1.724413 -2.2343006 0
-54.380085 15.020149 -0.97585201 0.094117649
-7.5401545 2.4677558 -2.2020223 0
-10.704005 4.0977011 -2.2783372 0
-53.945404 23.828957 -0.67902994 0.035294119
-13.921016 4.5725675 -2.2677951 0
-16.078739 6.1669049 -2.1818852 0.039215688
-98.969612 27.349207 0.61061388 0.10980392
-101.74957 39.149075 -0.61974078 0.16862746
-18.701597 6.1495385 -2.1111639 0.039215688
-19.182192 8.4557896 -1.9487246 0.031372551
-32.577858 10.727286 0.80106133 0.043137256
-65.738586 29.04439 0.84429824 0.043137256
-27.335375 8.9975357 -2.0041633 0.027450981
-22.211418 8.5279293 -1.9342537 0.031372551
-33.870987 9.3497553 1.0255264 0.043137256
-32.392204 12.447793 0.60885662 0.078431375
-30.603962 8.4459887 -2.0261991 0.019607844
-29.677742 13.097131 -1.8818614 0.011764706
-33.528793 11.041162 2.0566456 0.019607844
-34.17168 13.133011 1.4933834 0.047058824
-35.135956 11.570721 -1.7153678 0.06666667
-34.988819 13.447024 -1.9565499 0.019607844
-7.3618736 2.4094384 0.94419158 0
-33.606606 12.915703 2.9384012 0.047058824
-48.630783 13.430329 -2.0458534 0.054901961
-51.993385 22.965509 -1.9761446 0.047058824
-4.5299306 1.7386999 -2.2326136 0
-53.649559 15.019683 -0.96369117 0.094117649
-7.5351601 2.4950461 -2.2031045 0
-10.675025 4.129118 -2.2752075 0
-35.61113 11.865457 0.0048474669 0.050980393
-100.81658 44.977245 -1.2716913 0.082352944
-13.931225 4.6296554 -2.2721033 0
-16.038635 6.2155643 -2.1793714 0.031372551
-98.465294 27.579836 0.60803992 0.10980392
-101.8919 39.612507 -0.62150586 0.16862746
-18.630983 6.1981783 -2.1056116 0.035294119
-19.134388 8.5143433 -1.9468797 0.031372551
-32.574368 10.852094 0.80188578 0.031372551
-65.596649 29.255503 0.8437407 0.043137256
-27.212975 9.0623455 -1.997494 0.027450981
-22.122078 8.5820494 -1.9290673 0.039215688
-33.818909 9.4622974 1.0249244 0.043137256
-32.598301 12.657694 0.61354852 0.10980392
-30.57815 8.5536032 -2.0264702 0.019607844
-29.526112 13.153201 -1.875149 0.011764706
-32.032333 12.437664 1.4015741 0.019607844
-34.79277 13.51091 -1.9482162 0.019607844
-33.327259 12.941639 2.9178469 0.062745102
-4.6075568 1.2754328 -0.19157729 0
-35.028881 11.671003 -0.8528989 0.086274512
-4.2999182 1.6669215 -2.1210995 0
-51.901199 20.377968 -1.6143085 0.16862746
-7.5178509 2.5189517 -2.2009892 0
-10.677465 4.1737618 -2.2791808 0
-35.484421 11.962965 0.0046821968 0.023529412
-100.68118 45.344936 -1.2724367 0.082352944
-13.924854 4.6824384 -2.2740128 0
-16.0191 6.2734513 -2.1799512 0.031372551
-98.315948 27.913609 0.60732508 0.10980392
-18.604033 6.2625165 -2.1052692 0.027450981
-19.128426 8.593174 -1.9495674 0.031372551
-32.402035 10.922238 0.79846931 0.074509807
-65.593697 29.533175 0.84477854 0.043137256
-27.1985 9.1646881 -1.9990066 0.019607844
-22.031071 8.6366615 -1.9239676 0.039215688
-33.411018 9.4756508 1.0134391 0.019607844
-33.233341 13.040436 0.6262694 0.015686275
-30.538881 8.6592932 -2.0260925 0.019607844
-29.372671 13.209743 -1.8685486 0.011764706
-33.464382 11.281165 2.0574145 0.043137256
-34.047668 13.360675 1.4919084 0.023529412
-40.307175 13.591192 -1.9731693 0.015686275
-34.73246 13.62928 -1.9477413 0.019607844
-33.309818 13.07088 2.9203086 0.031372551
-48.864693 13.865236 -2.0600405 0.05882353
-3.0429099 1.3445793 -0.11378718 0
-4.0241418 1.5589992 0.77599967 0
-35.016541 11.804839 -0.85379088 0.086274512
-4.5232129 1.7726635 -2.2360244 0
-52.849735 15.19678 -0.9514755 0.094117649
-51.811172 20.551409 -1.6137589 0.1254902
-7.5272484 2.5511746 -2.2063823 0
-10.670134 4.2136741 -2.280755 0
-35.048786 11.952065 0.0046098148 0.023529412
-60.731956 27.597139 -0.76851201 0.047058824
-16.000801 6.3305664 -2.180465 0.031372551
-98.521576 28.343807 0.60915363 0.10980392
-101.71764 40.370052 -0.62264943 0.16862746
-18.578304 6.3259048 -2.1048515 0.035294119
-19.047564 8.6365786 -1.9443804 0.031372551
-32.325878 11.022122 0.79751599 0.019607844
-60.757187 27.608883 0.78362006 0.039215688
-27.041744 9.2167826 -1.9898303 0.027450981
-21.941513 8.6897402 -1.9187806 0.039215688
-33.269398 13.18861 0.62779659 0.094117649
-30.489292 8.7600908 -2.0248318 0.019607844
-29.184628 13.247486 -1.8595145 0.011764706
-33.099831 11.286676 2.0373528 0.031372551
-35.271187 13.983697 1.5477405 0.023529412
-40.233028 13.722539 -1.9718921 0.015686275
-34.647556 13.735464 -1.9456726 0.019607844
-33.441856 13.257478 2.9359343 0.047058824
-49.034931 14.09851 -2.0693161 0.05882353
-40.587471 18.434177 -1.5496621 0.031372551
-35.0546 11.953916 -0.85575336 0.011764706
-4.5203724 1.7895613 -2.2377172 0
-52.815575 15.386529 -0.9518491 0.094117649
-51.761395 20.740829 -1.6144843 0.1254902
-7.5037417 2.5721729 -2.202075 0
-10.673569 4.2579641 -2.2846811 0
-60.682518 27.830412 -0.76914883 0.047058824
-13.917996 4.7881117 -2.2783289 0
-15.960201 6.3787622 -2.1779513 0.031372551
-100.59233 40.329975 -0.61667454 0.16862746
-18.589952 6.4021711 -2.1087127 0.027450981
-18.970255 8.681179 -1.9395648 0.031372551
-32.192722 11.102015 0.79515928 0.050980393
-60.445988 27.722099 0.78080904 0.039215688
-26.967928 9.2965536 -1.9867814 0.027450981
-21.918455 8.7690134 -1.9194432 0.039215688
-33.336395 9.7059717 1.0131707 0.10588235
-33.327103 13.346122 0.62974536 0.047058824
-30.401058 8.8494673 -2.021018 0.019607844
-29.127329 13.344045 -1.8588361 0.011764706
-33.048923 11.398005 2.0366352 0.090196081
-40.154686 13.852222 -1.9704292 0.015686275
-34.640186 13.872448 -1.9479902 0.019607844
-49.115879 14.307395 -2.0748591 0.05882353
-40.417522 18.527138 -1.5456517 0.031372551
-52.403221 18.083866 -1.2815706 0.035294119
-4.5174675 1.8064618 -2.2394097 0
-52.796074 15.580767 -0.95249999 0.094117649
-51.72575 20.936176 -1.6156733 0.1254902
-7.4874539 2.5955803 -2.1999235 0
-10.651381 4.2920218 -2.2831194 0
-34.964516 12.195996 0.0045714155 0.050980393
-60.697521 28.093966 -0.77061594 0.047058824
-13.904937 4.8377395 -2.2789507 0
-15.88636 6.4133444 -2.1708961 0.031372551
-100.46182 29.662819 0.6223222 0.10980392
-100.11732 40.545441 -0.61468375 0.16862746
-18.51869 6.4497423 -2.1031604 0.027450981
-18.874804 8.7169828 -1.9328926 0.031372551
-32.172657 11.22069 0.79560935 0.031372551
-26.867516 9.3667135 -1.9817827 0.019607844
-21.865553 8.8362589 -1.9175061 0.039215688
-33.256306 9.8084574 1.0117508 0.043137256
-33.235844 13.444122 0.62888253 0.031372551
-30.339365 8.9462566 -2.0189915 0.039215688
-29.004492 13.410158 -1.8539797 0.011764706
-35.146801 14.218629 1.5465565 0.047058824
-40.068371 13.978894 -1.968595 0.015686275
-34.595268 13.994554 -1.9482193 0.019607844
-49.107815 14.490981 -2.0766699 0.05882353
-40.537609 18.753588 -1.5527735 0.031372551
-7.5349665 2.6128638 2.1211419 0
-6.9434266 2.7901042 1.3539376 0
-52.358658 18.273041 -1.2820621 0.035294119
-4.5077877 1.8206176 -2.2377224 0
-52.806507 15.784226 -0.95370513 0.094117649
-51.711567 21.140606 -1.6175578 0.1254902
-10.639972 4.3304324 -2.2839096 0
-60.75127 28.376591 -0.77259058 0.047058824
-13.910336 4.893918 -2.282645 0
-15.885921 6.4775481 -2.1739328 0.031372551
-6.0317712 1.7880778 0.036921024 0
-99.927048 40.874744 -0.61444628 0.16862746
-18.447327 6.4968944 -2.0976081 0.027450981
-18.804583 8.7640314 -1.9288195 0.031372551
-32.023964 11.294066 0.79287863 0.074509807
-59.653172 27.863443 0.77297831 0.039215688
-26.725555 9.4216652 -1.9737204 0.027450981
-21.790308 8.8941803 -1.913619 0.039215688
-33.267845 9.9380112 1.0131361 0.043137256
-30.330908 9.0587435 -2.020539 0.039215688
-28.870697 13.470501 -1.8484268 0.011764706
-33.484386 11.810246 2.0685282 0.043137256
-34.801056 14.219888 1.5334717 0.023529412
-40.011806 14.115785 -1.968246 0.015686275
-34.65712 14.160389 -1.9545056 0.019607844
-3.5278537 1.2261546 0.45127454 0
-49.110542 14.678123 -2.0789678 0.05882353
-40.392235 18.8575 -1.5497371 0.031372551
-10.800726 3.7961195 3.0522885 0
-52.366203 18.480782 -1.2838494 0.035294119
-4.5020542 1.8345641 -2.2377248 0
-52.833237 15.973012 -0.95511556 0.094117649
-51.759472 21.350065 -1.6211778 0.039215688
-7.4628363 2.6421578 -2.1977756 0.043137256
-10.626324 4.3636312 -2.283915 0
-101.20285 36.093086 0.013371807 0.24705882
-60.810165 28.637026 -0.77451563 0.047058824
-13.898623 4.9387169 -2.2832663 0
-15.843493 6.5181303 -2.1709137 0.031372551
-5.8653393 1.7581486 0.035919528 0
-99.798157 41.188271 -0.61449909 0.16862746
-18.378138 6.5372357 -2.0920546 0.027450981
-18.766157 8.8177643 -1.9277161 0.031372551
-31.562744 11.242543 0.78229094 0.086274512
-59.142048 27.850971 0.76744533 0.039215688
-26.583088 9.4651442 -1.9653779 0.027450981
-21.706993 8.9395618 -1.9087557 0.039215688
-33.060436 9.9889946 1.0077437 0.062745102
-33.072033 13.633293 0.62743998 0.094117649
-30.264099 9.1422186 -2.0180001 0.019607844
-28.846306 13.569442 -1.8496037 0.011764706
-35.23732 12.554016 2.1794465 0.05882353
-34.564129 14.249617 1.5249617 0.070588239
-39.982323 14.246583 -1.9690083 0.015686275
-34.630936 14.276617 -1.9555683 0.019607844
-9.9441319 3.5281491 1.2891271 0
-2.8436408 1.1501257 0.24564533 0
-49.19426 14.871494 -2.0845089 0.05882353
-40.112225 18.880123 -1.5412711 0.031372551
-2.0374892 0.70659387 0.56127787 0
-10.492759 4.3092074 2.058229 0
-52.334259 18.654409 -1.2845232 0.035294119
-4.4986563 1.8522072 -2.2394176 0
-52.866116 16.194441 -0.95680743 0.094117649
-51.883831 21.624058 -1.6275839 0.039215688
-7.4494901 2.667943 -2.1967022 0.039215688
-10.63561 4.4128795 -2.2894096 0
-4.2753644 1.5224946 0.00045456932 0
-60.748161 28.880085 -0.77510887 0.047058824
-13.895312 4.9947491 -2.2857323 0
-15.81951 6.5759125 -2.1709235 0.031372551
-100.57175 30.824045 0.62478286 0.10980392
-99.930801 41.672115 -0.61631477 0.16862746
-18.305437 6.5867529 -2.0865028 0.035294119
-18.71574 8.8776865 -1.9258716 0.031372551
-31.893713 11.492327 0.79153425 0.086274512
-58.765118 27.93668 0.76383436 0.039215688
-26.450645 9.5270405 -1.9581517 0.027450981
-21.677774 9.0203524 -1.909094 0.039215688
-33.134464 10.14385 1.0111152 0.062745102
-33.058773 13.769572 0.62812227 0.078431375
-30.192236 9.2411308 -2.0154638 0.015686275
-28.626917 13.594186 -1.8387129 0.011764706
-33.023899 11.900501 2.0449536 0.090196081
-35.363716 14.731483 1.5626622 0.023529412
-39.963676 14.40499 -1.9707022 0.015686275
-34.530464 14.383205 -1.9528742 0.019607844
-8.7850714 3.6412499 0.77234024 0
-49.257893 15.087773 -2.0895672 0.05882353
-39.981411 18.997566 -1.5389316 0.031372551
-52.400967 18.894726 -1.2878859 0.035294119
-4.4958391 1.8683044 -2.2411101 0
-52.926723 16.405003 -0.95891237 0.094117649
-54.177532 22.792084 -1.7020173 0.043137256
-7.4442291 2.6937342 -2.1977837 0.039215688
-10.61008 4.4433393 -2.2870636 0
-99.629433 36.317169 0.013084254 0.24705882
-60.381615 28.951366 -0.77168554 0.047058824
-13.882394 5.0419369 -2.2863536 0
-15.79031 6.6250386 -2.1699231 0.031372551
-64.229843 27.02589 -0.3966127 0.05882353
-18.272291 6.643115 -2.0852287 0.035294119
-18.671843 8.9325895 -1.9243973 0.031372551
-31.547377 11.485451 0.78384614 0.074509807
-58.441376 28.020422 0.7607913 0.039215688
-26.283962 9.5652657 -1.9481387 0.027450981
-21.647749 9.0919724 -1.9091063 0.039215688
-33.073925 10.245165 1.0102804 0.062745102
-32.998192 13.8727 0.62782264 0.047058824
-30.149996 9.3374376 -2.014713 0.015686275
-28.509684 13.654268 -1.8340876 0.011764706
-33.25436 12.108252 2.0617156 0.019607844
-35.473061 14.915163 1.5696642 0.074509807
-39.908188 14.534483 -1.9703522 0.015686275
-34.563576 14.531527 -1.9574889 0.019607844
-9.0227976 3.7753716 0.79449826 0
-50.471077 15.64286 -2.1433144 0.062745102
-39.864132 19.10388 -1.536868 0.031372551
-52.446976 19.107914 -1.2905978 0.035294119
-4.4492617 1.8667353 -2.2208319 0
-1.980693 0.60440075 -0.034885786 0
-53.714985 22.818113 -1.6899962 0.043137256
-7.4275613 2.7168107 -2.1956327 0.019607844
-10.619781 4.4908667 -2.292558 0
-99.490791 36.660362 0.013026846 0.24705882
-59.985001 29.018803 -0.76794076 0.047058824
-13.879552 5.0956087 -2.2888193 0
-15.734232 6.6659164 -2.1653912 0.027450981
-37.833065 11.866459 0.23516989 0.011764706
-102.17361 43.42635 -0.63208169 0.16862746
-18.226608 6.6983767 -2.0826716 0.035294119
-18.586788 8.9714527 -1.9188389 0.031372551
-31.424553 11.564848 0.78177041 0.074509807
-26.134356 9.6139421 -1.9395189 0.027450981
-21.582869 9.1532164 -1.9061941 0.031372551
-33.049419 10.363927 1.0106136 0.086274512
-32.942215 13.984451 0.62766254 0.047058824
-30.094374 9.4352236 -2.0131972 0.015686275
-28.397161 13.722154 -1.8299272 0.011764706
-33.343033 12.272388 2.0698538 0.031372551
-34.365234 14.589774 1.5227777 0.047058824
-39.864712 14.676244 -1.9707458 0.015686275
-34.652328 14.711271 -1.9654468 0.019607844
-87.600563 37.230297 7.776391 0.16862746
-50.473362 15.836691 -2.1457756 0.062745102
-39.750446 19.220051 -1.5350839 0.031372551
-6.1053395 2.5716019 1.1974083 0
-8.0833778 2.9589295 -0.19789904 0
-4.4627156 1.8906071 -2.2309749 0
-84.441536 26.830875 -1.5339818 0.24705882
-53.164749 22.80332 -1.6751933 0.043137256
-10.586028 4.5199428 -2.2886443 0
-99.422203 37.029556 0.012978668 0.24705882
-59.685696 29.131216 -0.76544136 0.047058824
-13.8728 5.1479378 -2.2906702 0
-15.718167 6.7237005 -2.1664095 0.031372551
-38.134491 12.107303 0.23728913 0.035294119
-18.147224 6.7408996 -2.0762632 0.039215688
-18.533897 9.0255585 -1.9166225 0.031372551
-31.260353 11.628161 0.77866572 0.086274512
-26.070736 9.6937332 -1.9373053 0.027450981
-21.506834 9.2093954 -1.9023072 0.031372551
-32.959705 10.462038 1.0089597 0.086274512
-33.047554 14.165404 0.63059431 0.062745102
-30.027025 9.5290995 -2.0109153 0.015686275
-28.212753 13.754356 -1.8211243 0.011764706
-34.5797 12.865387 2.1495376 0.070588239
-34.292072 14.699955 1.5217774 0.023529412
-39.77581 14.801128 -1.968912 0.015686275
-34.633808 14.846097 -1.9673475 0.019607844
-9.8939486 3.66574 1.2891049 0
-87.506714 37.551357 7.7795982 0.16862746
-50.394932 16.005283 -2.1448286 0.062745102
-39.640015 19.3374 -1.533439 0.031372551
-9.1697206 3.9124844 1.8076463 0
-53.837418 20.041496 -1.3283283 0.035294119
-4.4727311 1.9131527 -2.239428 0
-3.5183313 1.1139457 -0.062949918 0
-52.835392 22.880373 -1.6673437 0.043137256
-7.4372711 2.7789996 -2.2042634 0
-10.588191 4.5644364 -2.2925706 0
-99.445831 37.433937 0.012942555 0.24705882
-13.865852 5.2002788 -2.2925215 0
-15.680052 6.7719812 -2.1644003 0.031372551
-68.182068 29.533981 -0.42304599 0.06666667
-18.082653 6.7885528 -2.0715666 0.039215688
-18.473713 9.0758829 -1.9136634 0.031372551
-31.350561 11.786308 0.78192216 0.031372551
-25.99194 9.7675686 -1.9339777 0.027450981
-21.434332 9.2667351 -1.8987451 0.039215688
-32.808815 10.540046 1.0054356 0.062745102
-33.273117 14.399755 0.63584483 0.015686275
-30.016392 9.6409578 -2.0124631 0.015686275
-27.928186 13.736001 -1.8058218 0.011764706
-33.899323 12.746502 2.1099002 0.047058824
-67.048119 29.042952 2.9827113 0.12156863
-39.697742 14.929786 -1.9676352 0.015686275
-34.666084 15.003208 -1.9721725 0.019607844
-7.819644 3.364676 0.69084042 0
-39.511333 19.445372 -1.5310982 0.031372551
-4.9302478 1.8350804 -0.12043433 0
-4.4494276 1.9212574 -2.2309802 0
-54.49509 17.728487 -0.99186885 0.098039217
-52.359623 22.891294 -1.654858 0.043137256
-7.4347353 2.8074553 -2.2064233 0
-10.575796 4.6027117 -2.2933609 0
-37.17207 14.126924 0.0047522131 0.027450981
-13.84393 5.2470131 -2.2919149 0
-15.619974 6.810535 -2.1593637 0.035294119
-34.896107 11.345961 0.21754619 0.043137256
-68.148201 29.802048 -0.42352 0.06666667
-18.05514 6.8499875 -2.0711491 0.035294119
-18.406263 9.1223507 -1.9099616 0.039215688
-31.952055 12.140127 0.79799348 0.050980393
-25.771227 9.7870359 -1.9200655 0.031372551
-21.379951 9.3316803 -1.8968079 0.039215688
-32.714806 10.635708 1.0036649 0.10588235
-32.845291 14.35041 0.62858725 0.015686275
-29.944609 9.7330875 -2.0099261 0.015686275
-27.858622 13.822509 -1.8044468 0.011764706
-33.888222 12.877314 2.1119785 0.023529412
-67.444283 29.494541 3.0048783 0.1254902
-39.596848 15.04956 -1.9652443 0.015686275
-34.587894 15.112684 -1.970731 0.019607844
-35.160728 11.431877 -1.4990468 0.05882353
-39.418171 19.570488 -1.5301492 0.031372551
-5.20786 1.9601651 -0.12747191 0
-4.4514155 1.9411112 -2.2360785 0
-51.944366 22.929081 -1.6445336 0.043137256
-7.4092388 2.8279393 -2.202152 0
-10.554719 4.6382461 -2.29263 0
-13.842589 5.3027873 -2.2950532 0
-15.583755 6.8606777 -2.1579237 0.027450981
-35.895519 11.81216 0.22390291 0.011764706
-101.15897 44.677952 -0.63022828 0.16862746
-18.022232 6.9107032 -2.0703764 0.035294119
-18.322899 9.1621485 -1.9048485 0.031372551
-31.937634 12.264325 0.79860169 0.031372551
-25.698063 9.8635635 -1.9173949 0.027450981
-21.29826 9.3860493 -1.8926802 0.039215688
-32.945457 10.83999 1.0118201 0.062745102
-29.829231 9.8124695 -2.0046952 0.015686275
-27.908348 13.970861 -1.8110716 0.011764706
-33.997856 13.057091 2.121618 0.082352944
-68.22303 30.123682 3.0441043 0.1254902
-39.482548 15.166349 -1.9624449 0.015686275
-34.573265 15.252465 -1.9731808 0.019607844
-35.134109 11.560948 -1.4998482 0.05882353
-39.30109 19.686266 -1.5285121 0.031372551
-52.450565 20.155159 -1.2995478 0.035294119
-4.4247556 1.9475534 -2.2259409 0
-35.010895 11.655875 -0.63851601 0.074509807
-7.3921499 2.8507714 -2.2000005 0
-10.534891 4.6732407 -2.2918525 0
-58.178555 29.410973 -0.75168657 0.047058824
-13.842422 5.3580132 -2.2981334 0
-15.566967 6.918046 -2.1589425 0.031372551
-35.819927 11.925786 0.22366996 0.035294119
-100.82705 44.952374 -0.62919438 0.16862746
-17.964642 6.960382 -2.0665355 0.035294119
-18.269493 9.2150412 -1.9026318 0.031372551
-33.452614 12.98112 0.83767682 0.078431375
-25.637447 9.9428701 -1.9154595 0.027450981
-21.272652 9.4633665 -1.893343 0.039215688
-32.793636 10.916767 1.0082965 0.062745102
-29.631969 9.8620205 -1.9937321 0.015686275
-27.795284 14.035523 -1.8069108 0.011764706
-34.473141 13.378019 2.1542225 0.047058824
-66.971382 29.85017 2.9927964 0.12156863
-39.369781 15.280701 -1.959497 0.015686275
-34.486977 15.358194 -1.9713213 0.019607844
-68.00222 30.310549 6.0811448 0.074509807
-39.178627 19.796043 -1.5264492 0.031372551
-4.4311633 1.9687138 -2.2327039 0
-34.988953 11.784174 -0.63888139 0.078431375
-51.626274 23.220123 -1.6396115 0.082352944
-7.3929205 2.8805549 -2.2032385 0
-10.54356 4.7210302 -2.2973471 0
-13.823645 5.4060712 -2.2981412 0
-15.53188 6.9672265 -2.1574376 0.035294119
-32.628529 10.988037 0.20391713 0.0078431377
-100.61848 45.280807 -0.62893587 0.16862746
-17.899529 7.0068283 -2.0618386 0.035294119
-18.194656 9.2568026 -1.8981869 0.031372551
-33.451778 13.115124 0.83878005 0.06666667
-55.581585 28.340899 0.73190296 0.039215688
-25.498596 9.99123 -1.9076746 0.027450981
-21.232231 9.5340605 -1.8927057 0.039215688
-32.831112 11.056499 1.0106161 0.019607844
-33.056091 14.858618 0.63542831 0.015686275
-29.389339 9.8949862 -1.9797047 0.015686275
-27.401131 13.956132 -1.7844099 0.011764706
-34.29987 13.44841 2.1462801 0.070588239
-66.659073 29.989986 2.9834497 0.12156863
-39.252991 15.39297 -1.9563633 0.015686275
-34.509663 15.512691 -1.9757291 0.019607844
-8.629921 3.3669074 1.1309385 0
-68.379486 30.765209 6.1244478 0.074509807
-50.321899 16.956377 -2.1544023 0.062745102
-39.073696 19.914276 -1.5250821 0.031372551
-52.241592 20.494081 -1.297941 0.035294119
-4.4338288 1.9892055 -2.237777 0
-34.983391 11.925018 -0.63959444 0.078431375
-7.3859029 2.9088149 -2.2043204 0
-10.540478 4.7658987 -2.3004899 0
-2.8822141 1.1213685 0.00023943643 0
-55.239353 28.421326 -0.71635902 0.047058824
-13.818442 5.4622951 -2.3006072 0
