# .PCD v0.7 - Point Cloud Data file format
VERSION 0.7
FIELDS x y z intensity
SIZE 4 4 4 4
TYPE F F F F
COUNT 1 1 1 1
WIDTH 1442
HEIGHT 1
VIEWPOINT 0 0 0 1 0 0 0
POINTS 1442
DATA ascii
6.4045057 24.728773 -1.9633124 19
7.2779517 24.413403 -2.0313346 4
6.6072459 19.542727 -1.707649 3
3.6006124 24.772099 -2.1433933 11
4.5026069 24.653929 -2.221709 2
5.4213457 24.596281 -2.3059068 11
6.347929 24.510323 -2.3946881 16
7.2916632 24.459398 -2.4868252 10
6.6017127 19.52636 -2.0715387 3
3.5597339 24.490854 -2.5574784 13
2.5318677 13.863188 -1.4990877 0
3.0666676 13.913264 -1.5565503 0
2.7477288 12.466261 -1.6210321 6
2.6594458 12.065726 -1.7876961 16
2.7007577 12.253156 -2.0398557 12
2.6772008 12.146279 -2.2063327 3
2.5869236 11.736698 -2.3810179 0
2.3261979 10.553802 -2.3326347 1
2.1102946 9.5742645 -2.2901397 0
1.9314297 8.7627668 -2.2545526 0
1.338652 6.0733743 -2.1490781 1
0.95611751 4.337841 -2.0780258 1
7.3623691 32.856529 8.8385229 3
3.8352504 17.115824 3.3643878 4
3.9791346 17.757944 2.5203671 8
8.2882891 36.988689 3.2383547 12
7.1253257 31.798658 1.631409 1
2.7404883 12.230156 0.40570357 0
9.7063131 36.945717 1.1243913 0
11.157354 36.954945 1.0202814 0
6.5605311 19.183592 0.47708434 5
5.4992948 36.928902 0.76708615 0
7.080956 38.020226 0.68180901 2
8.2931023 37.01017 0.55543029 1
9.7220449 37.005596 0.44877332 0
1.9630288 6.5018654 0.059389163 0
12.745234 37.268227 0.22960709 11
5.4957194 36.904892 0.10614827 8
6.8564858 36.814964 -0.0032679543 13
5.8380404 26.053804 -0.081084378 3
6.8177705 25.950884 -0.16062824 3
11.123813 36.843849 -0.34325576 13
6.646009 19.433537 -0.24448483 5
5.4874802 36.849564 -0.55209273 16
4.9119878 26.374249 -0.47717947 3
5.675045 25.326395 -0.53777635 10
6.6351123 25.255623 -0.61902714 9
10.473113 34.688625 -0.96467268 9
6.6448622 19.430183 -0.60802972 4
1.637017 10.992908 -0.36131454 0
5.6711974 25.309223 -0.99729931 4
6.5632505 24.98209 -1.0699468 10
1.9138219 6.3388848 -0.29361647 0
6.654562 19.458546 -0.97341692 7
4.0848475 27.430593 -1.3922801 9
4.7749104 25.638227 -1.388199 13
5.6690812 25.29978 -1.4559081 12
6.6203313 25.19936 -1.5406207 3
7.4265637 24.597969 -1.5936085 0
6.6608772 19.477013 -1.3390763 12
3.9142375 26.284912 -1.805162 16
4.7952509 25.747442 -1.8580391 4
5.6573553 25.24745 -1.9109297 18
6.4765987 24.652264 -1.9590211 8
7.376955 24.433655 -2.0351501 12
6.6534934 19.455421 -1.7020394 14
3.6888223 24.771204 -2.144417 8
4.6287608 24.853498 -2.2411356 3
5.5141382 24.608305 -2.3088243 7
6.4405308 24.514975 -2.3973248 18
7.3873534 24.468096 -2.4903162 9
6.6543775 19.458006 -2.0667388 10
3.6323085 24.391703 -2.5484326 9
2.5831568 13.869907 -1.5007802 0
3.1221709 13.933517 -1.5600256 0
2.8285363 12.623095 -1.6426996 4
2.7119341 12.102726 -1.7945696 21
2.7297003 12.182013 -2.0295858 13
1.9738076 8.8086405 -1.601303 0
2.6304505 11.739083 -2.3833499 0
2.3630233 10.545619 -2.3326347 1
2.1411471 9.555438 -2.28741 0
1.9620057 8.7559719 -2.2545526 0
0.91262472 4.0728302 -1.4422992 0
0.9728381 4.341548 -2.0814159 0
7.4615507 32.762726 8.8202419 4
3.9010787 17.129143 3.3696623 13
4.02702 17.682135 2.5115871 8
4.0922976 17.968761 1.5744035 5
7.2442641 31.808647 1.633209 6
2.6837323 11.783929 0.39120954 0
9.8691893 37.039101 1.128275 0
1.5899467 5.2004819 0.14373139 0
6.6575198 19.247496 0.47924864 3
2.1961665 14.402445 0.29932463 0
7.2158666 38.007069 0.68202055 2
8.6877956 38.147011 0.57294303 3
1.9226545 7.2157292 0.087587267 0
11.680387 38.20483 0.34933978 1
6.69063 19.343222 0.11931547 8
5.6299348 36.92107 0.10625069 8
6.9916673 36.826172 -0.0032710959 14
5.9467139 26.111269 -0.081327327 1
6.8722687 25.791649 -0.15979014 0
10.797441 35.316845 -0.32937855 2
6.7072668 19.391319 -0.24424677 8
5.6172814 36.838093 -0.55221123 12
4.9868641 26.266569 -0.47554335 13
5.7545357 25.267439 -0.53694773 7
6.7633843 25.383005 -0.62272424 9
7.5206442 24.598921 -0.68480903 1
6.706111 19.387978 -0.60743779 8
3.7497163 24.590612 -0.80866867 0
4.8898153 25.755402 -0.93104041 1
5.7160172 25.098309 -0.98976845 4
6.681284 25.074884 -1.0749133 10
9.9203634 32.448048 -1.5045851 15
6.7185259 19.42387 -0.97284961 10
3.7397516 24.525265 -1.245471 0
4.8919415 25.7666 -1.396066 3
5.7351885 25.182487 -1.4503015 7
6.6661005 25.0179 -1.5309402 4
8.1998882 26.820629 -1.7394499 10
6.7314329 19.461185 -1.3395957 12
3.7948079 24.886324 -1.7100108 4
1.0285197 5.4173698 -0.39119595 0
5.7782269 25.371462 -1.9218308 6
6.827539 25.623779 -2.0381052 7
7.4633651 24.41157 -2.0354679 11
6.7265773 19.447147 -1.7033592 16
3.7722635 24.738478 -2.1427109 10
4.6872463 24.688438 -2.2277136 2
5.607964 24.623861 -2.3121064 8
6.5301652 24.507734 -2.3988314 12
7.480866 24.468811 -2.4930315 18
6.7248602 19.442184 -2.0675387 13
2.0062602 13.15704 -1.3753642 1
2.6352656 13.880344 -1.5028957 0
3.1760869 13.945796 -1.5626322 0
2.8479095 12.50481 -1.6285905 8
2.7506478 12.077746 -1.7922784 17
2.784481 12.226304 -2.0385721 9
2.7505624 12.077372 -2.1972504 2
2.6696689 11.722178 -2.3817954 1
2.4076343 10.571617 -2.3402302 1
2.1753538 9.5517035 -2.2883198 0
1.9908348 8.7415037 -2.2526031 0
1.3810192 6.0638809 -2.1490781 1
0.98798698 4.3381257 -2.0814159 1
7.5680175 32.702557 8.8111019 8
3.9289615 16.97764 3.3425362 19
4.2271814 18.266294 2.596642 4
4.1433139 17.903891 1.5699772 8
4.7467775 20.511547 1.0540059 0
1.8036467 7.7938318 0.25895146 0
4.0089631 14.837282 0.45239273 0
11.484838 37.101517 1.0265168 0
13.045298 37.293247 0.92970282 14
5.7859535 37.075321 0.77094787 0
8.5611963 36.994232 0.55607456 0
10.002063 37.01791 0.44975853 0
6.7567897 19.315973 0.11929215 10
5.7624803 36.924911 0.10631897 8
7.1308088 36.856522 -0.003275983 17
6.0513506 26.148808 -0.081509538 1
9.9493599 36.822853 -0.22834688 11
10.92302 35.286579 -0.32944989 6
6.7894416 19.409317 -0.2447705 11
1.2790452 8.1958857 -0.12292434 0
5.0261025 25.978071 -0.47063497 10
2.9826624 12.888538 -0.2741085 0
6.8655071 25.40943 -0.62395662 7
2.7431986 8.8618431 -0.24696983 0
6.8014703 19.443705 -0.60992384 3
3.8423116 24.620825 -0.81009835 1
5.7855682 25.00032 -0.98669463 1
6.8010879 25.171013 -1.0800452 9
7.5993261 24.549458 -1.139558 0
6.8087149 19.464415 -0.97606468 7
3.8370423 24.587059 -1.2492815 1
4.9750252 25.714073 -1.3941524 12
5.8410654 25.240133 -1.4547868 3
6.9387846 25.680632 -1.5729678 2
8.3040848 26.826166 -1.7416784 7
6.8032784 19.448874 -1.3403746 8
1.3470104 8.6313944 -0.59340733 0
5.8370743 25.222887 -1.9121082 4
6.9450297 25.703747 -2.0463815 6
7.5567856 24.412031 -2.0376935 11
6.8062663 19.457415 -1.7063291 16
3.8708847 24.803915 -2.1495359 8
4.7688551 24.648455 -2.2255943 4
5.6741252 24.518759 -2.3040833 11
6.626061 24.523233 -2.4025977 18
7.5850682 24.503397 -2.499238 12
6.8110833 19.471186 -2.0731385 7
2.0521748 13.149957 -1.3753642 2
2.6920118 13.914018 -1.50755 0
3.2238507 13.93075 -1.5621978 0
2.8763328 12.429071 -1.6200243 6
2.8356323 12.253199 -1.8197727 5
2.8111188 12.147273 -2.0270183 9
2.8006954 12.102231 -2.2035382 3
2.7105706 11.712788 -2.3817954 1
2.4392319 10.540292 -2.3351665 0
2.2113166 9.5554361 -2.2910495 0
2.0204616 8.7307215 -2.2516284 0
1.4089968 6.0884895 -2.1595294 1
1.0031239 4.334651 -2.0814159 1
7.6649194 32.628315 8.7979002 5
3.9987154 17.021881 3.3538387 13
4.3185396 18.38332 2.6152992 4
4.2053967 17.90169 1.5709987 12
7.4633503 31.770267 1.6338091 0
1.0130266 4.3122892 0.14338742 0
10.208699 37.291145 1.1380432 2
11.588687 37.002178 1.0248259 0
2.3285484 6.586576 0.16439179 0
1.6360694 10.260184 0.21346292 0
7.2758174 36.948593 0.66390008 0
8.6838264 36.965637 0.55607456 0
10.152222 37.084839 0.45097828 1
4.6889715 13.263312 0.082007527 1
2.0395262 12.790359 0.036846925 0
7.2522178 36.828747 -0.0032756338 15
6.1279678 26.085764 -0.081375919 2
10.089369 36.855247 -0.22875397 12
11.036389 35.238716 -0.32934287 11
4.6660552 13.198491 -0.1666401 4
5.8735671 36.834549 -0.55274469 18
5.0975399 25.886703 -0.4692834 12
5.9309635 25.247149 -0.53736204 9
6.9623995 25.432806 -0.62509418 16
10.937313 34.922371 -0.97425342 8
4.6683393 13.204952 -0.4147056 4
0.85806596 5.3811378 -0.17714809 0
4.9144058 24.956699 -0.90335619 1
2.1289093 9.0624208 -0.35794577 0
6.9277859 25.306366 -1.0868328 3
7.695025 24.569883 -1.1416844 1
4.6638308 13.192199 -0.66230935 6
4.3809304 27.473867 -1.3966924 7
5.0232258 25.509317 -1.3839467 9
5.9429989 25.29838 -1.4592719 12
6.9796247 25.495728 -1.5630512 6
7.6937809 24.56591 -1.5965798 1
4.6432385 13.133952 -0.90621996 9
4.1960044 26.314152 -1.8100414 13
4.9814939 25.29739 -1.8291665 12
5.9298072 25.242226 -1.9150544 3
6.8333054 24.961239 -1.9890608 1
7.592412 24.242245 -2.0256116 12
4.6491513 13.150677 -1.1546017 10
3.9945364 25.050695 -2.1720583 3
4.8467178 24.612961 -2.2238281 3
5.7799969 24.604507 -2.3139298 9
6.7094493 24.508808 -2.4033511 13
7.6603336 24.459116 -2.4972985 15
4.6337104 13.107 -1.3971586 8
1.5907805 9.9761658 -1.043961 0
2.7412119 13.920624 -1.5092424 0
3.300947 14.051595 -1.5769683 0
2.9374979 12.504451 -1.63111 5
2.8681021 12.209044 -1.8146175 8
2.8694434 12.214754 -2.0398557 7
2.8426139 12.100545 -2.2049356 4
2.74491 11.684635 -2.3779085 1
2.4759598 10.539758 -2.3368545 1
2.2465549 9.5632181 -2.2946889 0
2.0538387 8.742857 -2.2565022 0
1.4239916 6.0617008 -2.151691 1
1.0191497 4.3383541 -2.0848057 1
7.7808623 32.584949 8.7938375 2
3.6213019 15.165406 2.9906507 1
4.3978524 18.417471 2.6224329 5
4.2830153 17.93655 1.5754249 5
4.8963532 20.50511 1.0554059 1
3.8506656 16.125944 0.53666753 0
10.348519 37.265038 1.1383961 1
12.103873 38.156242 1.0580109 1
4.6878405 13.107045 0.32756028 17
7.6370854 38.047054 0.68413574 2
8.8164682 36.921894 0.55589885 0
10.337306 37.224659 0.4531363 2
11.544042 36.39143 0.33384544 9
4.6930995 13.12175 0.081238046 10
6.0220551 36.895626 0.1063531 7
7.3934512 36.833294 -0.0032784264 14
6.278348 26.292673 -0.08209262 4
10.225452 36.821873 -0.22877792 14
11.504112 36.265556 -0.3393316 7
4.6847649 13.098446 -0.16559264 13
6.0104656 36.824619 -0.55292249 16
5.1774306 25.793344 -0.46793181 11
6.038321 25.287477 -0.53868783 7
10.918941 34.420864 -0.96137267 2
4.6803517 13.086106 -0.41150919 13
6.0092392 36.817104 -1.2127432 2
6.0295868 25.250902 -0.99822146 4
6.9787865 25.130623 -1.0803764 1
7.8200679 24.651978 -1.146823 0
3.7433476 10.466275 -0.52614063 0
4.4976864 27.556196 -1.4017063 12
5.1072555 25.443741 -1.3813952 4
5.9995074 25.124933 -1.4505258 9
6.8871169 24.80052 -1.521968 1
7.8006682 24.590822 -1.6000463 0
4.673871 13.067986 -0.90284437 21
5.2029586 25.920521 -1.8755893 18
6.0111666 25.173761 -1.9115189 25
6.9652991 25.082054 -2.0007088 16
7.6836247 24.221855 -2.0262475 7
4.6731548 13.065985 -1.1486621 28
4.0946708 25.087023 -2.1764946 3
1.6451093 8.1957388 -0.74104059 0
5.8664379 24.567661 -2.3124712 7
6.7981677 24.480215 -2.4029744 12
7.7679863 24.487797 -2.5031168 11
4.6575928 13.022474 -1.3899589 20
3.9911029 24.452488 -2.5603566 13
2.7945635 13.922183 -1.5105118 1
3.3256443 13.927242 -1.5643699 0
2.9879172 12.512898 -1.6336294 6
2.9091532 12.183047 -1.8123263 5
2.9105256 12.188794 -2.0372882 8
2.8924341 12.11303 -2.2091274 4
2.7922745 11.693579 -2.3817954 0
2.5182059 10.545825 -2.3402302 1
2.2788765 9.5435534 -2.2919593 0
2.0849681 8.7314978 -2.2555273 1
1.4444431 6.0490866 -2.1490781 1
1.0266287 4.2993498 -2.0678561 1
3.5629902 14.693968 3.9688551 0
4.14819 17.107365 3.3764439 3
4.356607 17.966888 2.560425 4
4.3775315 18.053183 1.5870014 2
7.6905007 31.716049 1.6338091 10
8.9849081 37.054256 1.234193 0
2.7580223 9.7988462 0.29963368 0
6.220562 19.374779 0.53783017 5
4.7267647 13.071798 0.32708979 22
1.3508449 8.0983763 0.16868336 0
7.7834611 38.086773 0.68533438 1
8.9660301 36.976406 0.55718738 0
10.432504 37.065147 0.45163506 1
11.674669 36.362335 0.33395037 12
4.727993 13.075194 0.081051514 22
6.1613383 36.937504 0.10653517 8
7.531589 36.85429 -0.0032826152 15
6.3502941 26.188963 -0.08183752 1
10.366926 36.832161 -0.22906527 15
11.657534 36.30896 -0.34011644 6
4.7209373 13.055683 -0.16525936 23
6.1468678 36.850754 -0.55363369 15
5.2522202 25.700665 -0.46658024 13
6.1340928 25.297338 -0.53935075 6
7.2287211 25.682579 -0.63248837 12
11.084254 34.523407 -0.96531141 31
4.7151251 13.039609 -0.4105621 21
4.1032138 24.598955 -0.81074822 1
5.1224794 25.065805 -0.90860909 7
6.047049 24.938366 -0.98669463 9
7.0729628 25.129192 -1.0813696 11
10.361448 32.272133 -1.5029904 7
4.7173505 13.045764 -0.65663564 27
4.0995607 24.577053 -1.2508861 0
5.2096357 25.492285 -1.3850098 4
6.1398759 25.321186 -1.4630845 7
7.0969763 25.21451 -1.5488845 9
8.6052961 26.802359 -1.7458878 11
4.7140284 13.036577 -0.9018057 23
2.5154788 15.080411 -1.0385306 0
5.3165741 26.015566 -1.8837981 6
6.0379004 24.900635 -1.8923684 5
7.22894 25.683357 -2.050673 10
8.1984053 25.53504 -2.1384811 3
4.7133126 13.034597 -1.1473422 26
4.1671343 24.982161 -2.1686459 9
5.0394721 24.659624 -2.2312458 3
5.9549751 24.558647 -2.3135653 9
6.8922095 24.487003 -2.4059875 10
7.8607197 24.483273 -2.5054443 19
4.7097883 13.024851 -1.3919587 26
4.0790524 24.454105 -2.5620012 12
2.8423476 13.908446 -1.5100887 5
3.3779871 13.931006 -1.5661076 0
3.0371881 12.525531 -1.6366528 7
2.9395347 12.122804 -1.80488 11
2.951194 12.170888 -2.0360045 7
2.9384112 12.11817 -2.2119219 3
2.8376989 11.702827 -2.3856821 0
1.7064061 7.0373135 -1.5629666 0
2.320437 9.5696106 -2.300148 1
2.1181765 8.7354765 -2.2584515 0
1.4655496 6.0440078 -2.1490781 1
1.0484604 4.3239088 -2.0814159 0
4.6685729 18.964153 5.1266074 9
3.5834129 14.556138 2.8753648 2
4.2099814 17.101315 2.4391534 4
4.7530069 19.307133 1.6986806 2
8.4008856 34.125134 1.7594098 6
7.7074547 31.308359 1.0437 1
10.572233 37.065002 1.1345124 0
6.3091602 19.417599 0.53962678 2
4.7655005 13.036441 0.3266193 23
6.4763536 38.008045 0.79214627 2
7.9179902 38.067204 0.68547541 1
2.3222821 9.4333143 0.14226934 0
10.582666 37.101582 0.45252642 1
6.3074141 19.412226 0.17848226 1
4.7681122 13.043585 0.08095824 26
6.2942681 36.93943 0.10660345 7
7.6642613 36.847355 -0.0032843605 12
6.4244609 26.096725 -0.081618868 0
10.498724 36.807289 -0.22913711 16
10.909102 33.574764 -0.31485921 4
4.7706013 13.050395 -0.1654022 27
6.2788224 36.848785 -0.55393004 17
5.3223538 25.588202 -0.46487296 15
6.2386107 25.341785 -0.54075938 12
7.3808479 25.876383 -0.63789183 0
10.925442 33.625053 -0.94125319 13
4.7592406 13.019316 -0.41044372 22
4.1957707 24.623894 -0.8120479 0
5.2368078 25.176924 -0.91329414 2
6.1761036 25.087875 -0.99345702 5
7.2253151 25.331102 -1.0911371 7
2.6425889 8.1330519 -0.37920293 0
4.7573733 13.014208 -0.65587914 28
4.1906939 24.594099 -1.2524905 0
5.2652383 25.313608 -1.3762922 23
2.058255 8.3608122 -0.48350859 0
7.2517595 25.423813 -1.5632873 3
8.7049694 26.791142 -1.7471257 6
4.7540245 13.005047 -0.90076709 25
4.4692116 26.228647 -1.8073306 17
5.1091561 24.563213 -1.7799132 0
6.3565001 25.820662 -1.963962 4
7.3240175 25.677141 -2.0522056 6
8.2899532 25.513851 -2.1391172 8
4.7505717 12.995602 -1.1453623 28
4.2737269 25.081398 -2.1785421 4
5.1255193 24.641884 -2.2312458 4
6.0359035 24.518372 -2.3117418 9
6.9820127 24.478113 -2.4074941 11
7.948595 24.463259 -2.5062201 11
4.7483926 12.989641 -1.3899589 24
4.1724081 24.486784 -2.5669353 11
2.8811598 13.851709 -1.5050113 8
3.4256442 13.915268 -1.5656731 0
3.0799432 12.511 -1.6361489 7
2.9827795 12.116312 -1.8054527 8
2.9946041 12.164346 -2.0366464 8
2.9825766 12.115488 -2.2133193 2
2.8804078 11.70047 -2.3872368 0
2.5852251 10.501411 -2.3343227 1
2.3482404 9.5387592 -2.2946889 1
2.1486559 8.7280293 -2.2584515 1
1.4911568 6.0572104 -2.1556103 1
1.0644133 4.3237405 -2.0831108 1
4.7356801 18.951498 5.1276226 9
3.8256257 15.309592 3.0268188 1
4.2667689 17.074984 2.4375072 5
7.9785581 31.929018 1.6476091 1
7.7924647 31.184301 1.0404646 8
10.697108 37.012508 1.1340417 0
10.937898 33.267803 0.92558783 11
4.8137493 13.027229 0.32680747 23
1.9461585 11.185562 0.23326452 0
7.833858 37.014206 0.66700238 0
9.2598295 37.05648 0.55935454 0
2.3598626 8.1652374 0.099690922 0
6.367641 19.367289 0.17827241 8
4.8122272 13.023109 0.080934919 24
6.4272861 36.94088 0.10667173 7
7.7944922 36.828205 -0.0032850585 13
9.2093859 36.85461 -0.11536454 10
10.637136 36.805 -0.22935261 14
10.988755 33.422489 -0.31378898 16
4.809195 13.014904 -0.16516414 25
6.4094672 36.838467 -0.55410784 16
5.4091563 25.55773 -0.46465957 12
6.3115201 25.257778 -0.5394336 9
10.641001 36.818371 -0.90853846 19
11.014025 33.499348 -0.93880475 17
4.8032718 12.998873 -0.41032535 26
4.2837543 24.620914 -0.81243783 1
5.318038 25.127205 -0.91215837 2
6.2617011 25.058409 -0.99314964 12
7.3625169 25.474661 -1.0984212 10
8.0865259 24.595306 -1.1480634 1
4.8027725 12.997522 -0.65587914 28
4.5812497 26.33077 -1.3417393 10
5.3105597 25.091869 -1.365236 7
6.229363 24.928995 -1.4429009 15
7.4058719 25.62467 -1.5772178 7
8.0477753 24.477446 -1.5980655 1
4.7993917 12.988373 -0.90076709 21
4.5744209 26.291521 -1.8127524 11
5.4807162 25.895842 -1.8778538 23
6.4456253 25.794449 -1.9636674 11
7.0991197 24.563293 -1.9651515 0
8.3939066 25.530212 -2.1429324 8
4.8014326 12.993896 -1.1466823 26
4.3694487 25.113443 -2.1826372 4
5.2247038 24.686209 -2.236897 6
6.13304 24.543528 -2.316118 9
7.0828938 24.507151 -2.4127669 9
8.047617 24.476965 -2.5104871 9
4.7964654 12.980453 -1.3907588 22
4.2626319 24.499512 -2.5698135 10
2.9550247 13.9622 -1.5181278 0
1.472003 5.8907399 -0.6633693 0
3.1303298 12.527121 -1.6396762 6
3.0269749 12.113509 -1.8065983 11
3.0389616 12.161478 -2.03793 12
3.0191205 12.082077 -2.2091274 3
2.922184 11.694152 -2.3880141 0
2.6171267 10.473357 -2.3301029 0
2.3824668 9.5342827 -2.2955987 0
2.1762881 8.7091856 -2.2555273 0
1.5095417 6.0409646 -2.151691 1
1.0847697 4.3410892 -2.0932806 1
4.7775903 18.853178 5.1052804 6
4.3212342 17.052319 3.3741834 9
4.3068223 16.995447 2.4281785 9
4.5436172 17.92988 1.5801917 1
3.162904 12.481353 0.64460355 0
7.9036889 31.189289 1.0415 6
13.369781 45.691483 1.4013112 1
11.036804 33.197201 0.92463666 18
4.863915 13.029925 0.32727799 25
6.7439961 38.014271 0.79321438 2
7.9641275 37.023209 0.66763699 0
9.3738194 36.990673 0.5588274 1
11.17531 38.191833 0.46674117 3
6.4457111 19.387819 0.17865714 6
4.8581843 13.014574 0.08098156 22
6.5560403 36.954811 0.10677414 6
7.9216228 36.825615 -0.0032871531 12
9.3394089 36.854885 -0.11546172 9
10.786087 36.86166 -0.22992732 13
11.105836 33.404842 -0.31396735 19
4.8607202 13.021367 -0.16544981 23
6.5350862 36.836697 -0.5544042 14
5.4871507 25.508371 -0.46409047 13
6.4080138 25.287104 -0.54051077 10
10.280138 35.132568 -0.86777556 3
11.128836 33.474022 -0.93912411 17
4.8561387 13.009094 -0.41115403 23
4.3653769 24.606571 -0.81243783 0
5.3971305 25.089891 -0.91144848 2
6.3526177 25.068502 -0.99437916 5
10.764693 36.788544 -1.5877857 4
8.1919956 24.640404 -1.1514302 0
4.8528337 13.00024 -0.65682477 26
4.3628874 24.592539 -1.2538944 1
5.3903785 25.058502 -1.3643855 10
6.3757629 25.159836 -1.4574778 6
7.9146872 27.048594 -1.6664675 6
8.1729832 24.58322 -1.6067318 0
4.850812 12.994823 -0.90232503 19
4.3534589 24.539391 -1.6929322 1
5.6018019 26.041357 -1.8897425 9
6.5487657 25.842535 -1.9689707 13
7.519906 25.699423 -2.0580297 6
8.4961329 25.555208 -2.1473837 4
4.8500719 12.992842 -1.1480021 26
4.4547925 25.110586 -2.1836607 6
5.3090515 24.680433 -2.2379568 3
6.232008 24.592554 -2.3226824 11
7.1652427 24.487352 -2.4131436 14
8.1375332 24.476589 -2.5132024 9
4.8478351 12.986849 -1.3931587 24
4.3445468 24.489159 -2.5702245 11
2.9979627 13.936769 -1.5164354 0
1.0353771 4.085773 -0.4604921 0
2.1532347 8.4970274 -1.1131053 0
3.0710175 12.118753 -1.8088895 10
3.1229169 12.323557 -2.0668142 2
3.0640068 12.091087 -2.2126205 3
2.9541998 11.657771 -2.3825727 0
2.66625 10.521472 -2.342762 0
2.410243 9.5112257 -2.2919593 0
2.2099214 8.7207232 -2.260401 1
1.5342095 6.0542493 -2.1582232 1
1.0955992 4.3234196 -2.0865006 1
3.8375072 14.924475 4.045023 1
4.3083391 16.75559 3.3184242 3
4.3444138 16.895889 2.4161062 9
4.5764017 17.798115 1.5699772 0
1.1182293 4.3489132 0.22480124 0
8.0583086 31.339622 1.0474528 1
10.969248 37.007839 1.1361601 0
11.171738 33.215321 0.92622191 12
4.9206605 13.0428 0.32803077 22
6.8830595 38.025913 0.7939539 2
8.0890408 36.975651 0.66728443 0
9.5008926 36.949982 0.55871028 0
11.322196 38.198608 0.46730411 2
11.219842 33.358341 0.30775338 11
4.9162912 13.031219 0.081191413 23
6.6878457 36.947445 0.10681966 6
8.062088 36.852448 -0.00329204 12
9.4739771 36.845306 -0.11553461 10
10.916966 36.831451 -0.22997521 15
11.246602 33.437904 -0.31464517 8
4.9103789 13.015548 -0.16559264 19
6.6643424 36.817596 -0.55446351 15
5.5727391 25.473434 -0.46380591 12
6.5111823 25.322681 -0.54175371 8
10.382256 35.027458 -0.8660692 8
11.274934 33.522141 -0.94157249 3
4.9043417 12.999546 -0.41139081 19
4.4512429 24.591185 -0.81243783 0
5.4223127 24.785824 -0.90108466 0
6.4500384 25.084887 -0.99591607 3
7.2904234 24.596291 -1.0626625 0
10.869118 32.315586 -1.5118502 5
4.9094663 13.013129 -0.65833777 24
4.6892138 25.905869 -1.3216834 9
5.460743 24.961493 -1.3601332 14
6.5172539 25.346294 -1.469588 3
7.2873559 24.585941 -1.5163013 0
4.59201 13.652763 -0.89337158 0
4.908823 13.011424 -0.90466201 13
4.4461985 24.563316 -1.6956432 0
5.4155393 24.754862 -1.7977463 2
6.359786 24.733887 -1.8861814 2
7.6265693 25.730373 -2.0626276 7
8.5763884 25.498941 -2.1451581 7
4.9094672 13.013131 -1.151302 15
4.5381584 25.071354 -2.1816134 3
5.3866549 24.622828 -2.2344246 7
6.3227744 24.589943 -2.3245058 8
7.2653875 24.511826 -2.41804 14
8.2343454 24.481995 -2.5166934 9
4.9156156 13.029428 -1.3995585 9
4.4271688 24.458183 -2.5685799 8
3.0516934 13.949533 -1.5189741 0
3.5796442 13.921618 -1.5704519 0
3.1927979 12.417131 -1.6280866 8
3.1093581 12.092625 -1.8065983 14
3.2357228 12.584071 -2.1123867 11
3.1130595 12.10702 -2.2175112 3
2.9997609 11.666389 -2.3864594 0
2.6951711 10.481808 -2.3360105 1
2.4502189 9.5291624 -2.2983284 0
2.2422812 8.7204704 -2.2623503 1
1.5534505 6.0415344 -2.1556103 1
1.1106842 4.3195691 -2.0865006 1
3.859935 14.786774 4.0115094 0
3.8240032 14.649125 2.9039979 0
4.4133167 16.906687 2.4199474 7
5.4217486 20.769823 1.8338532 8
8.3578815 32.017662 1.6566092 0
8.1882668 31.367897 1.049394 3
11.131272 37.055458 1.1388669 0
6.5513072 19.244339 0.53730172 1
5.0154653 13.147975 0.33113605 1
2.3255339 12.584228 0.26292583 0
8.2375441 37.004311 0.66834205 0
9.6514101 36.972961 0.55958885 0
11.472483 38.191334 0.46772635 2
12.682604 37.254906 0.34412837 13
4.9968095 13.09907 0.081727713 8
1.8782574 10.163867 0.029404709 0
8.2014503 36.842175 -0.0032937853 11
9.6200714 36.852905 -0.11566823 10
11.067999 36.844826 -0.23031044 13
6.6190739 19.443401 -0.18318626 1
4.9951148 13.094627 -0.16683054 7
6.8094163 36.847988 -0.55529326 15
5.6591139 25.421608 -0.46323684 14
6.6180921 25.352819 -0.54291379 13
10.432338 34.728741 -0.85962296 21
1.6236439 4.7694225 -0.13413016 0
4.9847302 13.067404 -0.41411367 5
4.5449767 24.594362 -0.81308764 1
5.5365734 24.871136 -0.9049179 6
6.5247736 24.995331 -0.99330336 13
7.3954716 24.619162 -1.0648147 0
8.3745451 24.600067 -1.1523162 0
4.9970026 13.099575 -0.66363323 6
4.7550931 25.731369 -1.313661 14
5.5391755 24.882826 -1.3569438 4
6.6423879 25.44589 -1.4767644 13
7.3705273 24.536123 -1.5148846 0
8.3473997 24.520327 -1.6064842 0
10.126354 26.546104 -1.8482733 9
4.8415122 26.199011 -1.8097703 8
2.1666002 9.7327003 -0.70737964 0
6.4322619 24.640932 -1.8808781 9
7.3410373 24.437952 -1.9611667 11
6.6523633 19.541189 -1.6459883 5
9.6556759 25.312225 -2.2425475 5
4.6242251 25.023201 -2.1788833 4
5.4621477 24.536804 -2.22842 11
6.4118524 24.562748 -2.324141 8
7.3597622 24.500288 -2.4195466 10
6.6368923 19.495745 -2.0066054 5
9.3635302 24.54637 -2.6403217 9
4.5254588 24.488743 -2.573514 13
3.1002076 13.926608 -1.5177047 1
3.63165 13.912251 -1.5708863 0
3.254324 12.466777 -1.6361489 10
3.179656 12.180737 -1.821491 12
3.1611614 12.109888 -2.0347209 8
3.1613922 12.110772 -2.2203057 2
3.0504286 11.685689 -2.3926783 0
2.7394962 10.494558 -2.341074 0
2.4802096 9.5012732 -2.2937791 0
2.2683494 8.6896715 -2.2565022 1
1.5717639 6.0211678 -2.1503844 1
1.121933 4.2979403 -2.0780258 1
5.1562839 19.474457 5.2880831 7
3.8710933 14.620498 2.9009838 1
4.4672346 16.872028 2.4172037 7
4.54247 17.156179 1.5161805 1
8.4573231 31.941952 1.6542091 0
8.3703642 31.613522 1.0585822 1
11.22797 36.909275 1.1355716 0
6.5767841 19.100368 0.53391981 4
14.37711 37.297913 0.9406184 13
6.9617305 36.949955 0.77250898 0
8.3666639 36.97533 0.66834205 0
9.7886019 36.969978 0.5600574 0
11.240208 36.949505 0.45299554 0
6.6673808 19.36348 0.17907687 1
14.366459 37.270279 0.23284821 12
6.9579878 36.930088 0.1069107 6
8.3370667 36.844532 -0.0032965778 11
9.7527494 36.834568 -0.11571682 9
10.761162 35.374752 -0.22135472 3
6.6712775 19.374796 -0.18275818 6
13.574465 35.215641 -0.4492617 3
4.9652338 26.353384 -0.39740008 5
5.7363439 25.35099 -0.46231207 11
6.728045 25.410748 -0.54465389 9
10.550009 34.680637 -0.85933858 6
6.6887069 19.425415 -0.54695302 6
13.171138 34.169312 -1.084296 3
5.6445303 24.945232 -0.90832514 2
6.6436987 25.092184 -0.99806774 10
10.101934 33.207703 -1.4377978 16
6.6897116 19.428333 -0.91115022 7
4.866334 25.828466 -1.3194772 4
5.7220874 25.287987 -1.3801194 2
8.2196388 27.020102 -1.6700093 6
2.3915863 6.9456706 -0.4555997 0
2.4061494 6.2421684 -0.43519333 0
4.8642159 25.817223 -1.7845594 4
5.6691518 25.054045 -1.822373 17
6.5182357 24.61833 -1.8808781 7
7.44835 24.484674 -1.9669907 8
6.6984653 19.453756 -1.6405833 13
9.7998905 25.423431 -2.2554166 6
4.7100687 24.999073 -2.178201 2
5.5398498 24.482613 -2.2252409 9
6.5057096 24.571022 -2.3270586 8
7.453352 24.501118 -2.422183 14
6.6932397 19.43858 -2.0031142 13
9.4391356 24.487537 -2.6375217 10
4.6094398 24.464977 -2.5726917 12
3.1540687 13.938977 -1.5202434 0
3.6842618 13.914865 -1.572624 0
3.283602 12.401638 -1.6290944 9
3.2140496 12.138949 -1.8169087 14
3.2195823 12.159846 -2.0449908 8
3.2036476 12.099663 -2.2203057 3
3.0891924 11.667383 -2.3911235 1
2.7761126 10.484932 -2.341074 0
2.5133603 9.4925585 -2.2937791 1
2.303633 8.7004519 -2.2613757 1
1.5937397 6.0192995 -2.151691 1
1.1415657 4.3115106 -2.0865006 1
1.0835738 4.0354996 1.0968177 0
4.4396181 16.534246 3.2837632 11
4.8066068 17.901003 2.5670099 4
4.5971608 17.120974 1.5144781 4
8.592597 32.000977 1.6588092 8
0.90405124 3.3669126 0.11284641 0
11.395579 36.995953 1.1394553 0
6.6460466 19.084846 0.53413117 0
14.534792 37.318295 0.94240624 14
7.105751 37.003975 0.77415228 1
8.7762117 38.165871 0.69041091 2
9.9466314 37.043739 0.56169736 0
6.721777 19.302315 0.17872711 10
14.506632 37.245995 0.23301144 11
7.0989246 36.968426 0.10709278 5
8.4781771 36.869781 -0.0033014647 13
9.8895636 36.831203 -0.115814 10
10.882222 35.329327 -0.22130683 8
6.741498 19.358946 -0.18282953 6
13.720534 35.227676 -0.45002347 3
5.0089226 26.084513 -0.39360684 15
5.8221111 25.319118 -0.46209866 11
6.8747802 25.603397 -0.54929423 9
10.653345 34.586273 -0.85791665 14
1.1585156 3.3268034 -0.093784668 0
9.5959129 24.63765 -0.78288561 0
4.7512465 24.742636 -0.81906623 8
5.771884 25.100689 -0.9147138 1
6.734355 25.08042 -0.99852884 4
10.184848 33.065292 -1.4331625 8
6.7627454 19.41996 -0.91185904 10
11.475937 29.464642 -1.4967208 0
4.9813242 25.94079 -1.3260957 2
5.7324476 24.92919 -1.3616215 11
6.7318387 25.071047 -1.4577022 4
8.3350639 27.059935 -1.6742592 2
6.764286 19.424383 -1.2756791 12
10.343304 26.556587 -1.8539858 7
5.7467365 24.991329 -1.8192593 5
6.908267 25.728111 -1.9674975 5
7.5126395 24.389919 -1.9614732 15
6.7663307 19.430256 -1.6405833 13
9.9001503 25.418783 -2.2580564 5
4.7837749 24.912029 -2.1720583 6
5.6234908 24.45536 -2.2245345 15
6.5893726 24.54047 -2.3263292 8
7.5493813 24.509201 -2.4255729 13
6.7636704 19.422617 -2.00389 12
9.5361118 24.48411 -2.6407218 10
4.6985621 24.468275 -2.5747476 9
3.2071624 13.947265 -1.5223589 0
3.7369356 13.917281 -1.5743617 0
3.3464231 12.462915 -1.6386684 7
3.2481894 12.097069 -1.8123263 11
3.2650797 12.159972 -2.0469162 6
3.2448421 12.084602 -2.2196071 3
3.1299 11.656528 -2.3911235 0
2.8126945 10.475177 -2.341074 1
2.5515304 9.5025358 -2.2983284 1
2.3400249 8.7148371 -2.2672241 1
1.6206237 6.0356073 -2.1595294 0
1.1509712 4.2865038 -2.0763309 0
1.8731258 6.8800092 1.8716991 0
4.4539638 16.359451 3.252116 8
4.5640965 16.763969 2.406229 6
5.6598873 20.78882 1.840663 5
8.7262878 32.051739 1.6630092 6
10.122093 37.178547 1.2472634 0
11.543695 37.017021 1.1413383 0
13.123753 37.266914 1.0442719 13
14.69279 37.338036 0.94419414 13
7.2394834 37.002499 0.77464527 0
10.073776 37.001076 0.56158024 0
6.8024001 19.316462 0.17907687 3
14.667315 37.273296 0.23350111 11
7.2348375 36.978752 0.10719519 6
8.6159248 36.878914 -0.0033049553 11
10.028576 36.835052 -0.11593547 10
10.997143 35.264397 -0.22113921 15
6.8263044 19.384342 -0.18329328 6
13.866851 35.23912 -0.45078528 3
5.0984082 26.059019 -0.39348829 12
5.9022675 25.263592 -0.46145844 10
6.9662118 25.586962 -0.54945993 8
10.818057 34.690125 -0.86142415 9
6.8161883 19.355616 -0.5463143 4
9.7228489 24.708179 -0.7862004 0
4.8444943 24.761211 -0.82023597 14
3.082063 13.192215 -0.48113692 0
6.8554611 25.180174 -1.0034469 3
7.6885672 24.654831 -1.0697812 0
6.8543849 19.464081 -0.9150486 2
3.5684221 9.0682487 -0.46127141 0
5.840332 24.998489 -1.3665117 5
7.6627221 24.571955 -1.521968 0
6.8545928 19.464672 -1.2798885 7
10.45348 26.564894 -1.8571018 12
1.5332997 7.8370123 -0.54244316 0
6.1107931 26.156149 -1.9055941 5
7.0158477 25.769276 -1.972506 3
7.5906067 24.340702 -1.9596341 8
4.6567335 13.223512 -1.1178858 3
9.9990358 25.410038 -2.2603664 7
4.8546348 24.813044 -2.1648922 3
5.7387342 24.563618 -2.2361906 4
6.684412 24.55191 -2.3296113 6
7.6396313 24.497908 -2.4270794 17
4.644207 13.187941 -1.3623039 4
9.6360922 24.487709 -2.6447215 10
4.7908192 24.48687 -2.5784481 11
3.2513034 13.916618 -1.5202434 0
3.7969835 13.946357 -1.5791404 0
3.3826098 12.424357 -1.6351411 6
3.2924764 12.093297 -1.8134719 10
3.3448439 12.285644 -2.0700235 5
3.2963171 12.107405 -2.2258949 4
3.165416 11.626603 -2.3872368 0
2.8502698 10.469069 -2.341918 1
0.8257485 3.0329821 -0.73426408 0
2.3663549 8.6916437 -2.2633252 1
1.6396958 6.0226183 -2.1569166 1
1.1697339 4.2964439 -2.0831108 1
5.1230249 18.573696 5.0575485 7
4.5593719 16.530153 3.2890375 6
4.5617199 16.538668 2.3760481 2
5.7203174 20.739201 1.837939 9
8.8399639 32.049583 1.6644092 0
10.261272 37.202583 1.2492046 1
6.123107 19.408203 0.59903198 2
4.6937222 13.188787 0.37000263 6
14.825386 37.311409 0.94475877 14
1.7374606 8.7268438 0.18281563 0
9.2295742 38.922455 0.70521754 0
2.3651276 8.5748482 0.13026226 0
11.645362 36.911907 0.45398071 1
4.693841 13.189119 0.12241583 8
14.804129 37.257908 0.23371096 12
7.3613286 36.974171 0.10725208 6
8.7427864 36.869598 -0.0033067006 12
10.168752 36.867149 -0.11614198 8
11.091155 35.155258 -0.22068425 4
4.6844459 13.162721 -0.12460947 9
14.014647 35.271 -0.45178512 3
5.1605854 25.92037 -0.39165094 12
6.0164633 25.372299 -0.46380591 7
7.0893035 25.702507 -0.55244297 2
11.006425 34.886688 -0.86720675 3
1.5471374 4.3472672 -0.12284621 0
13.556247 34.117336 -1.0870188 2
4.9125271 24.674435 -0.81789654 2
5.930613 25.010256 -0.9128682 1
6.9495525 25.195833 -1.0049839 1
10.449358 33.120975 -1.4386256 11
4.682713 13.157852 -0.61930573 9
9.7788773 24.610737 -1.2535083 1
5.1546602 25.89061 -1.3252934 5
6.0172024 25.375416 -1.388199 5
6.8545499 24.851398 -1.4476104 0
7.7802043 24.660648 -1.5290513 0
4.6796637 13.149284 -0.86563939 9
10.566571 26.593145 -1.861516 13
5.0495415 25.362625 -1.7566376 16
6.2039404 26.162916 -1.9075756 9
6.8201828 24.726801 -1.8944308 0
7.6892796 24.372448 -1.964232 1
4.6577778 13.087787 -1.1077117 12
10.105323 25.43231 -2.265316 8
4.904985 24.636551 -2.1509008 8
5.8385448 24.62199 -2.2432549 2
6.77003 24.54497 -2.3310702 4
7.7328076 24.510416 -2.4308457 14
4.6492043 13.063696 -1.3510548 12
9.7363482 24.503702 -2.6499214 10
4.8712173 24.466946 -2.5780368 9
3.3047767 13.936723 -1.5236282 0
3.8400388 13.922189 -1.5778371 0
3.4332881 12.4475 -1.6396762 7
3.3357191 12.093761 -1.8151903 10
3.4128611 12.373442 -2.0867121 6
3.3437793 12.122983 -2.2307854 4
3.2070839 11.62739 -2.3895688 0
2.8839314 10.45579 -2.341074 1
2.6130457 9.4736843 -2.2955987 1
2.3910384 8.6687899 -2.2594264 1
1.6556375 6.0025692 -2.151691 1
1.1859019 4.2995267 -2.0865006 1
5.2180381 18.663757 5.0869999 7
4.5779085 16.374157 3.261158 9
4.5980859 16.446327 2.3650734 10
4.7860937 17.118788 1.518564 0
10.364147 37.07024 1.9270107 0
10.352318 37.027931 1.2445458 1
6.1932492 19.394329 0.59926736 4
4.7018237 13.066974 0.36704344 18
14.970432 37.296539 0.94569975 14
7.7184277 38.073318 0.79814428 2
9.2268028 38.314545 0.69478244 1
10.42986 37.305283 0.56726164 1
11.732769 36.741486 0.45238566 12
4.7059946 13.078566 0.12154143 20
14.959422 37.269108 0.23410736 14
7.4959111 36.975693 0.10733175 5
8.8733053 36.846638 -0.0033073989 11
10.304919 36.858395 -0.11622702 11
11.593436 36.305161 -0.22815533 11
4.7059875 13.078545 -0.12396733 20
14.13619 35.218155 -0.45173749 3
5.2399077 25.847321 -0.39082119 9
6.1040554 25.347254 -0.46373481 13
7.182209 25.689157 -0.55269158 8
11.049066 34.600449 -0.86104494 3
4.6990924 13.059382 -0.36949667 19
9.9265509 24.73048 -0.78904164 0
5.1233344 25.272291 -0.83830172 13
5.9860582 24.857265 -0.90804124 3
7.0116305 25.079037 -1.0012953 10
10.772802 33.735325 -1.4669346 4
4.6961422 13.051185 -0.615053 22
9.8706799 24.591286 -1.2542648 0
6.0879736 25.280474 -1.3841592 5
7.0229802 25.119633 -1.4646542 8
8.621767 26.999298 -1.675912 6
4.6930938 13.042712 -0.85969681 21
10.681637 26.611662 -1.8654109 8
5.3426132 26.353945 -1.8265777 13
6.0065761 24.942467 -1.8201084 8
7.1330886 25.513466 -1.9565964 10
8.2013617 25.682787 -2.07213 5
4.695334 13.048939 -1.105804 23
10.198492 25.40798 -2.2663059 7
5.0234179 24.779427 -2.1648922 4
5.9216571 24.589838 -2.2421954 8
6.8696094 24.571058 -2.3358111 8
7.8195291 24.487068 -2.4312224 23
4.6866894 13.024913 -1.3487273 22
9.830718 24.491728 -2.6523213 8
2.8308709 13.964068 -1.4724003 1
3.355267 13.932836 -1.5244745 0
3.8896837 13.91253 -1.5782715 0
3.4980857 12.511871 -1.6497542 5
3.3981664 12.154482 -1.8260734 10
3.4241395 12.247382 -2.067456 9
3.3744109 12.069514 -2.2231004 4
3.2487082 11.619904 -2.3903461 1
2.9235694 10.456955 -2.3436058 1
2.6481967 9.4720078 -2.2974186 1
2.4265063 8.6790714 -2.2642999 0
1.6786162 6.004035 -2.1543038 1
1.1970005 4.2814035 -2.079721 1
5.2683883 18.593315 5.072782 6
4.0310259 14.226386 2.8361826 0
4.6673479 16.472109 2.3711095 7
4.8371282 17.071301 1.5158401 0
10.526156 37.149147 1.9330107 1
10.506575 37.08004 1.2475224 1
10.791833 33.392231 1.0329477 4
4.747407 13.050481 0.36704344 24
15.120063 37.292233 0.94692302 13
7.8537064 38.057892 0.79839075 1
9.3747396 38.340378 0.69584 2
10.489142 37.018517 0.56345451 0
6.279182 19.429127 0.23949277 4
4.7516189 13.062058 0.12154143 23
15.114975 37.279682 0.23450375 11
7.6281686 36.96497 0.10737726 5
9.0123205 36.858177 -0.0033112385 10
10.434607 36.82605 -0.11623916 11
10.845517 33.558338 -0.21112987 0
4.7488766 13.05452 -0.12389599 22
14.292101 35.250141 -0.45278496 3
5.2896838 25.633022 -0.38785774 18
6.1801481 25.275286 -0.46281004 10
10.436776 36.833706 -0.79324085 11
10.86849 33.629421 -0.83781958 14
4.7501168 13.05793 -0.36992249 20
3.1593323 7.7921996 -0.24896543 0
5.1541533 24.976261 -0.82907385 2
6.1734333 25.247826 -0.92309004 2
7.1819439 25.346678 -1.0129758 11
7.9530978 24.608578 -1.0712711 0
4.7334743 13.01218 -0.61398983 21
9.9624643 24.571491 -1.2550213 0
5.2077155 25.235815 -1.2936051 18
6.157208 25.181465 -1.3799068 15
7.1770349 25.329353 -1.4783342 5
8.7294683 27.010834 -1.6785092 7
4.7440519 13.041258 -0.86068726 26
9.9750776 24.602604 -1.7270112 1
5.4232817 26.280416 -1.8227825 6
6.0917096 24.913595 -1.8195423 4
7.3134537 25.810804 -1.9813448 4
8.3044538 25.695747 -2.0755017 7
4.742218 13.036216 -1.106122 20
10.318574 25.449804 -2.2732356 4
5.1058564 24.742222 -2.1631858 7
6.0140805 24.596109 -2.2446678 5
6.9651098 24.581421 -2.3390932 7
7.9184289 24.501305 -2.4353657 12
4.734848 13.015956 -1.3495032 23
9.9355907 24.505211 -2.6575212 10
2.8578858 13.84889 -1.4612987 3
1.9688284 8.0520248 -0.88176656 0
3.9425597 13.91417 -1.5800092 0
3.5103674 12.388867 -1.6351411 5
3.437335 12.13112 -1.824355 10
3.4905491 12.318925 -2.0815771 9
3.427258 12.095555 -2.2300868 4
3.2956674 11.631144 -2.3950102 0
2.9536579 10.424115 -2.3385422 0
2.680182 9.4589586 -2.2965086 0
2.4557297 8.6668167 -2.2633252 1
1.699564 5.9981394 -2.1543038 1
1.2099627 4.2702274 -2.0763309 1
5.3375692 18.577599 5.0737977 5
3.9594748 13.781093 2.7502835 0
4.75176 16.53867 2.3831818 13
5.9396882 20.673296 1.8375986 7
10.633561 37.010487 1.9278107 0
10.631369 37.002857 1.2462282 0
10.878088 33.242252 1.0295347 16
4.7883043 13.01423 0.36651501 23
15.277871 37.288368 0.9482404 15
7.7800899 37.015221 0.77711016 0
3.4323754 13.817865 0.25100726 0
3.0902345 10.755671 0.16388209 0
3.3636334 10.278897 0.12685376 0
4.7911749 13.022032 0.12133157 26
15.263643 37.253643 0.23469029 14
7.7742953 36.987652 0.10752519 4
9.1569948 36.86372 -0.0033147293 11
10.591601 36.864445 -0.11648211 11
2.6634266 8.1391411 -0.0512679 0
4.7884049 13.014503 -0.12368195 25
1.3086751 3.1940546 -0.041088685 0
5.3885331 25.636946 -0.38821334 15
6.2872076 25.310688 -0.46387705 10
10.587169 36.849018 -0.79440087 12
10.963069 33.501945 -0.83563924 19
4.7882805 13.014165 -0.36917734 22
10.056271 24.544121 -0.78537166 0
5.2357926 24.910254 -0.82751423 10
6.2023258 24.968977 -0.91372001 2
7.3310871 25.516108 -1.0208139 9
8.0680981 24.65523 -1.0745821 0
4.7825146 12.998494 -0.61416698 25
2.5434108 6.2076473 -0.31753781 0
5.2968869 25.20092 -1.2928028 6
6.2321281 25.088953 -1.3760797 7
7.3007021 25.410353 -1.4846135 6
8.8433113 27.024197 -1.6813425 5
4.7835474 13.001302 -0.85920161 22
2.7709146 6.7629108 -0.47544092 0
5.1633072 24.56539 -1.7051312 0
6.4426899 25.936621 -1.8959699 10
7.434443 25.875843 -1.9884157 12
8.4221449 25.737156 -2.0813258 8
4.7830825 13.000037 -1.1045322 23
10.422363 25.437635 -2.2755454 4
5.2047043 24.762344 -2.1665983 12
6.1070709 24.585505 -2.2457273 4
7.0584583 24.567215 -2.3401873 8
8.0156088 24.494825 -2.4376254 10
4.7701497 12.964888 -1.346012 27
10.029867 24.479679 -2.6587212 12
2.9094436 13.842216 -1.4617099 0
3.4644706 13.947072 -1.5287056 0
4.002315 13.930201 -1.5834846 0
3.5699959 12.425498 -1.6416918 7
3.4686563 12.072782 -1.8174815 10
3.5258646 12.271897 -2.0758004 6
3.4802678 12.113195 -2.2356761 4
3.3317742 11.596359 -2.3903461 0
3.0015614 10.447042 -2.3461378 1
2.7148325 9.4490709 -2.2965086 0
2.4853361 8.6503 -2.2613757 1
1.7236248 5.9991374 -2.1569166 1
1.2246052 4.2622819 -2.074636 1
5.4088721 18.581142 5.0798907 10
4.0284166 13.838852 2.7646 1
4.8847651 16.780672 2.4204962 6
4.9714155 17.078344 1.5195854 2
4.9899836 17.14213 0.89380497 0
10.782815 37.04229 1.2488164 0
10.996572 33.21167 1.0297701 17
4.833703 12.997437 0.36651501 25
15.417112 37.256981 0.94880503 13
7.9017248 36.952641 0.7763707 0
9.3252382 36.988682 0.67250198 0
11.120428 38.202095 0.58266586 1
6.4268522 19.410275 0.23982117 3
4.8393893 13.012726 0.12140152 24
15.415001 37.251877 0.23501673 14
1.3533323 6.328897 0.018412082 0
9.2924623 36.858681 -0.0033171726 11
10.729161 36.857975 -0.11657929 11
11.053943 33.384941 -0.21053123 18
4.8365932 13.005207 -0.12375329 23
14.579153 35.231972 -0.45388001 6
5.4696274 25.578869 -0.38762066 10
6.3823633 25.315733 -0.46437502 8
10.716848 36.815674 -0.79448378 11
11.078689 33.459679 -0.83554447 19
4.8350725 13.001118 -0.3692838 21
5.7420735 13.87629 -0.44465724 0
5.3795609 25.157671 -0.83635217 7
6.2796736 24.908413 -0.91230035 1
7.1620479 24.60384 -0.98531145 0
8.0938129 24.444803 -1.0666357 0
4.8250728 12.97423 -0.61381263 24
10.17012 24.577105 -1.2589929 1
5.3555846 25.045544 -1.2857833 12
6.2767029 24.896627 -1.3667244 4
7.4462838 25.580276 -1.496051 1
8.1380882 24.578522 -1.5309402 0
4.8219433 12.965815 -0.85796356 22
11.026922 26.647652 -1.8760571 10
5.574482 26.069223 -1.8108547 11
6.549768 25.979744 -1.900782 10
7.5492501 25.933998 -1.9948975 2
8.114542 24.507408 -1.9841564 0
4.8312116 12.990736 -1.1051681 20
10.515666 25.412149 -2.2765355 7
5.2861094 24.720642 -2.1645508 4
6.1996713 24.591082 -2.2481999 9
7.1363773 24.515654 -2.3376346 8
8.1173344 24.515842 -2.4425218 11
4.8334169 12.996667 -1.3510548 22
10.131995 24.484972 -2.663121 12
1.7164068 8.0268259 -0.84824401 0
3.5131338 13.934894 -1.5287056 0
4.0509162 13.916144 -1.5834846 0
3.6200018 12.435821 -1.6447152 5
3.5638869 12.243049 -1.8449757 5
3.5741973 12.278468 -2.0790098 4
3.5247312 12.108537 -2.2370732 4
3.3766193 11.599728 -2.3934555 0
3.039103 10.440254 -2.3469815 0
2.7412674 9.417098 -2.2910495 0
2.515516 8.641572 -2.2613757 1
1.7424418 5.9858241 -2.1543038 1
1.2455516 4.2788534 -2.0848057 1
5.4561915 18.502773 5.0636415 6
4.0800323 13.83601 2.7668605 1
5.1954637 17.618607 2.543963 1
5.023109 17.034126 1.517202 1
5.0271907 17.047968 0.8898049 0
10.919967 37.031265 1.2497222 0
11.127676 33.218578 1.0311824 9
4.8860779 12.999199 0.36704344 24
15.579451 37.280422 0.95078111 13
8.2898827 38.116711 0.80143082 2
9.8111362 38.350761 0.69788474 2
11.259366 38.18222 0.5829587 1
11.168572 33.340664 0.41241547 17
4.8904123 13.010731 0.12154143 25
15.561906 37.238438 0.23527323 13
8.0442276 36.987194 0.10768451 4
9.4349461 36.880272 -0.0033220595 9
10.867937 36.854824 -0.11668862 10
11.198361 33.429592 -0.21105805 15
4.8918118 13.014454 -0.12400302 22
14.719011 35.221458 -0.45440373 6
5.5648308 25.586979 -0.38803554 10
6.4865532 25.355295 -0.4655132 9
10.324974 35.013554 -0.75636709 1
11.227172 33.515598 -0.83791435 10
4.8944945 13.021591 -0.3703483 22
14.248025 34.094425 -1.0941219 1
5.4316607 24.974663 -0.83089346 1
3.0356688 11.866129 -0.4349966 0
7.2761512 24.674534 -0.98915368 0
11.199122 33.431866 -1.4604781 4
4.878768 12.979752 -0.61487579 24
10.28512 24.611498 -1.2625862 0
5.4455237 25.038406 -1.2863849 12
6.5189962 25.482113 -1.4001058 5
7.2599092 24.619455 -1.441331 0
8.2263699 24.557539 -1.5314124 0
4.8826246 12.990012 -0.86068726 23
11.129108 26.631098 -1.8776151 9
5.5653682 25.589447 -1.7788665 8
6.3170466 24.692709 -1.8082198 3
7.2606211 24.62187 -1.8959039 0
8.5990829 25.67017 -2.0807128 5
4.893363 13.018581 -1.1089834 21
10.633512 25.445173 -2.282805 5
5.3749094 24.713724 -2.1655746 7
6.3071976 24.654213 -2.2559705 3
7.2376823 24.544081 -2.3427401 9
8.2028608 24.48736 -2.4425218 10
4.8773541 12.975989 -1.3506669 21
10.223541 24.464144 -2.664721 12
5.322031 24.470591 -2.5879049 11
3.5656977 13.93796 -1.530398 0
4.0960937 13.890476 -1.5821813 0
3.6443088 12.358405 -1.6361489 6
3.5797284 12.139402 -1.8312286 4
3.5813005 12.144734 -2.05847 3
3.5636342 12.084825 -2.2349772 4
3.4170895 11.58787 -2.3934555 1
3.0688925 10.407081 -2.341918 0
2.7840381 9.4410963 -2.2992382 0
2.5445681 8.6290169 -2.260401 1
1.7665336 5.9905839 -2.1582232 1
1.26048 4.2744794 -2.0848057 1
5.5097728 18.458628 5.0565329 4
4.1876907 14.02944 2.8083031 1
4.9161453 16.469881 2.3804381 6
5.0909681 17.055565 1.5206069 1
11.052955 37.029182 1.9346107 0
2.4813788 8.3130198 0.28082192 0
12.640889 37.324444 1.1599331 13
4.9490275 13.03526 0.36852303 17
15.737182 37.309612 0.9528513 14
3.0484483 13.796235 0.29028657 0
9.9432802 38.337372 0.6982373 2
2.4355097 8.1593504 0.12469799 0
12.639079 37.319103 0.46214366 16
4.9477272 13.031836 0.12189119 16
15.719506 37.267708 0.23578621 13
8.1720161 36.983753 0.10775279 5
9.5652285 36.879753 -0.0033248521 9
11.007254 36.876076 -0.11687083 11
6.5732713 19.408737 -0.1226742 2
4.9505591 13.039295 -0.12439543 12
14.871482 35.257217 -0.45549881 4
5.6298018 25.478559 -0.38667235 13
6.6107616 25.488495 -0.46835864 8
10.444458 34.99062 -0.7566157 0
11.648679 34.394768 -0.86085534 3
4.9475832 13.031456 -0.37109348 12
5.5396008 13.133251 -0.42204553 0
5.5084119 24.929188 -0.82998365 7
6.4842 25.000521 -0.91726929 2
10.101727 33.842419 -1.3580115 4
8.3253975 24.582199 -1.0750787 0
4.9373856 13.004597 -0.61682498 15
10.382206 24.614071 -1.2644775 0
5.5199046 24.981201 -1.2843794 5
3.9139433 15.090624 -0.82985771 0
8.1536798 27.316143 -1.6007812 5
6.6195664 19.545433 -1.2202188 0
4.9313421 12.988679 -0.86167765 19
11.226666 26.616112 -1.879173 5
6.390883 24.640728 -1.8059552 6
7.2817583 24.395067 -1.8802888 4
6.6116304 19.521999 -1.5841372 6
4.9633975 13.07311 -1.1150243 7
5.427597 24.56345 -2.1539721 13
6.3989229 24.671728 -2.2595026 3
7.3190341 24.519945 -2.3427401 8
6.6157184 19.534071 -1.9506276 6
4.9528575 13.045349 -1.3595885 6
10.334 24.499783 -2.6723208 12
5.4040074 24.456692 -2.5883162 12
3.6128969 13.929909 -1.5308212 0
4.1512327 13.907299 -1.5856568 0
3.6716511 12.300624 -1.6301022 8
3.6222291 12.135052 -1.8323742 11
3.6418812 12.20089 -2.0700235 9
3.607069 12.084264 -2.2370732 4
3.4577422 11.583995 -2.3950102 1
3.1067417 10.408086 -2.3444498 1
1.6187873 5.4231987 -1.3220392 0
2.5742786 8.6242495 -2.2613757 1
1.7853081 5.9810705 -2.1569166 1
1.2736115 4.2668047 -2.0831108 1
5.6111164 18.561495 5.0900464 8
4.5014973 14.890891 2.9838691 0
4.9220123 16.281948 2.3557448 9
8.9839182 29.718676 2.6523795 2
11.197171 37.040085 1.9372107 0
11.181031 36.986698 1.2507576 0
6.5384507 19.08638 0.59385371 5
5.0231452 13.092571 0.37063673 1
15.825011 37.155113 0.95031059 8
8.3063574 36.978569 0.77867132 0
2.4920402 9.4721451 0.17267324 0
11.54562 38.192749 0.58430588 1
12.771863 37.282326 0.46223748 14
5.0161109 13.074237 0.1224508 1
15.844798 37.201572 0.23571625 10
8.3080769 36.986221 0.10784382 5
1.7606777 6.6922655 -0.00060388393 0
11.149797 36.883373 -0.1170166 9
6.6409807 19.385675 -0.1226742 5
14.997597 35.212452 -0.45559403 3
5.7064328 25.404121 -0.38584256 13
6.6956224 25.449793 -0.46807408 10
10.455441 34.586452 -0.74866092 2
6.6560822 19.429758 -0.48687953 5
5.0173907 13.077572 -0.37290317 1
11.639276 27.327539 -0.87948841 3
5.6102929 24.976122 -0.83219314 9
6.5927868 25.05892 -0.92025065 2
7.4393096 24.609133 -0.98853892 0
6.6651993 19.456371 -0.85191798 7
5.004221 13.043246 -0.61948293 1
2.0651174 4.8486328 -0.24945346 0
5.6202054 25.02025 -1.2873877 10
6.6120086 25.131979 -1.3833088 4
3.2149994 10.635173 -0.62389648 0
6.6696362 19.469324 -1.2169132 9
5.0038223 13.042208 -0.86638224 2
10.509294 24.674486 -1.7446682 1
6.4727955 24.602837 -1.8048229 5
7.3680229 24.373318 -1.8805835 12
6.6693945 19.468618 -1.5816849 14
9.8237543 25.605114 -2.1868086 7
10.512793 24.682701 -2.2207687 5
5.4897232 24.439365 -2.1447582 13
6.4677701 24.583736 -2.2534981 8
7.4114962 24.517126 -2.3449283 9
6.6683784 19.465652 -1.9461079 13
9.3935022 24.483683 -2.5550954 9
10.417897 24.4599 -2.6719208 11
5.4963202 24.468735 -2.5916054 11
3.6604874 13.913366 -1.530398 1
4.2101083 13.92698 -1.5895666 0
3.7294931 12.337111 -1.6366528 6
3.6588385 12.103387 -1.8295102 11
3.7050123 12.256129 -2.0815771 7
3.6572068 12.097989 -2.2419639 2
3.5038335 11.590632 -2.3988969 1
3.1453164 10.404663 -2.3461378 1
2.8549993 9.4442978 -2.3046975 0
2.6088574 8.630064 -2.2652745 1
1.8127389 5.9965153 -2.1647553 1
1.2937398 4.2796731 -2.0915856 1
5.7132449 18.663877 5.1235604 5
4.348774 14.20646 2.8497458 5
4.9834557 16.279821 2.3579397 5
5.1819153 16.928144 1.5124352 1
2.1878679 7.1472692 0.37420207 0
11.333475 37.023895 1.2533458 0
6.5958714 19.036995 0.59302992 1
14.443309 37.256359 1.0561086 12
15.888258 36.945358 0.94635844 20
8.4478474 37.003933 0.77982163 0
9.8828001 37.038212 0.67581588 0
11.703452 38.232529 0.58553582 1
6.6912451 19.312262 0.23972735 8
14.439126 37.245567 0.3493048 13
15.878165 36.92189 0.23429389 14
8.4415827 36.976494 0.10790072 5
2.5564184 9.5808039 -0.00086533424 0
10.856983 35.467308 -0.11264351 2
6.7190847 19.392612 -0.12286576 6
14.418863 37.193302 -0.35577735 6
15.166244 35.266441 -0.45697474 2
5.8208895 25.497124 -0.38756138 8
6.8122563 25.5306 -0.46999475 13
10.604201 34.641525 -0.75064957 2
6.718627 19.391291 -0.48650035 8
13.285522 34.269863 -0.97851151 3
10.578353 24.598104 -0.79282999 0
5.7063389 24.995359 -0.83349282 2
6.666821 24.985544 -0.91840506 4
7.5649447 24.712961 -0.9937644 0
6.7226071 19.402779 -0.85059357 9
12.80341 33.026257 -1.5706798 1
10.575889 24.592375 -1.2671252 0
5.7092862 25.008268 -1.2877889 8
3.734982 13.99776 -0.77117443 0
7.528234 24.593037 -1.4442464 0
6.737556 19.445925 -1.2169132 11
