# .PCD v0.7 - Point Cloud Data file format
VERSION 0.7
FIELDS x y z intensity
SIZE 4 4 4 4
TYPE F F F F
COUNT 1 1 1 1
WIDTH 1404
HEIGHT 1
VIEWPOINT 0 0 0 1 0 0 0
POINTS 1404
DATA ascii
-5.3485346 9.1565905 -0.28231207 0
-19.092686 35.592773 -1.1959338 0
-1.7042842 2.1333914 -0.088769004 0
-25.742456 34.738186 -1.5355494 37
-24.746984 36.061008 -1.6816843 11
-24.108044 38.032192 -1.8652468 4
-24.28105 41.568703 -2.1346998 0
-25.743673 34.73983 -2.3016167 2
-5.7691731 8.4067698 -0.57254052 0
-4.6604719 8.688098 -0.64136487 0
-16.980259 21.255575 -1.8479935 0
-16.130083 21.76676 -1.9220119 0
-12.714325 21.766687 -2.0100324 0
-13.840494 17.325274 -1.8987168 0
-10.433559 17.862059 -2.015527 0
-9.6080122 17.91135 -2.0427394 0
-8.1678534 10.224367 -1.3523387 0
-11.068848 14.93687 -1.977628 0
-1.574954 2.2950041 -0.30409855 1
-6.5921764 9.606041 -1.4794375 0
-7.8691072 11.466768 -2.0122321 0
-6.9834604 10.176215 -2.0064785 0
-6.2800021 9.151144 -1.9687922 0
-5.7169418 8.3306589 -2.001672 0
-5.2742996 7.6856461 -2.0119398 0
-4.8509841 7.0687962 -2.0026209 0
-4.4714074 6.5156813 -1.9855269 1
-3.234473 4.7132354 -1.9753228 4
-2.3862929 3.4772775 -1.9729382 8
-4.5600781 6.69486 1.5537218 0
-2.2238152 3.2648854 0.5470947 0
-4.7968683 7.0425029 0.72795731 0
-5.6741772 8.3305197 0.50460279 0
-5.691813 8.3564119 0.32728049 0
-34.137966 64.177162 1.7105403 1
-5.7233243 7.2158642 0.18922444 0
-31.114878 42.295837 0.925695 3
-32.059895 47.068604 0.83399469 2
-4.8469362 7.7057519 0.10677484 0
-33.046371 57.03091 0.57636869 16
-31.486921 59.193371 0.39084736 1
-30.6434 38.634644 0.14028686 13
-30.204777 41.058697 -0.0044481461 25
-30.153671 44.269989 -0.1626668 21
-30.043589 47.763874 -0.33780301 13
-25.239456 43.557858 -0.44899365 0
-24.696798 46.428379 -0.62599546 1
-29.966612 37.781364 -0.71460891 10
-30.342196 41.245495 -0.91075265 16
-7.3572927 10.801579 -0.270794 0
-3.6173983 5.751009 -0.16106081 0
-25.165363 43.429989 -1.3362985 9
-18.913866 35.556839 -1.1925006 0
-1.6993107 2.1424601 -0.088898972 0
-24.823477 36.444485 -1.6955165 7
-24.113443 38.336014 -1.8760074 3
-2.9270706 5.0514922 -0.25888574 0
-30.301727 41.190483 -2.7219672 0
-5.7712703 8.4730663 -0.5756802 0
-18.861624 35.45863 -2.6127179 1
-15.975986 21.716867 -1.9126707 0
-8.2390614 13.098618 -1.189329 0
-13.851749 17.464035 -1.9086131 0
-9.5865459 18.022085 -2.0515392 0
-11.576327 14.595225 -1.9250987 0
-10.974218 14.917742 -1.9700119 0
-10.173878 14.936737 -1.9744685 0
-8.8929882 13.056204 -2.0060084 0
-7.8290348 11.494165 -2.0122321 0
-6.892333 10.11895 -1.9904319 0
-6.2613254 9.1925392 -1.9729841 0
-5.687829 8.350563 -2.001672 0
-5.2342343 7.6846199 -2.006876 0
-4.8131247 7.0663695 -1.9971619 0
-4.4551892 6.5408678 -1.988451 0
-3.2243869 4.7338705 -1.9792421 5
-2.3782203 3.4915743 -1.9763281 10
-3.8950372 5.7616038 0.59414667 0
-5.2886858 7.8231115 0.30566883 0
-3.9534161 6.8779817 0.20967872 0
-3.1230948 5.9209695 0.15752253 0
-30.977097 39.336594 1.0286974 10
-30.811363 42.191029 0.92104149 4
-95.621269 141.44456 2.5002856 6
-80.203621 128.50229 1.7767034 10
-32.922825 57.277699 0.57769775 9
-4.8706064 9.2340174 0.060858585 0
-8.3076391 10.549542 0.038201086 0
-30.224033 41.38678 -0.0044722315 22
-30.193865 44.663265 -0.16372363 14
-30.236725 48.445301 -0.34187379 10
-2.8623297 4.9797568 -0.051227942 0
-25.226889 47.826805 -0.64365929 1
-29.819712 37.866875 -0.71425325 7
-30.273504 41.454517 -0.91302902 19
-2.1456928 3.1739445 -0.079382084 0
-25.331448 40.58606 -1.1341563 1
-24.97574 43.451706 -1.3342758 5
-18.78591 35.61557 -1.1922638 0
-8.5432081 10.848682 -0.44891381 0
-5.4836721 7.508975 -0.33022261 0
-24.655825 36.471302 -1.69275 14
-5.3325367 8.5437937 -0.41718486 0
-5.5102129 10.446626 -0.55904806 0
-29.839849 37.892448 -2.4213479 0
-5.224978 7.7288737 -0.52387571 0
-16.883305 21.439444 -1.8536863 0
-5.6323137 8.3314123 -0.74274653 0
-11.52551 18.466179 -1.6730304 0
-4.6476827 8.0858364 -0.74366748 0
-5.920167 7.5177865 -0.81934202 0
-4.0205517 5.505476 -0.60434723 0
-10.380028 18.058722 -2.0294914 0
-9.5031576 18.016714 -2.0471394 0
-10.903307 14.930262 -1.9666271 0
-8.8406944 13.077302 -2.0044966 0
-7.8132563 11.557498 -2.0185328 0
-6.9233079 10.241072 -2.0096879 0
-6.2292008 9.2143373 -1.9729841 0
-5.6630425 8.3768663 -2.0032268 0
-3.098588 4.5834827 -1.1941673 0
-4.7993383 7.0992608 -2.0017111 0
-4.4453678 6.5756617 -1.9942994 1
-3.207844 4.7450957 -1.9792421 5
-2.3619604 3.4938509 -1.9729382 11
-23.762506 35.41573 5.9066472 0
-24.241997 36.130363 3.7170768 1
-29.75326 44.344372 2.6734147 7
-29.712557 44.283707 1.7262137 2
-5.5375805 9.7123499 0.29549482 0
-30.745983 39.324776 1.0255752 8
-30.612268 42.227081 0.91949028 14
-30.763376 45.84985 0.8085748 0
-79.613441 128.55365 1.7735602 14
-32.794022 57.517357 0.5789569 8
-31.612352 60.443176 0.39763275 0
-30.501047 39.011494 0.1408786 24
-30.241385 41.715477 -0.0044963169 17
-30.167028 44.961052 -0.16442819 15
-30.141134 48.669575 -0.3427119 18
-25.210129 44.215984 -0.45395234 1
-25.243292 48.265457 -0.64837283 2
-4.9540482 6.3363342 -0.11919039 0
-30.238951 41.71212 -0.91637236 20
-30.238678 45.067841 -1.1245244 22
-25.358047 40.946217 -1.1417401 1
-24.994246 43.837349 -1.3434308 3
-18.644787 35.649044 -1.1911983 0
-29.84729 38.175327 -1.5753573 5
-7.0528941 9.7288818 -0.42676234 0
-24.586258 36.643452 -1.696746 12
-24.070375 38.866985 -1.8937212 3
-24.521341 43.007927 -2.1953015 0
-6.7736249 12.951247 -0.69181257 0
-7.2047734 9.2150602 -0.58723652 0
-30.313511 41.814972 -2.7491827 0
-30.317755 45.185696 -3.055568 0
-5.3253031 8.5988884 -0.59806776 0
-2.8007369 5.3550406 -0.3931281 0
-4.5818629 5.8603015 -0.5053044 0
-5.9232507 8.8280354 -0.78517234 0
-7.2219138 9.2369833 -1.0039585 0
-12.93001 17.835875 -1.9529139 0
-11.591785 14.826143 -1.9448348 0
-10.83712 14.948907 -1.9640884 0
-8.8082542 13.127856 -2.00752 0
-7.7552171 11.558405 -2.0139506 0
-4.7339292 7.0554657 -1.3812994 0
-6.1991911 9.2392979 -1.9736828 0
-5.635951 8.3998423 -2.004004 0
-5.197886 7.7469487 -2.0136275 0
-4.7810369 7.1256752 -2.0044408 0
-4.4159012 6.5814757 -1.9913752 0
-3.1786211 4.7374287 -1.9714036 4
-2.343693 3.4930491 -1.9678533 10
-3.3630996 5.0484781 0.84012234 0
-24.345226 36.545555 3.7514658 0
-29.588337 44.416191 2.6718147 7
-30.334669 45.536537 1.7711194 7
-5.7842431 11.149406 0.29556647 0
-30.622776 39.435986 1.0258216 6
-30.451029 42.299156 0.91885573 7
-94.45005 141.78261 2.4948385 8
-79.010788 128.53073 1.7696193 6
-32.612938 57.6432 0.57913178 5
-8.2871923 15.973963 0.10490528 0
-7.5511746 9.7243958 0.035026196 0
-30.179995 41.922668 -0.0045078364 16
-30.148615 45.257244 -0.16514489 15
-6.7931662 11.050776 -0.077656142 0
-25.303644 44.724064 -0.45830458 4
-19.35293 37.303707 -0.50025356 0
-7.354135 9.4706488 -0.17768911 0
-30.254667 42.026394 -0.92106736 18
-30.304136 45.490704 -1.1325619 15
-25.310089 41.173161 -1.1457216 1
-9.915863 17.526237 -0.5360949 0
-18.522793 35.703575 -1.1909616 9
-7.7164054 9.9371805 -0.40901324 0
-24.455751 36.711468 -1.6961312 3
-24.092054 39.191727 -1.9056408 2
-4.340878 7.6724796 -0.39089799 0
-4.8366899 6.2286849 -0.39590332 0
-7.264791 10.091434 -0.66188753 0
-30.274036 45.445522 -3.0663326 0
-5.133007 9.0725632 -0.64650589 0
-18.552485 35.760807 -2.6207674 0
-16.85202 21.702017 -1.8664274 0
-6.464541 9.7041712 -0.86118525 0
-24.737314 40.241402 -3.6305187 0
-4.1978803 7.4197321 -0.67976105 0
-13.761628 17.722214 -1.9212394 0
-24.762602 40.282536 -4.4722443 0
-9.3656387 18.052721 -2.0439394 0
-11.559643 14.886497 -1.947713 0
-10.901355 15.142941 -1.984821 0
-8.7558756 13.143782 -2.0055044 0
-7.7344055 11.610414 -2.0185328 0
-6.8665714 10.307674 -2.0135391 0
-6.1794376 9.2761917 -1.977176 0
-5.6102428 8.421751 -2.0047815 0
-5.1461563 7.7250934 -2.0035002 0
-4.7530632 7.1350064 -2.0026209 0
-4.3854504 6.583168 -1.9874763 0
-3.1712787 4.7605286 -1.9766293 5
-2.3441498 3.5188935 -1.9780231 8
-3.6284912 5.4903779 1.7274879 0
-23.005674 34.81057 5.7787905 0
-24.461613 37.013592 3.7902811 2
-4.4912233 6.7958035 0.40780225 0
-30.04632 45.463982 1.7640017 8
-24.643183 40.419567 1.3934261 14
-78.542946 140.01913 4.2432461 7
-30.487783 39.560635 1.0261502 12
-30.212109 42.29332 0.91631746 6
-93.182167 140.9967 2.4749827 7
-6.3629222 10.436419 0.14336728 0
-3.0644212 5.4629679 0.054772336 0
-34.320824 66.752472 0.43755224 1
-30.552694 39.644863 0.14239208 11
-30.251678 42.348713 -0.0045416956 16
-30.207478 45.707832 -0.16638392 11
-24.632591 40.402199 -0.2832785 11
-4.0095716 7.1478953 -0.073096134 0
-19.30934 37.555805 -0.50268173 0
-7.7612677 10.070941 -0.18841682 0
-30.251547 42.34853 -0.92569119 17
-25.341434 38.344875 -0.95233643 6
-24.626114 40.391575 -1.1214534 25
-30.27067 53.963764 -1.6472462 1
-18.442989 35.870792 -1.1942765 9
-5.8578458 8.2002802 -0.35790682 0
-24.955715 37.761234 -1.7403941 2
-24.075167 39.487915 -1.9157393 2
-24.152069 43.056084 -2.1890996 0
-30.468058 39.535038 -2.5057833 0
-2.7188253 3.8060286 -0.24897857 0
-24.633732 40.404068 -2.7981448 0
-7.2384405 12.904025 -0.91763723 0
-16.747997 21.732029 -1.8637165 0
-11.414233 22.200174 -2.0663378 0
-3.0336819 3.9364746 -0.42553917 0
-5.7431498 8.6901312 -0.95365274 0
-5.8956809 10.510277 -1.1741725 0
-9.3540001 18.193113 -2.055939 0
-11.507428 14.93192 -1.9481242 0
-10.716308 15.001543 -1.9611267 0
-8.7513962 13.241998 -2.0155823 0
-7.7027102 11.6552 -2.0213969 0
-6.8113289 10.306424 -2.0084043 0
-6.1497378 9.3053513 -1.9785732 0
-5.5901523 8.4586248 -2.0086682 0
-5.1328969 7.7667389 -2.0094078 0
-4.7268786 7.1523805 -2.0026209 0
-4.3677073 6.6089082 -1.9904006 0
-3.1725683 4.8005075 -1.9883871 4
-2.3272405 3.5214167 -1.9746331 9
-5.5216336 8.418684 1.3943506 0
-23.991287 36.578861 3.7371655 2
-29.359575 44.763744 2.6800148 6
-30.056278 45.825989 1.7739663 3
-2.3260279 3.8452716 0.13228133 0
-78.07901 140.33788 4.2446203 7
-31.695791 41.426392 1.0716693 2
-29.976376 42.274559 0.91363817 14
-5.700963 8.6921034 0.15222643 0
-7.1110463 11.755622 0.16114745 0
-78.319153 140.76949 1.4086214 9
-6.8102579 13.360119 0.087417178 0
-30.688789 40.110245 0.14367796 12
-30.272562 42.692257 -0.0045671775 21
-30.17499 46.006985 -0.16708848 13
-24.48933 40.48452 -0.28325456 27
-7.8914089 14.183883 -0.14476532 0
-19.085495 37.441235 -0.50025356 0
-7.123343 9.3102083 -0.17371807 0
-30.253895 42.665932 -0.93031502 22
-25.323685 38.610332 -0.95672816 0
-24.501518 40.504665 -1.1222118 15
-18.357618 36.013313 -1.1968809 5
-4.9121032 6.4201183 -0.26279783 0
-25.437069 35.872944 -1.5618138 1
-24.797455 37.808006 -1.7385498 3
-24.079901 39.807671 -1.9271623 1
-30.45611 39.806133 -2.5162122 0
-4.0247827 5.6759996 -0.37038484 0
-4.317349 7.1372228 -0.49323472 0
-18.413939 36.123802 -2.6376455 0
-16.703568 21.83156 -1.8672407 0
-3.3510823 4.7259054 -0.4110105 0
-8.8496428 13.492809 -1.1917531 0
-12.348749 22.195429 -2.0252938 0
-13.682894 17.883539 -1.9280643 0
-6.3214478 10.450297 -1.1551602 0
-9.2922487 18.229198 -2.056339 0
-11.418973 14.924596 -1.9419566 0
-10.682281 15.06482 -1.9645115 0
-9.985795 15.225069 -1.989239 0
-8.7072983 13.275781 -2.0160861 0
-7.6684952 11.691945 -2.0231152 0
-6.7926359 10.356546 -2.0135391 0
-6.1172204 9.3267593 -1.9785732 0
-5.5605936 8.4780855 -2.0086682 0
-5.0928898 7.7649903 -2.0043442 0
-4.7104297 7.1818638 -2.0062606 0
-4.3467407 6.627357 -1.9913752 0
-3.1433525 4.7925839 -1.9805486 4
-2.3169219 3.532548 -1.9763281 7
-22.805319 35.036743 5.7897654 0
-8.6105642 13.228763 0.79020435 0
-3.1863315 4.8952913 0.18906951 0
-24.570261 40.940311 1.4054303 11
-77.727722 140.86165 4.2522297 10
-31.391346 41.326591 1.0662464 1
-29.996677 42.61768 0.91878521 4
-91.207184 140.12534 2.4484501 4
-31.972292 57.941616 0.57867706 1
-33.711475 66.708412 0.43571016 7
-30.466335 40.108818 0.14329106 15
-30.19243 42.895794 -0.0045776493 21
-30.206221 46.407051 -0.16815746 11
-24.638096 41.053337 -0.2866309 4
-25.214495 45.694832 -0.46547505 1
-4.0048938 7.9249005 -0.10569743 0
-30.342152 39.945332 -0.74335444 28
-30.229092 42.94788 -0.93415636 18
-5.5368986 8.5065632 -0.21030453 0
-24.650137 41.073402 -1.1355783 35
-2.4379742 4.4182057 -0.13434307 0
-18.237213 36.087875 -1.1972361 4
-8.4468832 11.12029 -0.45398259 0
-25.274889 35.90921 -1.5595423 6
-7.1453547 10.9777 -0.50364459 0
-24.08271 40.127926 -1.9385852 1
-18.291481 36.195263 -1.9196001 0
-2.5034587 3.295794 -0.20777905 0
-30.216421 42.929878 -2.7944708 0
-24.640779 41.057812 -2.8314364 0
-4.8085284 8.7142296 -0.61728805 0
-16.545189 21.781679 -1.8580236 0
-3.6354117 5.164999 -0.44809201 0
-4.5499592 7.5813904 -0.67957276 0
-12.411819 22.493252 -2.0485036 0
-3.2178648 5.8315582 -0.64895624 0
-9.2716455 18.346773 -2.0659387 0
-11.378842 14.980204 -1.9440125 0
-10.627342 15.098761 -1.9640884 0
-9.9759665 15.326486 -1.9979275 0
-8.6522417 13.292793 -2.0140707 0
-5.191628 7.97611 -1.3770014 0
-6.7779789 10.413286 -2.0199578 0
-6.0996642 9.3711634 -1.9834638 0
-5.5266829 8.4908686 -2.0071135 0
-5.0828152 7.8089371 -2.0110958 0
-4.6853294 7.1982636 -2.0062606 0
-4.3129969 6.6262336 -1.9865016 0
-3.1307275 4.809865 -1.9831614 4
-2.3025997 3.5375781 -1.9746331 9
-4.1106367 6.3613772 1.4527525 0
-22.992224 35.581398 5.8671379 1
-25.212627 39.017567 3.9686954 0
-29.043358 44.945774 2.6790149 4
-24.52438 41.172714 1.4106085 10
-77.734505 141.98494 4.2783337 5
-32.617283 43.23748 1.1127515 12
-30.111797 43.084057 0.92668205 3
-90.453339 139.98021 2.44066 6
-5.4834599 9.2058973 0.12568092 0
-77.27655 141.14847 1.4071175 10
-6.6420937 13.2524 0.086414531 0
-30.542727 40.487446 0.14428107 16
-30.231049 43.254681 -0.0046052258 17
-4.0357575 6.2454987 -0.022582151 0
-24.503857 41.138256 -0.28665486 7
-25.210739 46.04834 -0.46822196 1
-18.776434 37.463009 -0.49882522 0
-30.363667 40.250084 -0.74714768 13
-30.221687 43.241287 -0.93835336 19
-5.5737753 8.6256437 -0.2127904 0
-30.274393 50.826111 -1.402433 11
-3.3853376 6.1834435 -0.18767579 0
-18.146095 36.205349 -1.1991302 0
-29.520323 39.132149 -1.5935531 1
-5.1868558 7.4213696 -0.32156244 0
-24.513498 37.935631 -1.7367055 7
-24.076302 40.42046 -1.9488493 1
-18.187454 36.287868 -1.9213023 0
-2.4612379 3.2626178 -0.20517178 0
-13.810828 27.555563 -2.0051091 0
-16.999205 22.534149 -1.9173915 0
-13.302928 22.333597 -1.9979501 0
-3.4758973 6.9351602 -0.64214206 0
-9.4925919 12.583383 -1.349645 0
-4.7543669 7.9818602 -0.8787052 0
-3.6305861 6.6313992 -0.73662156 0
-9.198267 18.352514 -2.063139 0
-11.348269 15.043269 -1.9473019 0
-10.663805 15.257806 -1.9801667 0
-9.9509878 15.399558 -2.0031407 0
-8.6081171 13.32141 -2.0140707 0
-7.618813 11.790422 -2.0311344 0
-6.7348409 10.42244 -2.0173903 0
-6.0557313 9.3714905 -1.9792719 0
-5.5134044 8.532217 -2.0125549 0
-5.0653825 7.8388848 -2.0144715 0
-4.6614351 7.2137604 -2.0062606 0
-4.3057399 6.6633072 -1.9933248 0
-3.1188653 4.8265705 -1.9857743 4
-2.2928231 3.5482368 -1.9763281 10
-22.821022 35.602058 5.8567119 1
-23.87146 37.240799 3.7790451 0
-28.893507 45.07547 2.6804149 1
-7.6159043 11.881233 0.45682094 0
-76.626083 141.18648 4.2457829 3
-4.1585402 8.3736515 0.22000457 0
-31.789919 42.463539 1.0898277 3
-30.092695 43.394615 0.93098307 3
-6.5960054 10.290133 0.17899345 0
-33.723347 57.091263 0.77772993 4
-31.784271 64.000923 0.41656652 1
-30.521191 40.768829 0.1448842 14
-25.05987 36.137123 -0.0038376299 1
-30.060665 46.896305 -0.1691657 18
-30.203644 51.132652 -0.3555229 20
-25.203957 46.439251 -0.47125426 1
-18.605206 37.463509 -0.4979206 0
-30.350176 40.540394 -0.75046676 28
-25.087812 36.177414 -0.78306377 5
-25.336645 39.526569 -0.97280341 1
-7.1101346 12.03696 -0.33141178 0
-25.169329 46.375446 -1.4047474 1
-18.1271 36.500793 -1.2067069 0
-15.638346 20.888996 -0.84830934 0
-2.0615692 2.9728477 -0.12848301 0
-24.37644 38.028595 -1.7368592 3
-24.043859 40.704567 -1.9582856 0
-19.623795 36.157589 -1.8242496 0
-18.104101 36.454483 -1.9265977 0
-30.320118 40.500244 -2.5398784 0
-9.1480112 13.19172 -0.85452163 0
-2.8032219 4.7456584 -0.42362183 0
-3.1348448 6.3123345 -0.58340549 0
-13.518757 18.057745 -1.9314768 0
-5.0537567 7.8841405 -0.85737574 0
-5.4559078 10.052718 -1.1144359 0
-9.1309443 18.386103 -2.063139 0
-11.278752 15.065648 -1.9448348 0
-9.2024984 13.270292 -1.717837 0
-6.0705862 9.4704504 -1.2289926 0
-8.5613718 13.356214 -2.0145745 0
-3.8967268 6.0791097 -1.0447798 0
-6.7093768 10.466999 -2.0212417 0
-6.0255909 9.4002562 -1.9806693 0
-5.0260649 7.8409395 -2.0102518 0
-4.6475749 7.250474 -2.0117197 0
-4.2791934 6.6757784 -1.99235 0
-3.0909514 4.8220553 -1.9792421 4
-2.271981 3.544416 -1.9695482 10
-23.196354 36.467136 5.9856658 1
-23.08036 36.284786 3.673835 0
-76.201027 141.57983 4.2495875 4
-6.4994702 13.202854 0.34628609 0
-25.739723 34.633312 0.88655305 12
-24.93651 36.228622 0.77537268 8
-4.3318639 6.8101516 0.11819659 0
-33.533955 57.225895 0.77796447 3
-3.4084077 6.332746 0.06288676 0
-31.807981 64.613899 0.41983098 1
-25.759367 34.659744 0.12285342 18
-24.910904 36.191422 -0.0038341393 12
-30.092155 47.308071 -0.17027111 10
-3.6664143 6.2567582 -0.043413687 0
-25.218006 46.8545 -0.47457194 1
-3.0861177 6.2690592 -0.083177216 0
-25.787659 34.697811 -0.64064091 29
-3.0838923 4.4803853 -0.096744798 0
-25.320869 39.807102 -0.97752661 1
-25.296257 43.168217 -1.1861053 1
-19.356215 35.963421 -1.087306 0
-5.3099875 10.78657 -0.35598624 0
-25.772102 34.676876 -1.4045777 25
-24.899742 36.175205 -1.5596843 21
-24.329365 38.248352 -1.7430068 3
-4.3442788 7.4135385 -0.35593152 0
-19.565647 36.352539 -1.8306288 0
-25.781881 34.690037 -2.169847 1
-24.89607 36.169868 -2.3373368 1
-2.8550966 4.4885159 -0.29871681 0
-19.117807 35.520462 -2.5018365 1
-13.704964 27.839905 -2.0186114 0
-4.9586525 6.6719661 -0.56467223 0
-4.5196748 7.1054096 -0.62195075 0
-5.012723 8.5542421 -0.76202881 0
-7.5566139 15.350307 -1.4162762 0
-13.522202 18.194393 -1.9410319 0
-9.879303 18.355528 -2.0310431 0
-9.1088905 18.503563 -2.0727386 0
-11.254572 15.143251 -1.9497689 0
-10.597198 15.395975 -1.9882058 0
-9.8213301 15.440176 -1.9992309 0
-7.5158525 11.815721 -1.7782475 0
-7.4917526 11.777833 -2.0196784 0
-6.6833959 10.50701 -2.024451 0
-6.009654 9.4478159 -1.9862584 0
-5.452208 8.5714512 -2.0125549 0
-5.0154543 7.8848286 -2.0170033 0
-4.6180577 7.2600784 -2.0099001 0
-4.2558661 6.6906743 -1.99235 0
-3.080189 4.8423848 -1.9831614 4
-2.2654293 3.561496 -1.9746331 11
-24.961729 39.546635 6.476789 0
-23.693871 37.537975 3.7923241 0
-3.0940814 4.9019241 0.2902016 0
-3.6068716 6.2046962 0.21124999 0
-5.4487467 10.208887 0.30585194 0
-25.62343 34.729378 0.88671738 3
-24.832451 36.34848 0.77607775 1
-6.2699671 9.9334497 0.17202349 0
-33.342045 57.356426 0.77815217 4
-24.788773 46.444771 0.46035346 15
-25.661982 34.781628 0.12296722 2
-30.150156 44.132267 -0.0046642176 24
-2.9463542 4.6678815 -0.016763512 0
-30.069069 51.726112 -0.35818088 22
-24.760485 46.391769 -0.46900678 20
-18.385303 37.678757 -0.49906328 0
-30.322863 41.098873 -0.75686783 15
-30.244654 44.270588 -0.95364761 15
-5.9042783 9.3540926 -0.22919713 0
-25.276056 43.480965 -1.1922672 1
-4.6617241 8.7343054 -0.26357642 0
-6.7468672 13.826999 -0.45554873 0
-25.674644 34.79879 -1.4058775 7
-25.064199 36.687702 -1.5779985 2
-3.757045 5.9522514 -0.27064943 0
-4.2520943 7.3146362 -0.3504684 0
-19.62302 36.766109 -1.8479941 0
-25.655897 34.773384 -2.169446 0
-30.328346 44.393093 -2.8618715 0
-18.957975 35.520065 -2.4971321 1
-16.414785 22.248205 -1.8780841 0
-6.4326534 9.4157906 -0.80900002 0
-13.052381 22.453268 -1.9961109 0
-12.036472 22.55179 -2.0383294 0
-10.931078 22.4021 -2.0633681 0
-6.5329175 8.8545589 -0.94219214 0
-9.8601542 18.474195 -2.0403526 0
-7.0807648 14.511287 -1.622752 0
-5.6669655 7.6808681 -0.98639721 0
-3.6101961 5.2844214 -0.6807881 0
-9.7737436 15.484451 -2.0005341 0
-8.5145226 13.489478 -2.0256603 0
-7.4696145 11.834041 -2.0248337 0
-6.6466808 10.530274 -2.024451 0
-4.9549565 7.850091 -1.6467152 0
-5.4264455 8.5970669 -2.0141096 0
-4.9774671 7.8857546 -2.0127835 0
-4.6030841 7.292623 -2.0144494 0
-4.2428398 6.7218914 -1.9972236 0
-3.0673039 4.8595009 -1.9857743 4
-22.333389 35.657753 5.8270798 1
-4.9630151 7.9240084 0.79877824 0
-6.8077497 10.869333 0.41515058 0
-24.646908 46.569557 1.3926091 1
-24.589138 50.842449 1.3289669 11
-25.447685 34.744408 0.88482761 0
-31.142706 45.928471 0.97829366 3
-3.9954867 6.379241 0.11023092 0
-6.7134457 11.642097 0.15762894 0
-7.0332046 13.28902 0.1314746 0
-24.651255 50.970886 0.33005872 3
-30.411659 41.521858 0.14642043 37
-30.274294 44.647758 -0.0047075017 21
-2.9215486 4.6645789 -0.016714921 0
-2.9113059 5.0486302 -0.03488899 0
-25.167196 47.552628 -0.47985169 1
-7.9356914 16.408463 -0.21696541 0
-30.285551 41.349678 -0.75953496 20
-30.244816 44.604286 -0.95855594 17
-25.326799 40.437065 -0.98863012 2
-25.293934 43.86338 -1.2003249 0
-18.949425 35.804344 -1.0784705 0
-18.057209 37.336514 -1.2280164 0
-29.294891 39.997105 -1.6117487 0
-24.817085 36.599606 -1.570474 0
-24.184803 38.613743 -1.7519209 3
-18.85902 35.633526 -1.7877469 0
-1.9483573 4.0285778 -0.21181795 0
-30.305075 41.376331 -2.5747755 0
-2.649683 3.9076853 -0.25131738 0
-18.789059 35.501335 -2.4911895 1
-12.971937 22.495235 -1.9958044 0
-11.93157 22.544329 -2.0338781 0
-10.866693 22.468834 -2.0660079 0
-3.5576336 5.2467074 -0.56196165 0
-9.873827 18.656288 -2.0566444 0
-9.0453367 18.702854 -2.0879381 0
-3.8933034 5.3156319 -0.68089777 0
-3.5649416 5.2574854 -0.67571074 0
-9.7322931 15.538694 -2.0031407 0
-8.4610615 13.50903 -2.0241485 0
-4.1417532 6.612772 -1.1289808 0
-6.6182637 10.566798 -2.0270183 0
-5.9414592 9.4862041 -1.9855597 0
-5.4026494 8.6259336 -2.0164416 0
-4.9540596 7.9097099 -2.0144715 0
-4.5817332 7.3152494 -2.016269 0
-4.2069936 6.7169356 -1.9913752 0
-3.0503213 4.8701792 -1.9857743 4
-2.2424333 3.5802956 -1.9763281 9
-26.068506 41.929714 6.8378606 0
-3.3163259 5.7953219 0.19653898 0
-33.785954 64.352715 1.9210333 1
-30.641563 42.128086 1.0702724 16
-30.880777 45.868942 0.97483879 5
-6.3225765 10.169506 0.17536204 0
-7.1336918 12.466217 0.16846593 0
-75.608353 144.0126 1.422297 4
-24.485561 51.059559 0.33010536 1
-30.713787 42.227383 0.14854841 8
-30.257856 44.943684 -0.004728097 18
-30.22434 48.61414 -0.17384247 8
-30.097721 52.596149 -0.36277846 11
-25.204605 48.007668 -0.48359749 1
-18.436253 38.444981 -0.50753814 0
-6.7707162 9.3088369 -0.1705768 0
-30.203934 44.86359 -0.96197051 16
-25.31715 40.721203 -0.99351901 1
-25.265509 44.151798 -1.205918 1
-18.81201 35.831577 -1.0774059 0
-18.057781 37.655754 -1.2365402 0
-29.084499 39.987331 -1.6074598 0
-24.706734 36.698292 -1.5711839 2
-3.3998799 5.468514 -0.2475958 0
-18.703608 35.625103 -1.7842029 0
-30.320448 41.686596 -2.5878119 0
-30.275311 44.969608 -2.885685 0
-14.594036 27.797525 -1.9471935 0
-4.0853333 8.5191145 -0.61461967 0
-16.262966 22.359421 -1.8780841 0
-7.3243432 10.879255 -0.93043494 0
-8.9030704 14.320084 -1.2453747 0
-10.824879 22.573038 -2.0722775 0
-9.7730474 18.614901 -2.0484984 0
-8.9953165 18.757866 -2.0907381 0
-11.072298 15.222942 -1.945246 0
-10.440317 15.507586 -1.988629 0
-9.6891127 15.584388 -2.0048783 0
-8.4246006 13.550491 -2.0261641 0
-3.5742579 5.748991 -0.97948104 0
-6.5873575 10.595391 -2.0283022 0
-5.9078908 9.5025072 -1.9848611 0
-5.3740163 8.6438007 -2.0164416 0
-4.9381261 7.9426956 -2.0186911 0
-4.5615644 7.3370175 -2.0180888 0
-4.1867456 6.7341428 -1.99235 1
-3.0401437 4.8898988 -1.9896936 3
-2.2305489 3.5877113 -1.9763281 9
-25.919893 42.01709 6.8373117 3
-25.055378 40.615677 4.0769696 7
-3.1212196 5.0596108 0.19243419 0
-74.243553 142.62056 4.2496929 3
-35.111534 73.878197 1.9248048 11
-7.9641986 11.030461 0.27952304 0
-5.8947959 8.8221836 0.18705681 0
-5.1825004 8.401022 0.14455362 0
-2.8668549 5.0506797 0.068118222 0
-74.909378 143.8996 1.4185896 12
-3.7361305 7.8611937 0.050738804 0
-30.662189 42.467308 0.14901496 19
-30.211914 45.215317 -0.00474555 17
-30.144753 48.865742 -0.17436482 10
-6.9266105 12.202951 -0.084001772 0
-25.16799 48.347267 -0.48613033 1
-18.365458 38.642769 -0.50929976 0
-30.279661 41.937504 -0.76652873 26
-30.227133 45.238094 -0.96773249 15
-25.347013 41.088432 -1.0003138 1
-25.318516 44.604877 -1.2158717 2
-18.672037 35.868656 -1.0765543 0
-3.9199119 8.2478886 -0.27039328 0
-5.5418115 7.6754403 -0.30776718 0
-24.562943 36.761036 -1.5701901 0
-24.127064 39.110851 -1.7669826 2
-3.40516 5.9990382 -0.28573853 0
-18.588354 35.707901 -1.785089 0
-30.301025 41.967094 -2.5986421 0
-4.6823845 7.0076823 -0.44862917 0
-2.7780824 5.336647 -0.37314606 0
-15.082493 22.572542 -1.9259748 0
-13.927755 22.577398 -1.9592481 0
-12.901202 22.728685 -2.0086787 0
-10.740879 22.599888 -2.0712876 0
-13.31905 18.44696 -1.9481981 0
-4.4112124 7.771451 -0.84518409 0
-10.96552 15.187307 -1.9357891 0
-10.401593 15.567081 -1.9915907 0
-4.5615835 7.3944931 -0.94922191 0
-8.3751612 13.576442 -2.0256603 0
-7.3619056 11.933917 -2.0288432 0
-6.542038 10.604881 -2.0257347 0
-5.878818 9.5297785 -1.9862584 0
-5.3458686 8.6658478 -2.0172188 0
-4.8918929 7.9299364 -2.0110958 0
-4.5195632 7.3263764 -2.0108099 0
-4.167285 6.755321 -1.9942994 1
-3.0051906 4.8715234 -1.9779357 1
-2.2142065 3.5893092 -1.9729382 7
-4.3889875 7.1705999 2.2068379 0
-22.52145 36.794888 5.9746914 1
-24.55143 40.111412 4.017725 1
-3.3581684 5.4864779 0.20822234 0
-30.174311 42.100445 1.0641923 18
-93.096207 140.38673 2.9697118 9
-5.9403157 9.7051153 0.16663493 0
-72.248566 128.32529 1.7273035 13
-5.8668232 11.366756 0.11185309 0
-34.862511 74.019531 0.47695875 21
-30.646595 42.759392 0.1496636 5
-30.345694 45.760544 -0.0047916267 11
-30.182827 49.311825 -0.17557956 11
-1.6150246 2.8685484 -0.019707371 0
-25.184372 48.793804 -0.48973343 1
-4.3952851 9.3320007 -0.12278995 0
-30.275223 42.241241 -0.77014416 24
-30.217119 45.566654 -0.9724986 20
-24.716993 40.381905 -0.9810068 12
-4.8614564 8.6347437 -0.234908 0
-3.5211823 6.8221626 -0.20438883 0
-3.5299292 7.4946899 -0.24529546 0
-2.1799104 3.0415008 -0.12165122 0
-25.181196 37.972614 -1.618176 6
-24.111429 39.392551 -1.7758967 2
-4.0037832 7.1113753 -0.33805218 0
-18.421452 35.690891 -1.7810135 0
-3.5234771 4.9161005 -0.30364621 0
-2.3742793 4.2171092 -0.28616586 0
-14.569907 28.228666 -1.970221 0
-16.106472 22.472414 -1.8780841 0
-14.948475 22.541925 -1.9188982 0
-13.825958 22.588448 -1.9560071 0
-12.811996 22.756207 -2.0071459 0
-4.9545059 6.9127312 -0.72822821 0
-24.700439 40.354858 -4.3317351 1
-9.7268467 18.845411 -2.0663419 0
-6.656868 9.2879372 -1.1808807 0
-6.6189461 9.981205 -1.2739918 0
-9.6091394 15.699132 -2.0109603 0
-5.253509 8.5830297 -1.2778792 0
-7.2933393 11.915646 -2.0213969 0
-5.2724161 8.6139202 -1.6418977 0
-5.8414068 9.5435209 -1.9848611 0
-5.3196855 8.6911469 -2.0187736 0
-4.862143 7.9436278 -2.0102518 0
-4.5000639 7.3520732 -2.0135396 0
-4.151782 6.7830606 -1.9981984 2
-2.9940894 4.8916564 -1.981855 0
-2.2167964 3.6217377 -1.9864979 7
-3.0231376 4.9800181 1.1174439 0
-24.515919 40.385101 4.0361114 5
-4.5877552 7.5574145 0.44260246 0
-2.3380773 3.8515174 0.14584623 0
-4.4743681 8.015789 0.2702117 0
-30.059214 42.266151 1.0655891 13
-92.539299 140.6635 2.9683721 5
-24.575602 40.483418 0.69354105 21
-71.742683 128.52637 1.726459 11
-6.1019859 11.929462 0.11716943 0
-6.3669076 13.647651 0.087790258 0
-7.4485497 10.473379 0.036562435 0
-30.265715 46.005119 -0.0048055896 19
-24.55114 40.443123 -0.1436803 30
-30.048809 53.832165 -0.36907619 12
-25.165644 49.199162 -0.49287274 1
-25.166954 53.946095 -0.7086013 1
-30.275511 42.57029 -0.7741152 20
-25.258104 38.393349 -0.81742239 9
-24.554287 40.448307 -0.98042679 30
-4.8940969 8.7677298 -0.23803632 0
-18.383936 35.940834 -1.0747446 0
-3.1660547 6.78653 -0.22173668 0
-4.7059064 6.6169581 -0.26396754 0
-25.096785 38.148136 -1.6217253 4
-5.9714966 9.836854 -0.44247568 0
-18.319622 35.815098 -1.7838486 0
-3.9430366 5.5442896 -0.34155187 0
-25.24395 38.371834 -2.4449227 0
-3.402921 5.6056356 -0.36823797 0
-5.0086136 7.613297 -0.64652061 0
-12.788772 22.910967 -2.0166483 0
-10.680014 22.89292 -2.0910864 0
-8.4931765 11.942225 -1.2547774 0
-6.3334246 10.433058 -1.1173966 0
-3.6005635 7.0391483 -0.77036887 0
-8.7631378 18.78404 -2.0831382 0
-8.1724043 11.491188 -1.4571871 0
-10.316164 15.68099 -1.9966681 0
-9.5535946 15.737648 -2.0113947 0
-8.2695599 13.622457 -2.0236447 0
-7.2824836 11.996444 -2.0305614 0
-6.4782767 10.671674 -2.0295858 0
-5.8145618 9.5783348 -1.9876556 0
-5.2857566 8.7072334 -2.0179963 0
-4.830965 7.958055 -2.0094078 0
-4.4852128 7.3884964 -2.0189986 0
-4.1248779 6.7949166 -1.9972236 2
-2.9781013 4.9058299 -1.9831614 0
-2.1941059 3.6143532 -1.9780231 8
-2.4931509 4.1394744 1.2684494 0
-24.453077 40.600384 6.5640388 19
-4.7211537 7.8387136 0.78175396 0
-24.820492 41.210419 2.4084134 6
-24.756062 41.103443 1.5531912 6
-4.5296307 8.1817732 0.27527228 0
-34.878437 75.44928 1.9559517 52
-5.3600349 7.5927057 0.19094989 0
-24.430017 40.562099 0.69342393 14
-7.7122827 13.930528 0.18676214 0
-5.3511629 10.552279 0.10345886 0
-34.887501 75.46888 0.48467684 36
-30.526688 43.242287 0.15058534 41
-30.312696 46.428673 -0.0048387507 13
-24.461418 40.614235 -0.14398399 5
-30.135809 54.433655 -0.37247649 11
-3.6307528 7.1596985 -0.071597829 0
-25.196663 54.505596 -0.71479082 2
-30.239744 42.835819 -0.77701938 19
-25.22233 38.631977 -0.82062352 1
-24.722448 41.047634 -0.99285609 24
-25.281857 45.666065 -1.2373906 1
-18.294542 36.076103 -1.0768737 0
-18.142719 39.246456 -1.2802246 0
-29.560762 41.874016 -1.6663358 0
-25.072746 38.402863 -1.6288238 4
-1.8786803 3.1192453 -0.14001228 0
-18.270409 36.028511 -1.7912909 0
-18.110254 39.176228 -2.0429084 0
-25.295269 35.831772 -2.2019365 0
-2.6704023 4.4337721 -0.29064336 0
-4.1426878 7.4828463 -0.50574857 0
-3.357985 4.7567215 -0.39551452 0
-5.3680935 8.2220812 -0.69662315 0
-13.781279 22.881588 -1.9728007 0
-10.692032 23.129078 -2.1092353 0
-24.696699 41.004879 -4.3824263 0
-3.2345943 5.842577 -0.63162822 0
-8.7910337 19.016825 -2.1055377 0
-6.9413166 9.832655 -1.2437897 0
-10.220054 15.653623 -1.988629 0
-9.5027065 15.77771 -2.0122635 0
-8.2608595 13.715823 -2.0332186 0
-2.9840527 4.9545374 -0.83685488 0
-6.4470992 10.704368 -2.0315115 0
-5.7871895 9.6086941 -1.9897517 0
-5.261405 8.735714 -2.0203283 0
-4.8313999 8.02176 -2.0212228 0
-4.4573865 7.4007707 -2.0180888 0
-4.1011353 6.8092732 -1.9972236 2
-2.9687617 4.9291492 -1.9883871 0
-2.1683915 3.6002641 -1.9661583 6
-24.253824 40.589489 4.0395164 1
-24.338364 40.730968 2.3754132 2
-3.2934139 5.5116248 0.20783411 0
-2.4015839 4.3738871 0.14687464 0
-3.1897397 6.344852 0.18769628 0
-30.013559 42.831959 1.074545 22
-2.5009096 3.8599062 0.081083804 0
-3.2332392 5.4109206 0.092308141 0
-77.513939 141.17235 1.8890139 7
-3.9758387 7.9085159 0.07740178 0
-30.694632 43.803909 0.1521671 12
-30.159132 46.547634 -0.0048401468 12
-5.1293955 8.5841942 -0.03036868 0
-30.140066 54.892632 -0.37489504 9
-4.2848439 8.5231724 -0.08508262 0
-25.121189 54.84412 -0.71807599 2
-30.25989 43.183495 -0.78140527 16
-5.014854 7.7399306 -0.16403933 0
-24.585159 41.143986 -0.9931047 3
-25.28013 46.041466 -1.245164 1
-18.159513 36.121887 -1.0763414 1
-18.05224 39.41132 -1.2835393 0
-28.375134 40.493782 -1.6074598 0
-25.003742 38.590805 -1.6330829 6
-24.100718 40.33326 -1.8066348 3
-18.1535 36.109924 -1.7921768 0
-4.3044977 9.3975 -0.48926163 0
-5.6259494 8.0287189 -0.49217162 0
-10.436302 16.107399 -1.0216414 0
-7.4989514 13.657474 -0.92130297 0
-3.8082035 8.3140001 -0.59488535 0
-15.928149 22.730854 -1.8854034 0
-14.82914 22.88731 -1.9347498 0
-12.647706 23.034649 -2.0197136 0
-10.632816 23.213371 -2.1135252 0
-13.102688 18.698675 -1.9550232 0
-3.44226 6.2692199 -0.67644858 0
-8.6914539 18.975023 -2.0975378 0
-10.182649 15.71591 -1.9920138 0
-9.4638882 15.838095 -2.015739 0
-3.7370353 6.2540383 -0.9251523 0
-7.2371364 12.111561 -2.0414448 0
-6.4218435 10.747144 -2.0353627 0
-5.7596722 9.6389809 -1.9918476 0
-5.2389288 8.7675009 -2.0234377 0
-4.7973509 8.0285072 -2.0186911 0
-4.443512 7.436348 -2.0235481 0
-4.0892797 6.8435297 -2.003072 2
-2.9418402 4.9232559 -1.981855 0
-2.1706779 3.6326933 -1.979718 7
-2.5734599 4.3393745 1.3243058 0
-8.8329353 14.894117 3.3214381 0
-5.4973364 9.2696228 1.4925753 0
-23.923935 40.340599 4.0068297 3
-4.2080946 7.0957003 0.41300228 0
-24.477747 41.274437 1.5533205 5
-4.0393572 8.101696 0.23927048 0
-3.9462624 8.6914244 0.22461545 0
-30.076914 43.226704 1.0819398 10
-2.4989145 3.8849962 0.081436336 0
-24.426735 41.188423 0.70127243 4
-34.936886 76.946556 0.4926281 106
-30.706825 44.132019 0.15295228 8
-4.8254938 7.5020676 -0.00077841681 0
-30.315685 51.118385 -0.18048714 6
-6.2399445 11.454385 -0.078087166 0
-25.132435 50.407856 -0.50236201 0
-3.9586501 8.718708 -0.11398183 0
-25.113842 36.09375 -0.65160573 2
-25.257357 39.266945 -0.83044022 1
-25.327805 42.707806 -1.0288184 1
-25.287991 46.420025 -1.2531271 2
-18.12706 36.35725 -1.0815576 0
-24.189478 53.27599 -1.7324585 4
-2.0824308 2.9928808 -0.11853196 0
-24.925379 38.750828 -1.6363482 6
-5.449883 9.1896067 -0.41081539 0
-3.3898008 6.2225046 -0.29351935 0
-18.056841 36.216415 -1.7944804 0
-25.023403 35.963772 -2.1995299 0
-4.3324828 6.7355967 -0.42630404 0
-15.77062 22.665623 -1.8756443 0
-14.804969 23.016895 -1.9415433 0
-13.739161 23.167007 -1.9892997 0
-12.651377 23.223562 -2.0325878 0
-13.095233 18.820539 -1.9632132 0
-4.1600099 6.4674573 -0.68170083 0
-9.532052 19.118336 -2.08147 0
-8.6120234 18.967505 -2.093538 0
-10.835144 15.572329 -1.9604594 0
-7.3374968 11.407412 -1.4428138 0
-9.4072618 15.862549 -2.0148702 0
-8.1733799 13.781974 -2.0347304 0
-7.1989551 12.138896 -2.0420175 0
-6.4022827 10.795546 -2.0404975 0
-5.7256694 9.6546383 -1.9911489 0
-5.2038231 8.7747002 -2.0211058 0
-4.7766857 8.0544596 -2.0212228 0
-2.2769687 3.8394303 -1.0427096 0
-4.0725012 6.8670621 -2.0059962 2
-2.9312844 4.9427395 -1.9857743 0
-2.1604683 3.642987 -1.981413 5
-2.5374696 4.3112073 1.3131346 0
-24.738161 42.03059 4.1665173 1
-3.110544 5.2848716 0.30700171 0
-4.2058415 7.145802 0.26839846 0
-25.011948 36.202778 0.90405405 6
-89.630043 140.36642 2.9360797 7
-82.80275 140.6834 2.3905818 12
-6.6463852 13.442039 0.13112484 0
-24.983021 36.160908 0.1250383 14
-30.198492 47.292786 -0.0048966957 24
-30.121668 51.177265 -0.18034138 18
-3.4879901 6.4535952 -0.04391655 0
-25.160137 50.88533 -0.5062862 0
-4.4041076 9.7858744 -0.12774153 0
-2.489399 3.6032043 -0.064899787 0
-25.290575 39.60667 -0.83584654 1
-25.354416 43.077618 -1.0356959 1
-4.1639533 7.7042842 -0.20760635 0
-3.1263053 6.322823 -0.18778224 0
-24.183338 53.735092 -1.7447705 4
-8.3604269 12.101045 -0.47815689 0
-24.747248 38.755787 -1.6330829 7
-7.0474257 11.973705 -0.53422904 0
-2.7572672 5.1015873 -0.2402124 0
-18.062386 36.530422 -1.8070614 4
-24.944887 36.105713 -2.2031398 1
-19.171724 35.47216 -2.3842432 1
-2.6849115 5.9658418 -0.42558584 0
-15.767966 22.822861 -1.8843191 0
-14.728555 23.065866 -1.9415433 0
-12.60464 23.321524 -2.0374923 0
-12.97612 18.781887 -1.9546819 0
-9.4121304 19.035643 -2.0690572 0
-8.576849 19.057655 -2.1003377 0
-10.067489 15.766336 -1.9898983 0
-9.3546114 15.893657 -2.0148702 0
-8.1397123 13.82952 -2.0377538 0
-7.1666965 12.176349 -2.0443087 0
-6.3524323 10.792899 -2.0360045 0
-5.6956215 9.6769657 -1.9918476 0
-5.1746984 8.7919073 -2.0211058 0
-4.7440019 8.0601463 -2.0186911 0
-4.3842192 7.4488688 -2.0189986 0
-4.0398693 6.863812 -2.0011225 1
-2.9148786 4.9524322 -1.9857743 0
-2.1410253 3.6376414 -1.9746331 7
-24.344866 41.711372 4.1259995 2
-6.247263 10.703773 0.40117419 0
-24.876446 46.433266 1.5505396 10
-24.888126 36.307411 0.90438271 2
-8.269063 13.055125 0.27244157 0
-82.330887 141.06195 2.3918703 7
-5.1130986 9.5438814 0.12699451 0
-30.470348 44.450893 0.15331642 11
-3.4053118 5.3762765 -0.00055536377 0
-30.083082 51.542969 -0.18124029 10
-24.850883 46.385551 -0.3150306 12
-5.0978127 10.405931 -0.10334773 0
-25.139585 56.411457 -0.73516852 1
-30.281698 44.175682 -0.79367399 15
-25.305746 39.952492 -0.84118176 1
-25.333426 43.405125 -1.0413306 1
-19.464176 36.330963 -0.97707701 0
-18.08741 36.920998 -1.0945448 0
-24.144083 54.17762 -1.756254 4
-24.832766 36.226646 -1.4278423 2
-24.714132 39.018456 -1.6403234 3
-24.09716 41.286964 -1.8381414 2
-19.035858 35.531487 -1.6697327 3
-18.120007 36.987537 -1.8263761 0
-2.3980882 3.7860806 -0.23856017 0
-19.003878 35.47179 -2.3795211 2
-13.892981 28.359102 -1.9585835 0
-2.209718 3.4886835 -0.29297236 0
-4.1282229 7.0731077 -0.60486257 0
-12.528501 23.385139 -2.0390248 0
-4.4591484 9.1022539 -0.80820984 0
-12.988309 18.947664 -1.9669669 0
-8.4712954 19.008989 -2.091538 0
-4.2787681 6.2419715 -0.78204566 0
-10.062845 15.887133 -2.0004761 0
-9.3283615 15.982785 -2.021821 0
-8.1069679 13.890106 -2.0422888 0
-7.1140342 12.188859 -2.0420175 0
-6.3327298 10.850208 -2.0424232 0
-4.7865777 8.2011023 -1.6844422 0
-5.1543045 8.8311481 -2.0257697 0
-4.7085133 8.0673504 -2.0161593 0
-2.0066416 3.4380875 -0.9298858 0
-4.0185938 6.8852739 -2.003072 1
-2.9005175 4.9696136 -1.9883871 0
-2.1349828 3.6579812 -1.981413 6
-25.86227 44.668633 7.148448 1
-6.3962536 11.047441 1.090574 0
-4.8241553 8.3321543 0.48200268 0
-24.704823 46.502171 1.5499512 4
-24.756281 50.983521 1.4979769 1
-3.0798271 6.976306 0.1794477 0
-30.005043 44.101391 1.0959078 0
-82.529404 142.54262 2.4120774 2
-24.713821 46.519108 0.61784911 2
-69.962524 144.08205 1.4005769 5
-63.436371 143.69363 0.91565353 4
-3.3056381 5.259439 -0.00054209924 0
-30.041285 51.886517 -0.18207847 11
-30.016527 56.500454 -0.38301265 10
-25.19199 51.880825 -0.51438421 1
-25.196138 57.073326 -0.74264348 6
-30.309555 44.548962 -0.79847485 18
-25.364048 40.355495 -0.84779739 5
-25.338064 43.763237 -1.0477939 1
-7.2962542 13.733823 -0.36866716 0
-7.3618736 15.161172 -0.44869736 0
-24.129225 54.656593 -1.7690396 5
-5.9887609 8.8022757 -0.34610814 0
-24.630951 39.189098 -1.6438726 3
-5.1590872 8.9106398 -0.39590737 0
-18.877954 35.534191 -1.6667528 4
-16.167181 36.621277 -1.894825 0
-18.861198 35.502651 -2.3771601 2
-5.834475 8.5755072 -0.70455259 0
-9.1564445 15.814769 -1.3496715 0
-5.2389731 10.789233 -0.95637107 0
-3.5690448 5.2457795 -0.54327053 0
-5.5685167 9.617795 -1.0174727 0
-8.4804392 19.209566 -2.1103375 0
-3.6123686 5.3094568 -0.66362864 0
-10.020024 15.94237 -2.0030148 0
-9.3043947 16.070305 -2.0287719 0
-8.042531 13.890847 -2.0382576 0
-3.8878081 6.7149196 -1.1226801 0
-6.3027329 10.885914 -2.0449908 0
-5.6380696 9.7379255 -1.9960395 0
-5.1254144 8.8524809 -2.0265472 0
-4.6959991 8.1108065 -2.0229108 0
-4.3464174 7.5070181 -2.0262775 0
-3.9828742 6.8791156 -1.9972236 0
-2.8736823 4.9633484 -1.981855 0
-2.1131248 3.6497338 -1.9729382 9
-25.714067 44.772381 7.1506429 1
-24.39646 42.47821 4.1849036 1
-24.474108 50.853447 1.4916358 13
-3.0778892 7.0383077 0.18076509 0
-30.943066 45.823231 1.136004 6
-81.164803 141.32114 2.3865988 4
-7.2106619 13.687812 0.18146093 0
-24.547634 51.006222 0.49497965 11
-24.510916 56.049896 0.35661733 10
-7.3870425 10.939386 0.037552454 0
-4.9488826 7.9352674 -0.00081611593 0
-30.035276 52.296307 -0.18314745 9
-29.996241 56.941082 -0.38528749 11
-24.559736 51.031368 -0.50510895 15
-24.504787 56.035881 -0.72802681 26
-30.288149 44.853374 -0.80203098 19
-25.322504 40.603275 -0.8511408 1
-30.192287 52.569691 -1.2561096 17
-7.268774 13.798124 -0.36970994 0
-18.014753 37.431896 -1.1059352 0
-24.130539 55.180073 -1.7832459 4
-9.2379141 13.680321 -0.53664303 0
-24.436899 39.183258 -1.6400394 4
-24.083048 41.932507 -1.8593508 2
-18.729593 35.553902 -1.6646007 2
-4.7239761 9.8156986 -0.48304075 0
-4.5585742 6.7507405 -0.40893966 0
-15.655855 23.184576 -1.9003131 0
-4.3570971 8.2709637 -0.71850187 0
-5.9275188 12.316475 -1.0899069 0
-3.7774103 8.6379242 -0.78040385 0
-2.1177287 4.0200291 -0.42974824 0
-10.690142 15.830908 -1.9740279 0
-10.004309 16.041372 -2.0110538 0
-9.2502184 16.106136 -2.0292063 0
-8.003871 13.936043 -2.0407772 0
-7.0603123 12.293154 -2.0511823 0
-6.2686248 10.914698 -2.0462744 0
-5.6295404 9.8019466 -2.0051219 0
-5.1022964 8.8839293 -2.0296564 0
-4.6618142 8.1169777 -2.0203791 0
-4.322125 7.5255232 -2.0271876 0
-3.9781561 6.9266176 -2.0069709 0
-2.8130317 4.8979464 -1.9518071 0
-2.1057844 3.6665137 -1.9780231 7
-24.277636 42.615047 4.1900105 1
-5.0345221 8.837203 0.32922167 0
-74.900024 157.0311 4.5983472 11
-24.367596 56.25631 1.4426391 8
-5.7932296 8.6440287 0.21379158 0
-73.195305 128.48126 2.1654341 2
-75.150513 143.87201 1.9038385 4
-2.8315153 6.5369849 0.041528407 0
-30.412956 45.378914 0.15541026 33
-30.305702 48.973492 -0.0050258501 8
-30.175297 52.967339 -0.18512748 8
-30.012102 57.456715 -0.38806519 12
-25.168409 52.766644 -0.52141196 0
-25.151596 58.066292 -0.75326085 2
-30.253874 45.141552 -0.80529076 15
-5.9073939 9.5462465 -0.19967841 0
-25.330839 44.46376 -1.0603061 1
-18.862329 36.111015 -0.96579611 0
-18.040638 37.822971 -1.1156224 1
-24.104626 55.649204 -1.7956765 2
-28.035503 41.831539 -1.6370927 0
-24.596563 39.74762 -1.6600572 3
-24.080971 42.26984 -1.8705702 2
-18.575758 35.562389 -1.6619519 10
-4.6795516 6.9823198 -0.421976 0
-5.7738628 9.3304625 -0.58406842 0
-15.581501 23.249027 -1.9011264 0
-10.029592 23.154842 -2.0887766 0
-4.8761849 8.5592709 -0.90186739 0
-4.0524921 7.7582998 -0.82785857 0
-9.1746597 19.235067 -2.0764272 0
-8.3081598 19.180653 -2.1007378 0
-4.6008172 6.8648405 -0.85400039 0
-9.910574 16.015316 -2.003438 0
-9.2313423 16.20397 -2.0374603 0
-3.6868815 6.4716616 -0.94581199 0
-7.0075626 12.300523 -2.0483181 0
-6.2109461 10.902205 -2.0398557 0
-5.5738478 9.7838936 -1.9974368 0
-5.069314 8.8982744 -2.0288792 0
-4.6315184 8.1298027 -2.0195351 0
-4.2707653 7.4965653 -2.0153592 0
-3.9577959 6.9472027 -2.0089204 0
-2.8539329 5.0095692 -1.9923065 0
-2.0911801 3.6706929 -1.9763281 8
-4.2922812 7.5958624 1.2083275 0
-24.322834 43.043056 4.2237186 1
-1.4917454 2.6398764 0.15180084 0
-4.9800391 8.8129578 0.32766873 0
-7.1638222 13.832226 0.45851251 0
-74.440239 157.47958 4.6038427 6
-2.2829387 5.3213615 0.13625604 0
-93.340157 140.3287 3.4626513 9
-72.598763 128.47485 2.1610413 5
-34.968494 73.976448 0.71550298 20
-3.6066554 8.406848 0.053327043 0
-30.533508 45.904442 0.15684408 9
-30.235041 49.242592 -0.0050426051 20
-30.064985 53.204689 -0.18558908 10
-29.97509 57.877235 -0.39019638 12
-25.115673 53.132629 -0.5241589 1
-25.19319 58.723469 -0.76064062 1
-30.253397 45.483318 -0.80949891 18
-25.310465 41.222137 -0.86038846 1
-25.291546 44.757339 -1.0651948 7
-2.6353488 5.0884485 -0.13584469 0
-18.021275 38.124313 -1.1226482 0
-24.04423 56.045326 -1.8057393 2
-7.2623835 10.918354 -0.42629915 0
-3.7294135 6.073946 -0.25313282 0
-24.08271 42.618118 -1.8822507 2
-18.449678 35.623459 -1.6617863 27
-3.1149414 6.5897112 -0.32320848 0
-30.214237 45.424446 -2.7388327 0
-18.449829 35.623749 -2.3722017 0
-24.800055 40.39085 -3.36253 0
-9.9958601 23.299612 -2.098676 0
-4.5270381 6.8060036 -0.69990444 0
-24.761095 40.3274 -4.1951094 1
-5.4699183 11.571705 -1.2470976 0
-9.8587751 16.056591 -2.0042841 0
-9.1297255 16.156475 -2.0274684 0
-3.4631913 6.1286578 -0.89391077 0
-6.9762654 12.345592 -2.051755 0
-6.1806188 10.937571 -2.0424232 0
-3.9759984 7.0361505 -1.4336272 0
-5.0517325 8.9398308 -2.0343206 0
-4.6011858 8.1425171 -2.0186911 0
-4.2733135 7.5622959 -2.0290072 0
-3.9277937 6.9508448 -2.0059962 0
-1.5883994 2.810921 -1.1156917 0
-2.0801358 3.6811256 -1.9780231 10
-25.007515 44.599339 7.0815015 4
-24.207262 43.172138 4.2284856 1
-5.249948 9.3629541 0.34746861 0
-2.9962451 5.8325686 0.19300835 0
-34.72578 74.097916 2.1628401 5
-92.682526 140.34715 3.4555027 8
-24.647127 40.441921 0.83495164 1
-72.008034 128.42183 2.1561215 17
-34.672085 73.983337 0.7144537 0
-30.407553 46.045506 0.15698063 9
-24.63847 40.427715 -0.0041315435 12
-3.5663404 6.3603454 -0.022144841 0
-1.1130919 2.1667738 -0.014582976 0
-25.122665 53.606773 -0.52801168 1
-25.181377 59.237366 -0.76621115 1
-25.321888 38.344391 -0.68094397 8
-24.634573 40.421322 -0.84196424 28
-7.674921 13.687742 -0.32515168 0
-18.648983 36.302593 -0.96750242 0
-18.013536 38.437305 -1.1300999 0
-24.031851 56.533192 -1.8188801 2
-25.320107 38.341694 -1.4937366 6
-24.456516 40.129158 -1.6690013 5
-24.068327 42.924358 -1.8922405 1
-18.364309 35.74844 -1.6647662 6
-6.3424668 9.6042614 -0.57781029 0
-24.649368 40.445599 -2.5212536 0
-9.8806963 19.23402 -2.0451646 0
-6.2306294 10.223448 -1.2735687 0
-9.0352631 16.113827 -2.0183456 0
-7.8560638 14.010798 -2.0397694 0
-6.9410987 12.379015 -2.0534735 0
-4.4508643 7.9378381 -1.4795052 0
-5.5186791 9.8422194 -2.0016286 0
-5.016304 8.9462643 -2.0319886 0
-4.58181 8.1713724 -2.0220668 0
-4.236784 7.5560393 -2.0235481 0
-3.912313 6.9773655 -2.0098951 0
-2.8068244 5.005796 -1.9831614 0
-2.0732343 3.6974838 -1.9831079 7
-3.5690327 6.4175534 1.9275556 0
-24.824728 44.637875 7.0738192 3
-24.131969 43.392212 4.2417645 0
-66.079102 142.29027 4.1465445 7
-3.5665903 5.4420242 0.13368136 0
-5.2335052 8.6551771 0.17831385 0
-71.411606 128.40674 2.15167 14
-3.8754845 7.6093488 0.10016005 0
-66.160309 142.46512 1.3735405 4
-8.6190348 13.151214 0.044732939 0
-24.495119 40.510059 -0.0041311942 24
-30.046268 54.026836 -0.18773918 25
-30.10869 59.117134 -0.39716458 26
-4.0601482 8.7428484 -0.08597447 0
-2.9066772 6.9045877 -0.08917626 0
-3.3674476 5.1381655 -0.091037512 0
-8.4679489 14.004305 -0.29108801 0
-25.332308 45.55056 -1.0799444 1
-18.456823 36.239189 -0.96408975 0
-18.044294 38.855362 -1.1405323 0
-24.000368 57.011024 -1.8315474 2
-25.293507 38.593685 -1.5001051 1
-24.380402 40.320339 -1.6734024 3
-5.4764333 9.847291 -0.43325424 0
-18.255743 35.844376 -1.6662562 2
-30.252525 46.160324 -2.7707217 0
-5.6444106 9.334733 -0.58066648 0
-4.879849 11.591704 -1.0410885 0
-24.780834 40.982574 -4.2456188 1
-2.0114965 3.9494879 -0.41920227 0
-10.547195 16.093267 -1.9884188 0
-9.7533693 16.130135 -2.0051303 0
-9.0369415 16.249517 -2.0313785 0
-7.8186841 14.058942 -2.0427928 0
-6.9036198 12.413547 -2.0551918 0
-6.1156259 10.996637 -2.0456326 0
-5.480463 9.854537 -2.0002313 0
-4.975512 8.9465742 -2.0281019 0
-4.5589619 8.197566 -2.0245986 0
-4.2009182 7.5537605 -2.0189986 1
-3.8879349 6.9909787 -2.0098951 0
-2.7985225 5.032083 -1.9896936 0
-2.0532718 3.6920316 -1.9763281 8
-23.997772 43.525745 4.2461905 0
-34.732685 75.514267 2.1968708 53
-2.5857275 4.6898398 0.078426778 0
-34.743488 75.53775 0.72704506 24
-5.912982 9.0947666 0.03086129 0
-24.634491 41.079826 -0.0041800635 6
-7.0858908 12.851971 -0.044569075 0
-29.980104 59.402065 -0.39833793 13
-25.147915 54.67548 -0.53675181 5
-25.136814 60.32798 -0.77797121 2
-25.280121 38.883396 -0.68728578 1
-24.638823 41.087048 -0.85213667 25
-25.348608 45.975807 -1.0878164 1
-4.4377265 8.7928362 -0.23348604 0
-6.658443 14.476492 -0.42421329 0
-6.6125216 15.869953 -0.50905913 0
-25.147512 38.679432 -1.4998451 13
-24.341427 40.591118 -1.6809268 3
-19.688528 35.709888 -1.5679531 1
-18.160248 35.982403 -1.6695672 1
-5.1063328 11.101962 -0.54187036 0
-5.7929897 9.6602364 -0.59958971 0
-3.0581677 7.3395567 -0.51724648 0
-3.3347335 5.129159 -0.41557491 0
-9.7973127 23.513405 -2.1085753 0
-9.803812 19.425106 -2.0579705 0
-6.968781 15.151216 -1.6249119 0
-8.1665964 19.59971 -2.1339366 0
-10.470785 16.105133 -1.9851295 0
-1.7612777 2.9370601 -0.36429989 0
-7.7862577 14.122255 -2.0478315 0
-6.8676295 12.456101 -2.0580559 0
-6.0867147 11.039724 -2.0494838 0
-5.4481082 9.8814573 -2.0016286 0
-4.9388962 8.9578781 -2.0265472 0
-4.5326586 8.2210693 -2.0262866 0
-4.173202 7.569108 -2.0189986 1
-3.8660302 7.0119772 -2.0118446 0
-2.2251422 4.0358315 -1.5925387 0
-2.0449731 3.7090516 -1.981413 9
-24.744387 45.252762 4.406219 0
-2.566292 4.31355 0.088487104 0
-3.7667055 6.888586 0.11497518 0
-64.817368 142.22881 1.3667551 5
-59.290367 143.70679 0.90623331 10
-30.689808 47.566536 0.16104314 13
-24.492979 41.169006 -0.0041804127 7
-29.987354 59.935616 -0.40121144 10
-25.079639 55.032276 -0.5393917 1
-25.141178 60.936676 -0.78468442 1
-25.309042 39.226814 -0.69179022 1
-24.51569 41.20718 -0.85284805 0
-6.0245471 11.017747 -0.26018763 0
-18.239971 36.456161 -0.96636486 0
-24.075184 52.828197 -1.5455841 3
-23.934896 58.012917 -1.8581842 1
-25.231266 39.10627 -1.5129721 5
-6.1173429 10.282331 -0.42491671 0
-19.46213 35.592522 -1.5598074 1
-18.148993 36.274323 -1.6801623 1
-4.1975451 9.2106771 -0.4488416 0
-4.3743167 7.9997907 -0.51198983 0
-5.1098671 10.213073 -0.67527586 0
