# .PCD v0.7 - Point Cloud Data file format
VERSION 0.7
FIELDS x y z intensity
SIZE 4 4 4 4
TYPE F F F F
COUNT 1 1 1 1
WIDTH 1414
HEIGHT 1
VIEWPOINT 0 0 0 1 0 0 0
POINTS 1414
DATA ascii
10.533751 -7.2207122 -1.20789 0
9.7563715 -7.2219687 -1.1827062 0
9.0058994 -7.1867428 -1.1579657 0
8.2419109 -4.4155712 -0.96624988 0
12.399105 -7.2338452 -1.5270132 0
9.914072 -6.2771082 -1.2819927 0
10.772004 -6.8203087 -1.6190165 1
8.7564878 -5.5441823 -1.4995798 1
8.816412 -5.5821228 -1.6964564 1
8.9279652 -5.6527534 -1.8744746 0
7.3595715 -4.6597228 -1.7257134 0
8.53619 -5.4047003 -2.1807265 0
7.7238874 -4.8903899 -2.1354618 0
7.2272792 -4.5759616 -2.1492817 0
5.1618586 -3.2682378 -2.1111915 0
0.75304151 -0.47678924 -0.41696116 0
9.2074108 -5.8748088 2.8669596 0
9.1866417 -5.8615565 2.0902154 0
9.7737341 -6.2361522 0.99047142 0
19.850088 -12.665392 1.1788065 0
20.376829 -13.00148 0.78241909 0
15.640735 -12.570983 0.47219118 0
21.311647 -11.513556 0.49766931 2
30.371569 -17.861673 0.62117243 1
51.260002 -32.706554 0.89045727 1
6.5592213 -4.5299735 0.093498357 0
34.38718 -25.640749 0.37508208 1
31.782202 -25.54442 0.23769824 0
53.640316 -28.979023 0.17344682 1
30.1901 -17.754951 -0.0030564205 1
50.766197 -32.391483 -0.18288019 1
25.063225 -17.309334 -0.18234706 1
34.646858 -25.834377 -0.38545814 0
36.472427 -29.314114 -0.55700642 0
82.742752 -44.70153 -1.3936563 0
30.130169 -17.719706 -0.62172759 1
70.26886 -44.835201 -1.7270989 1
25.112574 -17.343416 -0.72349387 0
32.584415 -24.296518 -1.0820898 1
35.075344 -28.191229 -1.3324326 0
44.678009 -24.137163 -1.6508695 0
30.074598 -17.687023 -1.2391157 1
24.213762 -15.449644 -1.1044217 0
19.278889 -14.375274 -1.0663754 1
17.773323 -14.285015 -1.0793259 2
26.825195 -14.492233 -1.5306658 1
24.493919 -14.404998 -1.5125819 1
1.6194119 -1.0332693 -0.10786996 0
20.765099 -14.340933 -1.492218 2
19.244822 -14.349872 -1.48887 1
17.752581 -14.268345 -1.4816307 2
26.670824 -14.408834 -2.0591695 0
24.277939 -14.27798 -1.9981564 1
9.9172077 -6.3276958 -0.86884546 0
20.24795 -13.983776 -1.8912783 1
18.690168 -13.936295 -1.8590097 1
7.522439 -6.0460362 -0.79888278 0
13.503253 -7.2950926 -1.314155 0
12.336595 -7.2552142 -1.2687407 0
9.886013 -6.3077922 -1.0736343 0
10.46916 -7.2302823 -1.2033703 0
9.6768465 -7.2155252 -1.1761119 0
8.943532 -7.1882167 -1.1531658 0
8.1704378 -4.4140549 -0.95967114 0
12.342921 -7.258935 -1.5232052 0
9.8719883 -6.2988439 -1.279386 1
9.8683434 -6.2965178 -1.4864919 2
8.8572254 -5.651372 -1.5202004 1
8.72365 -5.5661435 -1.6823354 1
9.1505556 -5.838532 -1.925476 0
8.4976749 -5.4219599 -1.9970078 0
7.2416592 -4.6205564 -1.854124 0
4.4329524 -2.8284547 -1.2283227 0
7.2014513 -4.5949016 -2.1463575 0
5.1663551 -3.2964039 -2.1177237 0
0.76359004 -0.4872103 -0.42374101 0
8.5978231 -5.5281844 2.683141 0
9.8005505 -6.3015079 2.2348878 0
9.8189526 -6.3133402 0.99728113 0
9.8524733 -6.3348932 0.58640325 0
9.9033642 -6.3676152 0.38111547 0
15.519057 -12.562598 0.46983868 1
21.313473 -11.610829 0.49865529 0
21.013348 -12.456982 0.43066075 0
9.8805761 -6.3529625 0.17202349 0
24.988247 -17.386696 0.35705769 1
32.551254 -24.449053 0.35598522 0
15.526198 -12.568379 0.11644743 0
53.696899 -29.252182 0.1739589 1
30.138262 -17.866348 -0.0030574678 0
9.7739248 -6.284389 -0.035288408 0
25.015783 -17.405855 -0.18244284 2
34.246243 -25.722151 -0.38199776 0
15.612409 -12.638165 -0.23910473 0
82.491379 -44.9384 -1.392056 1
30.040611 -17.808458 -0.62115848 1
9.8862419 -6.356606 -0.24353231 0
25.071573 -17.444674 -0.72406268 5
32.477028 -24.393301 -1.0813447 2
15.628428 -12.651134 -0.59536242 0
44.611042 -24.302526 -1.6515193 0
29.992043 -17.779667 -1.2382638 1
9.8508043 -6.3338199 -0.45031393 0
20.844854 -14.503744 -1.0519018 0
19.161493 -14.392084 -1.0626543 1
17.645714 -14.284116 -1.0745978 2
26.581495 -14.480663 -1.519635 1
24.350716 -14.435416 -1.5068413 1
1.5889212 -1.0216365 -0.10607586 0
20.649357 -14.367719 -1.4874958 2
19.232922 -14.445732 -1.4918414 1
17.693361 -14.322686 -1.4808518 1
26.45215 -14.4102 -2.0461574 1
24.138714 -14.309739 -1.9907967 1
9.8514385 -6.334228 -0.86501539 1
20.018957 -13.92909 -1.8744193 1
18.794441 -14.116393 -1.874271 3
17.255135 -13.967944 -1.8376614 5
13.42171 -7.3116755 -1.308695 0
12.194663 -7.2291527 -1.2567314 0
9.8371305 -6.3250279 -1.0707169 1
10.358868 -7.2076478 -1.1935778 0
9.6134014 -7.2205682 -1.1714572 0
8.8688927 -7.1793242 -1.1467661 0
8.1305227 -4.4292226 -0.95679295 1
12.214862 -7.241127 -1.5105118 0
9.8298731 -6.3203621 -1.2767795 2
9.8329535 -6.3223424 -1.4844763 3
8.7941561 -5.6544223 -1.5127541 1
8.7274132 -5.6115079 -1.6868285 1
9.2626314 -5.9556398 -1.953422 1
8.4687958 -5.4452233 -1.9946759 0
8.4061642 -5.4049525 -2.1570964 0
7.6731768 -4.93366 -2.1309125 0
3.8602591 -2.4820497 -1.1531067 0
5.1357369 -3.30215 -2.1098852 0
0.77712238 -0.49967021 -0.43221584 0
2.1167796 -1.3720281 0.66215289 1
9.7839804 -6.3416595 2.2363949 2
9.7816992 -6.3401814 1.6143957 0
9.7857132 -6.3427835 0.99625963 1
9.8392448 -6.377481 0.58700323 1
9.8464108 -6.3821254 0.37982136 1
43.31284 -30.373064 1.5571301 0
30.139757 -22.811058 0.99903876 0
15.497701 -12.639614 0.47059149 1
21.600229 -11.869914 0.50637871 0
20.970982 -12.535968 0.43073127 0
9.8639364 -6.3934851 0.17214063 0
42.739159 -29.97077 0.61226642 1
34.129463 -25.830641 0.37427765 0
15.523426 -12.660595 0.11677387 1
53.515709 -29.408342 0.17371993 2
50.885452 -30.418146 -0.0051735048 2
9.8582354 -6.3897896 -0.035677128 0
24.98457 -17.520391 -0.18268231 0
34.697121 -26.260265 -0.38809803 0
15.51329 -12.652328 -0.23829535 1
81.800346 -44.951523 -1.3831656 0
5.9465871 -3.8543856 -0.146832 0
25.053305 -17.568592 -0.72538984 2
32.435226 -24.548368 -1.0829414 2
15.53548 -12.670425 -0.59358662 1
44.563717 -24.488977 -1.6530789 0
47.09626 -28.153053 -1.9486825 0
9.8375845 -6.3764043 -0.450775 2
20.722839 -14.531859 -1.0484253 0
19.197834 -14.529742 -1.0676157 1
15.58064 -12.707257 -0.95166779 1
26.388199 -14.501034 -1.5116127 1
24.136505 -14.428244 -1.4968481 1
9.8260183 -6.3689075 -0.65753579 2
20.665213 -14.491449 -1.4924542 2
18.890158 -14.29688 -1.469309 1
15.58993 -12.714834 -1.3086959 1
26.220783 -14.409036 -2.0323319 1
9.8114185 -6.3594441 -0.86354226 2
20.111446 -14.103122 -1.8879066 1
18.717138 -14.165932 -1.8717275 2
17.432425 -14.217537 -1.86208 2
13.27956 -7.2974806 -1.2974337 0
12.164665 -7.2717552 -1.2563782 1
9.8105383 -6.3588743 -1.0703521 2
10.303037 -7.2249889 -1.1901879 2
5.3711877 -4.0651445 -0.65632635 0
8.8209305 -7.1941738 -1.1439661 0
13.04833 -7.170413 -1.5385988 1
12.147271 -7.2613573 -1.5054344 1
9.8166513 -6.3628359 -1.2780828 2
9.7997246 -6.3518648 -1.4829646 2
8.7002888 -5.639246 -1.5001526 1
8.5808897 -5.5618553 -1.6624374 1
8.9862566 -5.8246012 -1.8996259 0
8.4224405 -5.4591537 -1.9884571 0
8.3502054 -5.4123335 -2.1478131 0
7.155364 -4.637876 -2.1424584 0
5.1299438 -3.3250639 -2.112498 0
0.76312441 -0.49463257 -0.42543599 0
2.0893028 -1.3645991 0.6550439 2
9.8604546 -6.4402194 2.2589998 2
9.8059502 -6.4046206 1.6220782 1
9.7368183 -6.359468 0.99353576 2
9.8202686 -6.4139729 0.58720326 3
9.8274202 -6.418643 0.37995076 2
15.410225 -12.658099 0.4692741 0
21.569157 -11.951056 0.50662524 0
20.961353 -12.629728 0.43143633 0
9.8315134 -6.4213166 0.17196491 2
42.604881 -30.099005 0.61184424 1
34.697544 -26.451588 0.38151765 0
15.466773 -12.704549 0.1166806 1
53.552681 -29.672514 0.17417511 1
50.631641 -30.506804 -0.0051584952 1
9.8258238 -6.4176006 -0.035640683 1
42.208481 -29.818962 -0.3093794 2
34.732479 -26.478222 -0.389525 0
15.472122 -12.708942 -0.23834296 2
81.345573 -45.072018 -1.3781277 0
75.16127 -45.286503 -1.5607923 0
9.8204126 -6.4140663 -0.24303514 3
43.366631 -30.637157 -1.2587202 0
5.638 -4.2981157 -0.18874031 0
15.475708 -12.711887 -0.59299469 2
44.495445 -24.654072 -1.6537288 0
46.686119 -28.129528 -1.9357634 0
9.8052282 -6.4041486 -0.45031393 6
20.54142 -14.511867 -1.0418032 0
19.051661 -14.523987 -1.0622998 1
15.492964 -12.726062 -0.94902009 3
26.099798 -14.461397 -1.4979746 1
23.959408 -14.43613 -1.4889811 1
9.8171015 -6.4119039 -0.65843284 3
20.340557 -14.369962 -1.4726208 1
18.871885 -14.386936 -1.4717851 1
15.496101 -12.72864 -1.3045413 3
26.083057 -14.452122 -2.0255549 1
23.649515 -14.249413 -1.9588103 1
9.8158779 -6.4111052 -0.86589926 1
19.983919 -14.118009 -1.8805498 2
18.673918 -14.236016 -1.8723633 2
15.475924 -12.712066 -1.657822 3
13.142452 -7.2819805 -1.2865137 0
12.12897 -7.3080015 -1.2553185 0
9.8016224 -6.4017935 -1.0718108 1
10.313532 -7.2861848 -1.1943309 1
9.4316769 -7.1902165 -1.1555533 0
8.7342548 -7.174397 -1.1359663 0
13.01278 -7.2101321 -1.5373652 1
12.094596 -7.2872901 -1.5020496 0
9.8243437 -6.4166341 -1.2819927 0
10.372182 -6.774447 -1.573162 1
8.6606646 -5.6565928 -1.4967158 1
8.551506 -5.5852976 -1.6605119 1
8.7548313 -5.7180967 -1.8549124 2
8.3836212 -5.4756465 -1.983793 0
6.9661794 -4.5498633 -1.7958925 0
7.1358833 -4.6607032 -2.1414838 0
5.1151404 -3.3408833 -2.1111915 0
0.73409218 -0.47946215 -0.41018131 0
2.1006858 -1.3825186 0.6601218 1
9.7886915 -6.442205 2.2476974 1
9.7669859 -6.4279199 1.6193345 2
9.7511816 -6.4175186 0.99728113 1
9.7944822 -6.4460163 0.58700323 1
9.7882566 -6.4419188 0.37930372 1
31.135525 -25.757547 0.95087522 0
21.310848 -11.905348 0.50153106 0
21.050457 -12.783784 0.43418613 0
9.8157206 -6.4599934 0.17208205 2
42.515846 -30.259138 0.61207879 1
32.406494 -24.884357 0.35727933 0
34.928314 -28.895214 0.26425683 0
53.546555 -29.913891 0.17449373 1
50.620575 -30.741495 -0.0051682689 1
9.8133869 -6.4584575 -0.035677128 1
42.055256 -29.931328 -0.30902019 1
34.531975 -26.516476 -0.38831207 0
15.4554 -12.785819 -0.23877145 0
80.265945 -44.840733 -1.3624806 1
52.140591 -31.664589 -1.0850356 0
9.824688 -6.4658952 -0.24369803 1
35.472855 -25.24654 -1.0321543 0
37.882843 -29.089546 -1.2715753 0
15.443563 -12.776026 -0.59346825 0
44.468445 -24.842388 -1.6559383 1
46.502224 -28.240452 -1.932214 0
9.7761354 -6.4339414 -0.45000654 0
20.58181 -14.64837 -1.0464387 0
18.842371 -14.468714 -1.05344 1
15.48231 -12.808082 -0.95110041 2
25.87129 -14.453049 -1.4877461 1
23.738167 -14.41601 -1.4783502 1
9.8013315 -6.4505239 -0.65888137 0
20.202435 -14.378363 -1.4662459 1
18.615728 -14.29468 -1.4556905 2
15.460801 -12.790287 -1.3053203 3
25.774633 -14.399052 -2.0054946 2
9.7667818 -6.4277859 -0.86354226 0
19.885775 -14.152991 -1.8759519 1
18.456497 -14.172407 -1.8555124 2
15.409955 -12.748223 -1.6555121 4
13.043887 -7.286994 -1.2793475 0
11.93992 -7.2510238 -1.2383643 0
10.987061 -7.2308846 -1.2041917 0
10.161503 -7.2320871 -1.179642 0
9.3875751 -7.2085481 -1.1532259 0
8.7336903 -7.2251372 -1.1391662 0
12.984058 -7.2535706 -1.536954 0
11.950094 -7.2572021 -1.4872406 0
11.01425 -7.2487783 -1.4405583 0
10.484374 -6.9000525 -1.5938218 1
8.6507864 -5.6933188 -1.4984342 1
8.5319576 -5.6151137 -1.6605119 1
8.5670309 -5.6381965 -1.8192813 0
2.8089106 -1.8486207 -0.66618752 0
8.2305651 -5.4167595 -2.1267147 0
7.4184852 -4.8823075 -2.0745006 0
7.0968866 -4.6706548 -2.1346607 0
5.1002898 -3.3566399 -2.1098852 0
0.78083819 -0.51389092 -0.43730071 0
9.0067368 -5.9704752 2.8364925 0
9.6428509 -6.392149 2.2190642 2
9.8810186 -6.5500278 1.6418328 0
9.7730322 -6.4784446 1.0017074 0
39.393349 -30.457628 1.3160933 0
31.261959 -26.037239 0.95736808 0
24.804842 -13.965405 0.58484566 1
20.851019 -12.757505 0.43094277 0
9.7909117 -6.4902968 0.17202349 0
42.516052 -30.472191 0.61353308 0
29.548666 -22.846046 0.32660541 0
30.864374 -25.706102 0.23415399 0
53.555111 -30.15213 0.1748465 2
20.717779 -12.675984 -0.0021195279 1
9.8385925 -6.521904 -0.035847191 0
42.098816 -30.173149 -0.31007382 1
37.377197 -28.898808 -0.42138192 1
31.127022 -25.924854 -0.48220882 1
52.031883 -31.835232 -1.0849644 0
35.437695 -25.398977 -1.0335763 1
37.710251 -29.156313 -1.2690204 0
29.604052 -24.656414 -1.140766 1
44.643616 -25.134857 -1.665556 0
46.207134 -28.271414 -1.9238378 0
20.409681 -14.628069 -1.0401478 0
18.522411 -14.320912 -1.038201 1
17.180523 -14.309194 -1.0583333 2
25.56213 -14.391767 -1.4727042 2
23.570978 -14.421687 -1.4709084 1
21.686853 -14.375997 -1.461066 1
19.943686 -14.294079 -1.4508988 3
18.508215 -14.309937 -1.450986 1
17.077602 -14.223473 -1.4457973 2
25.472883 -14.341519 -1.9857053 1
23.228647 -14.212235 -1.9319192 1
21.532345 -14.273575 -1.9079835 1
19.816042 -14.202594 -1.8738062 1
18.522959 -14.321336 -1.8669584 2
15.404353 -12.829868 -1.6594719 2
12.922412 -7.2754631 -1.2697924 0
9.6556787 -5.9077392 -1.0034777 0
10.896621 -7.2232599 -1.196898 0
10.088913 -7.2309461 -1.1739924 0
9.3100767 -7.1982422 -1.1466316 0
8.6821604 -7.2311363 -1.1355664 0
12.946065 -7.2887802 -1.5353093 0
11.84114 -7.2448936 -1.4766628 0
10.900667 -7.2259426 -1.4288288 0
10.471359 -6.9413581 -1.5953335 1
8.6153622 -5.7110372 -1.4955702 1
8.2730637 -5.4841304 -1.6136556 1
8.51546 -5.6448126 -1.8122948 0
2.8583627 -1.8947798 -0.67940247 0
8.1832275 -5.4245791 -2.1191194 0
7.0651932 -4.683445 -2.129787 0
5.0859799 -3.3714447 -2.1085787 0
0.76705027 -0.50846988 -0.43052086 0
8.6705484 -5.791286 2.7369664 0
8.8462687 -5.9086537 2.0404842 0
9.330924 -6.232368 1.5540344 0
17.611628 -11.763266 1.8093383 1
19.371199 -12.93853 1.1662065 0
50.030777 -33.416862 1.9475065 0
32.19907 -23.248335 1.168995 0
32.103298 -25.000742 1.0754489 0
33.352291 -27.975979 1.0243669 0
21.312786 -12.09751 0.50350296 0
20.850615 -12.857502 0.43185937 0
46.027264 -30.742811 0.81056625 0
33.19986 -23.970922 0.48029912 0
29.610746 -23.059643 0.32817933 0
31.105431 -26.091309 0.23667228 0
53.80088 -30.538319 0.17599584 1
20.67 -12.746126 -0.0021191787 2
43.61713 -29.13302 -0.15928981 1
42.02243 -30.340984 -0.31028932 1
37.48122 -29.188847 -0.42370075 1
31.146656 -26.125887 -0.48392284 0
78.971031 -44.825336 -1.3456482 1
20.690561 -12.758805 -0.43236387 1
50.581654 -33.784809 -1.2603356 1
35.32613 -25.50613 -1.0329126 0
42.674835 -33.233425 -1.4399832 0
29.481043 -24.728767 -1.1393454 1
44.680771 -25.361588 -1.6702349 1
20.670588 -12.746488 -0.86246878 0
40.337757 -26.942642 -1.865191 0
19.914585 -14.378705 -1.0174675 1
18.629948 -14.508245 -1.0470608 1
17.115164 -14.356239 -1.0573876 2
25.414459 -14.425691 -1.4670886 1
23.367496 -14.409534 -1.4613404 1
21.467165 -14.338481 -1.4496287 1
19.916332 -14.379967 -1.4525515 2
18.341604 -14.283694 -1.4418244 1
17.027849 -14.282999 -1.4457973 2
25.547611 -14.50127 -1.9954643 1
23.199272 -14.305799 -1.9336176 2
21.389505 -14.286611 -1.899734 1
19.604673 -14.154943 -1.8584799 4
18.431957 -14.354056 -1.8628252 2
16.990406 -14.251593 -1.8356814 2
12.827617 -7.281179 -1.2629675 0
11.741064 -7.2401109 -1.2228229 0
10.808404 -7.2192159 -1.1899689 0
9.986125 -7.2101703 -1.164953 0
9.247201 -7.2013435 -1.1419768 0
8.608077 -7.2204747 -1.1291665 0
12.792515 -7.2612548 -1.5200961 0
11.764994 -7.2548666 -1.4703161 0
10.822472 -7.2286119 -1.421878 0
10.344772 -6.9095435 -1.5797126 1
8.631587 -5.7652621 -1.5018709 1
8.2079058 -5.4822745 -1.6046693 1
8.3024712 -5.5454373 -1.7710745 1
8.3985767 -5.6096292 -2.0008945 0
8.1057167 -5.4140201 -2.1039286 0
7.0649309 -4.718852 -2.1346607 0
5.0678926 -3.3849778 -2.1059659 0
0.75623208 -0.50510716 -0.42543599 0
8.4695396 -5.7020283 2.6800945 0
8.7919664 -5.9190989 2.0329492 1
9.321166 -6.2753768 1.5562292 0
16.107117 -10.843947 1.6588439 1
19.346846 -13.025061 1.1676065 0
49.841637 -33.555359 1.9449183 0
30.909903 -26.120897 0.95228672 0
21.264833 -12.173557 0.50342083 0
20.579182 -12.794467 0.42720586 2
43.608444 -29.358927 0.76985925 1
42.587994 -30.987431 0.61775529 0
29.544909 -23.182831 0.3283892 0
30.917936 -26.127686 0.23597275 0
53.153996 -30.429264 0.17424339 0
20.592571 -12.802792 -0.0021160371 1
43.4072 -29.22344 -0.15891322 1
34.724174 -25.265642 -0.25708181 0
38.824635 -30.4643 -0.44014648 1
38.587292 -32.608795 -0.60138029 0
78.483398 -44.929684 -1.3401362 1
20.626677 -12.823996 -0.43200818 3
46.091805 -31.030823 -1.1512889 0
59.677803 -43.422138 -1.7495811 0
44.138206 -34.633667 -1.4936353 0
29.323025 -24.779881 -1.1367409 1
44.684662 -25.580793 -1.673874 0
20.603361 -12.8095 -0.86161697 1
20.268938 -14.747872 -1.0383267 0
18.384876 -14.425953 -1.0362518 1
17.047171 -14.405979 -1.056442 2
25.243534 -14.45126 -1.4602696 1
20.604166 -12.81 -1.2914567 3
21.467476 -14.452752 -1.4532169 1
19.672995 -14.31426 -1.4386209 2
18.436749 -14.466656 -1.453462 1
16.83514 -14.226799 -1.4338529 2
20.588383 -12.800187 -1.7199035 3
21.198019 -14.271343 -1.8873599 1
19.594584 -14.257206 -1.8624647 3
17.999655 -14.123683 -1.8243541 1
16.740147 -14.146523 -1.8142327 4
12.683246 -7.2608247 -1.2513649 0
11.667077 -7.253643 -1.217878 0
10.715787 -7.2142906 -1.1826752 0
9.904891 -7.206893 -1.15855 0
9.1518393 -7.1811199 -1.133443 0
8.5663548 -7.2391324 -1.1271666 0
12.727832 -7.2863488 -1.5155731 0
11.684278 -7.2643371 -1.4635463 0
10.749727 -7.2371407 -1.415796 0
10.299628 -6.9341164 -1.5766892 1
8.5480032 -5.7548537 -1.4909878 1
8.207407 -5.5255504 -1.6085206 1
8.2265491 -5.5384378 -1.7591976 1
8.3584318 -5.6272259 -1.9962305 0
8.0631161 -5.4284077 -2.098021 0
7.6157489 -5.127223 -2.1445606 0
7.0443702 -4.7425485 -2.1336861 0
5.0523162 -3.4014187 -2.1046596 0
0.75137025 -0.5058521 -0.42374101 0
8.4271717 -5.7163548 2.6729853 0
9.3759394 -6.3599277 2.1731007 0
15.889964 -10.778549 2.6591985 2
15.966919 -10.83075 1.6482887 3
20.243511 -13.731666 1.2246068 1
25.227695 -17.112558 0.98675907 1
20.373123 -17.33889 0.62952548 0
21.201427 -12.235719 0.50292784 0
20.473392 -12.828002 0.42593673 0
43.479218 -29.493008 0.7693907 1
32.420994 -23.763351 0.47147942 0
34.12392 -26.968788 0.38032848 0
52.143234 -30.092781 0.17127334 1
50.854172 -31.86367 -0.005237035 2
43.268513 -29.350082 -0.15877961 1
34.580921 -25.346498 -0.25667474 1
38.991085 -30.815399 -0.44325012 0
20.346861 -17.31654 -0.31804454 0
20.646179 -12.936265 -0.43335977 0
46.009682 -31.209486 -1.1519518 0
43.628048 -34.480083 -1.4804351 0
20.439867 -17.395695 -0.79472417 0
41.970432 -24.221876 -1.5753573 0
20.53142 -12.864361 -0.8604812 2
39.958691 -27.10495 -1.8565843 0
20.062609 -14.705129 -1.0303804 0
18.293655 -14.457826 -1.0339482 1
16.868986 -14.356635 -1.0484989 2
25.064915 -14.465405 -1.4528489 1
20.56271 -12.883966 -1.2916694 4
21.248335 -14.413262 -1.4417795 1
19.51985 -14.307306 -1.4310654 1
18.082315 -14.2908 -1.4294441 1
16.736742 -14.244087 -1.4296983 2
25.194323 -14.540088 -1.9759461 2
20.550337 -12.876214 -1.7204696 3
21.019323 -14.257917 -1.8758695 1
19.48358 -14.280722 -1.8566407 3
18.05661 -14.270484 -1.8351641 1
16.626913 -14.150615 -1.8073032 4
12.599143 -7.2711878 -1.2455637 0
11.574159 -7.2520142 -1.2108136 0
10.634499 -7.2136383 -1.1764756 0
9.8122244 -7.1919866 -1.1506405 0
9.1048536 -7.1957402 -1.1307276 0
3.4521778 -2.9380343 -0.45558649 0
12.62306 -7.2849908 -1.5061163 0
11.571214 -7.2501688 -1.4525454 0
10.665166 -7.2344413 -1.4079764 0
10.301632 -6.9878473 -1.5807204 1
8.5180349 -5.7779899 -1.4892694 1
8.1913366 -5.5563827 -1.6091624 1
8.2006483 -5.5626988 -1.7578002 1
8.3971863 -5.6960158 -2.0102229 0
7.9567523 -5.3972583 -2.0752347 0
7.6235933 -5.1712685 -2.1518395 0
7.0149312 -4.7583981 -2.129787 0
5.0372834 -3.4169116 -2.103353 0
0.79157746 -0.53694624 -0.44747052 0
8.2410669 -5.6322193 2.6201756 0
8.9190807 -6.0955963 2.0721314 0
15.960194 -10.907727 2.6773069 1
15.938888 -10.893167 1.6493102 1
17.652472 -12.064286 1.070406 0
25.187613 -17.214052 0.98753554 0
31.747723 -25.271372 1.0724897 0
20.269968 -17.373466 0.6282081 2
21.113649 -12.283508 0.50185972 0
25.042904 -17.115154 0.44420364 0
32.157654 -23.743336 0.46885225 0
31.9704 -25.448624 0.35731429 0
20.293459 -17.3936 0.1558073 1
51.391331 -29.898468 0.16914536 1
50.783222 -32.06662 -0.0052412236 1
42.891701 -29.313614 -0.15777136 1
7.2144418 -5.3267226 -0.053686421 0
36.567493 -29.107939 -0.41685131 0
20.313623 -17.410883 -0.31847304 2
77.189468 -44.907322 -1.3233629 1
54.258274 -34.26091 -1.1413752 0
45.867443 -31.347336 -1.1511232 0
32.87788 -24.275108 -0.96882963 0
39.424793 -31.382364 -1.3415146 1
20.309196 -17.407091 -0.79200131 3
41.899448 -24.376278 -1.5758772 0
43.538227 -27.491833 -1.8287178 0
22.898605 -15.649669 -1.0664601 0
20.210497 -14.922252 -1.0406444 1
18.077372 -14.389694 -1.0245568 1
16.700455 -14.314023 -1.041123 2
24.751831 -14.40013 -1.4376065 1
22.912176 -14.467692 -1.4424173 1
21.082491 -14.408476 -1.4339304 1
19.350933 -14.2876 -1.4223293 3
18.019829 -14.343888 -1.4284536 1
16.677828 -14.29463 -1.4289193 2
24.901947 -14.487466 -1.9569701 2
20.437792 -12.905265 -1.7148082 0
21.02212 -14.367216 -1.8805835 1
19.305273 -14.253887 -1.8443795 3
17.916218 -14.261414 -1.8259438 4
16.483587 -14.128145 -1.7970737 3
12.463449 -7.2509904 -1.2346437 0
6.3909059 -4.0354815 -0.67004478 0
10.5665 -7.221498 -1.1717347 0
9.7518206 -7.2001748 -1.1464975 0
9.042304 -7.1977262 -1.1260729 0
8.4309959 -7.2262387 -1.1159669 0
12.501258 -7.2729869 -1.4946035 0
11.498751 -7.2607851 -1.4466218 0
10.57419 -7.2267537 -1.3992878 0
10.283729 -7.0282426 -1.5817282 1
8.5403032 -5.8367271 -1.4967158 1
8.1816702 -5.5916257 -1.611088 1
8.1226501 -5.5512896 -1.7452246 1
8.328661 -5.6920838 -1.9985626 0
7.9346352 -5.4227939 -2.0743909 0
7.0014815 -4.7850451 -2.1307619 0
5.0315681 -3.438741 -2.1059659 0
0.77474195 -0.52948445 -0.43899569 0
8.2372894 -5.6719227 2.6252534 0
8.878335 -6.1133256 2.0676103 1
15.977499 -11.001574 2.6866355 2
15.769463 -10.858326 1.6356908 2
17.646444 -12.150753 1.072606 2
20.194067 -17.431047 0.62773758 3
21.070646 -12.357128 0.50185972 0
51.145611 -32.545715 1.068755 0
25.012657 -17.222881 0.44473079 1
34.613201 -25.743542 0.50596076 0
31.419504 -25.189777 0.35213786 0
3.7334366 -3.2226152 0.028750435 0
30.232355 -17.73012 0.099707454 1
50.978073 -32.43911 -0.0052729887 1
42.630974 -29.354269 -0.1571883 1
34.367825 -25.561043 -0.25641134 1
36.415737 -29.195377 -0.41628054 1
20.243645 -17.473841 -0.3183302 3
30.163605 -17.6898 -0.51819074 1
71.208206 -45.312241 -1.5012516 0
25.184542 -17.341236 -0.63356519 0
32.635715 -24.272789 -0.96418452 0
36.001839 -28.863544 -1.2284621 0
20.287661 -17.511835 -0.7935403 2
30.085468 -17.643976 -1.1338518 1
43.610626 -27.750948 -1.8358163 0
39.442574 -27.15884 -1.8413689 0
20.00115 -14.87584 -1.0325326 1
18.064445 -14.482703 -1.0266831 1
16.535458 -14.27302 -1.0339364 2
24.4981 -14.367198 -1.4257734 1
22.598682 -14.380322 -1.4258329 1
20.805103 -14.325701 -1.4184563 1
19.320166 -14.369359 -1.423746 2
18.038176 -14.461642 -1.433901 2
16.528118 -14.266685 -1.4203506 2
24.871883 -14.586409 -1.9585966 2
22.762447 -14.48453 -1.9140861 1
20.787848 -14.31382 -1.8640846 1
19.204197 -14.283107 -1.839475 3
17.897434 -14.348807 -1.8291233 3
16.446243 -14.196013 -1.7983937 5
12.386497 -7.2642064 -1.229525 0
9.8895559 -6.2930655 -1.0391523 0
10.498577 -7.2289705 -1.1669939 0
9.7138462 -7.2246656 -1.1449909 0
8.9984856 -7.214304 -1.1237456 0
8.3454657 -7.2036104 -1.1079671 0
12.352239 -7.2441154 -1.4798014 0
9.8927736 -6.2951136 -1.2473358 0
10.496499 -7.2275391 -1.392337 0
10.157816 -6.9943337 -1.5661075 1
8.5100956 -5.8597679 -1.4949974 1
8.0417843 -5.5373044 -1.5873389 1
8.074028 -5.5595064 -1.7389368 0
8.1277647 -5.596508 -1.955031 1
6.7273431 -4.6322241 -1.762979 0
7.6225948 -5.2486649 -2.1618481 0
6.9815402 -4.8072557 -2.129787 0
5.0288754 -3.4627159 -2.1098852 0
0.78184134 -0.53834993 -0.44408059 0
7.5689464 -5.2507658 2.4180768 0
21.819578 -15.136782 5.0936756 0
15.806782 -10.965556 1.643522 1
17.715527 -12.2897 1.079406 1
33.926109 -23.535383 1.336557 0
30.645119 -22.958862 1.1270981 0
15.561268 -12.56533 0.52863556 0
20.151207 -17.517174 0.62830222 1
20.996399 -12.412288 0.50112021 0
51.206757 -32.836315 1.0724214 0
24.988533 -17.335165 0.44537508 1
34.452705 -25.811449 0.50492865 1
31.247356 -25.231451 0.35119352 0
20.141348 -17.508604 0.15557413 1
30.197824 -17.851828 0.099798493 1
50.925137 -32.655724 -0.0052792719 1
25.023964 -17.359743 -0.092490852 2
34.34882 -25.73362 -0.25693813 1
36.254475 -29.27457 -0.41560274 1
20.209692 -17.568014 -0.3187587 1
30.0397 -17.758348 -0.51712388 1
9.8507929 -6.3168173 -0.20814358 0
25.094284 -17.408527 -0.63281941 3
32.515587 -24.360189 -0.96314174 1
35.409325 -28.592136 -1.2116425 0
20.244514 -17.598286 -0.79425061 0
30.003046 -17.736681 -1.1330719 2
9.866334 -6.3267827 -0.41625655 0
25.179661 -17.467754 -1.178347 1
19.782778 -14.820961 -1.023924 1
18.001345 -14.53563 -1.0259743 1
16.476484 -14.322788 -1.0333689 1
24.379021 -14.411966 -1.4217622 1
9.8518724 -6.3175092 -0.62297797 0
20.656528 -14.329946 -1.4117284 1
19.090933 -14.302641 -1.4105238 2
17.695606 -14.288754 -1.4106258 2
16.38483 -14.243114 -1.4123009 2
24.666222 -14.58175 -1.9463978 2
9.8679552 -6.3278227 -0.83164519 0
20.721369 -14.374928 -1.8626114 1
19.163797 -14.35723 -1.8403946 2
17.704535 -14.295963 -1.8144978 3
16.312349 -14.180107 -1.7891542 5
12.278727 -7.2587247 -1.2213349 0
9.8541117 -6.3189454 -1.0377394 1
10.434005 -7.2383275 -1.1626176 0
9.6057053 -7.1964502 -1.1351982 0
8.9329815 -7.2131567 -1.1187028 0
8.3052502 -7.2196431 -1.1059672 2
12.285775 -7.2628918 -1.4748673 0
2.9967134 -1.9216413 -0.37868571 0
10.399328 -7.214272 -1.3827796 0
10.192027 -7.0704618 -1.5751776 2
8.4765778 -5.8804116 -1.4927062 1
7.9575262 -5.5203333 -1.5745016 1
8.0578089 -5.5899014 -1.7396353 1
8.1984491 -5.6874676 -1.9767969 0
6.6276045 -4.5977335 -1.7410367 0
7.601027 -5.2730207 -2.1609383 0
3.4648271 -2.4036365 -1.0595325 0
5.0105448 -3.475939 -2.1072724 0
0.77400351 -0.5369454 -0.44069067 0
7.6257486 -5.3316774 2.4424505 0
21.757513 -15.212151 5.0921688 0
16.242569 -11.356279 2.744802 1
15.799147 -11.046253 1.6469269 2
17.696558 -12.372862 1.0810059 1
46.290291 -32.364677 1.828319 0
30.688406 -23.167389 1.1318057 0
15.471684 -12.586953 0.527156 1
51.801529 -30.879906 1.239038 1
9.8679075 -6.3789487 0.20715149 0
43.185772 -30.194098 0.77167499 1
34.453636 -26.009848 0.50633603 1
15.513728 -12.621159 0.17487974 0
37.211136 -32.587357 0.28834379 1
51.032318 -30.421364 0.16902018 1
9.8459263 -6.3647399 -0.001023112 0
25.006063 -17.483433 -0.092660919 1
34.682045 -26.182281 -0.26014689 1
15.535424 -12.638809 -0.17862 0
37.182045 -32.561882 -0.58833474 2
51.078453 -30.448866 -0.88121462 0
9.8611631 -6.374589 -0.20885494 0
25.040142 -17.507259 -0.63306797 2
32.457996 -24.503296 -0.96408975 2
35.02203 -28.492094 -1.2019553 1
9.0446997 -7.9208245 -0.35598624 0
29.924095 -17.838339 -1.132552 0
9.8531513 -6.36941 -0.41668245 0
22.576731 -15.784923 -1.0592366 0
19.533752 -14.746483 -1.0138254 1
17.938648 -14.593947 -1.0254427 1
16.474979 -14.427833 -1.0365841 1
9.8521338 -6.3687525 -0.6244663 0
20.620232 -14.417001 -1.4128498 1
18.821674 -14.208919 -1.3944683 2
17.565695 -14.290531 -1.4044355 2
16.269457 -14.247849 -1.4068481 2
24.578331 -14.651625 -1.9436868 2
9.8279438 -6.3531151 -0.83022988 2
20.652195 -14.439348 -1.8611383 1
18.875502 -14.249555 -1.8177116 5
17.590157 -14.310432 -1.808139 3
16.233276 -14.216165 -1.7861844 4
12.166455 -7.2526622 -1.2128037 0
9.817503 -6.3463659 -1.0363265 2
10.309467 -7.2080474 -1.151677 0
9.5284119 -7.1932192 -1.129172 0
8.8663368 -7.2131882 -1.1136601 0
8.2757397 -7.2474132 -1.1055672 1
12.159961 -7.2487907 -1.4629434 1
9.8174114 -6.3463068 -1.2435278 2
10.301124 -7.2022133 -1.3732222 0
10.133523 -7.085032 -1.5701386 1
8.4939003 -5.9386611 -1.4995798 1
7.9340038 -5.5471992 -1.5738597 1
7.9727101 -5.5742617 -1.7256625 1
8.2322159 -5.7556996 -1.9900117 0
7.7418671 -5.4128637 -2.0389454 0
6.5920444 -4.6089444 -1.878879 0
3.4750705 -2.4296572 -1.0653809 0
4.9946723 -3.4921138 -2.1059659 0
0.77203029 -0.53977865 -0.44069067 0
7.6608629 -5.3961396 2.4597154 0
21.768513 -15.333251 5.1072388 1
15.697502 -11.056968 2.6591985 1
16.07329 -11.321665 1.6796135 1
17.529146 -12.347137 1.073406 1
15.412188 -12.628211 0.52662754 1
51.666 -31.04406 1.2383807 1
9.8321762 -6.4046245 0.20686945 1
42.828335 -30.167318 0.76716501 1
34.642807 -26.343006 0.51046443 1
15.466483 -12.6727 0.17484477 1
50.888103 -30.576653 0.16889501 1
9.833704 -6.4056196 -0.0010241591 1
42.155804 -29.693602 -0.15659307 1
34.596809 -26.308027 -0.26019478 0
15.454084 -12.66254 -0.1781919 2
37.15815 -32.770844 -0.5897631 1
50.961571 -30.620798 -0.88103682 0
9.8287973 -6.4024239 -0.20864153 2
43.480904 -30.626972 -1.1019858 0
32.372265 -24.616447 -0.96408975 1
15.498713 -12.699107 -0.53343356 2
30.097635 -26.54397 -1.1882387 1
51.289795 -30.818014 -1.9452498 0
9.8141098 -6.3928561 -0.41597262 2
25.060555 -17.652092 -1.1786544 1
8.9521217 -6.8073525 -0.46585643 0
15.529165 -12.724059 -0.89024091 1
16.202765 -14.289684 -1.022589 1
24.011589 -14.427617 -1.4063193 1
9.8064146 -6.3878431 -0.62297797 2
20.308578 -14.304906 -1.3949088 1
18.988096 -14.438887 -1.4105238 2
15.526967 -12.722258 -1.2449757 0
16.279495 -14.357355 -1.4120413 2
24.414152 -14.6695 -1.934741 2
9.805707 -6.3873825 -0.83022988 2
20.255968 -14.267849 -1.8299081 4
18.784376 -14.283974 -1.8137267 4
17.589445 -14.41218 -1.8132261 2
16.213451 -14.299109 -1.7894843 3
12.130816 -7.2889285 -1.21178 1
9.8019676 -6.3849463 -1.037033 2
10.274475 -7.2371092 -1.1505829 1
9.5539627 -7.2650027 -1.1351982 0
8.8041506 -7.2138152 -1.1090053 0
8.214571 -7.2446666 -1.1007674 0
12.144814 -7.2973399 -1.4641769 1
9.8085299 -6.3892217 -1.2452202 1
10.269419 -7.2335477 -1.3723533 1
10.021137 -7.0586643 -1.5565335 2
8.3986797 -5.9158416 -1.4864054 1
7.8984528 -5.5634928 -1.5706505 1
7.9016848 -5.5657692 -1.714484 1
8.1799965 -5.7618055 -1.9822383 0
6.3196287 -4.4514046 -1.6684583 0
7.5726528 -5.3340068 -2.1636679 0
6.9299645 -4.8813114 -2.129787 0
4.9855433 -3.5117047 -2.1072724 0
0.77014142 -0.54247034 -0.44069067 0
8.7021408 -6.175149 2.8009474 0
15.512444 -11.007826 3.6484582 0
15.539255 -11.026852 2.638895 2
15.42912 -10.948699 1.6162832 0
17.34259 -12.30652 1.0646058 2
32.411369 -24.825214 1.2017124 0
15.408107 -12.71502 0.52800143 0
28.239614 -25.081118 0.88876957 0
21.003313 -12.720058 0.50448895 0
9.7963858 -6.4301276 0.20658742 2
42.703205 -30.302734 0.76681358 1
34.718929 -26.592672 0.51295084 0
15.453004 -12.752069 0.17519453 0
36.955811 -32.822437 0.28813392 1
50.702366 -30.706446 0.16863328 1
9.8012524 -6.433322 -0.001023112 1
42.100838 -29.875284 -0.15677528 1
5.9032168 -4.5215192 -0.044515193 0
15.440639 -12.741866 -0.17854863 1
39.645283 -35.211105 -0.63118505 0
9.8264503 -6.449861 -0.20906834 2
43.28894 -30.718378 -1.0998313 0
15.438869 -12.740406 -0.53290129 2
29.927071 -26.57984 -1.1851606 1
51.151131 -30.978226 -1.9440801 0
9.8117857 -6.4402356 -0.41682443 3
37.727993 -26.772261 -1.7788168 0
19.271685 -14.760984 -1.005548 1
15.450751 -12.750211 -0.88829172 3
16.099012 -14.298398 -1.0191847 1
23.803892 -14.416149 -1.3970935 1
9.810771 -6.4395695 -0.62467891 2
20.271551 -14.384949 -1.3958058 1
18.588879 -14.237995 -1.3845516 2
15.45475 -12.75351 -1.2427472 4
16.160639 -14.353131 -1.406069 1
24.27063 -14.698815 -1.9274217 1
9.8100357 -6.4390874 -0.83249438 0
20.167006 -14.310761 -1.8263727 2
18.816721 -14.412509 -1.8216964 3
15.45083 -12.750277 -1.5973431 4
16.008451 -14.217966 -1.7723253 4
11.99962 -7.2672286 -1.2012012 0
10.268642 -7.2867584 -1.1527711 0
9.4210558 -7.2159781 -1.1223924 0
8.7451391 -7.2166305 -1.1047385 0
8.0821056 -7.1781521 -1.0863678 0
12.010362 -7.2737336 -1.4510195 0
11.033132 -7.2418995 -1.4038874 0
10.253836 -7.2762513 -1.3736566 1
9.9673138 -7.0729313 -1.5519984 1
8.4748354 -6.0138502 -1.5035893 1
7.8532267 -5.5727487 -1.5655155 1
7.8693619 -5.5841985 -1.7116895 1
7.9582386 -5.6472664 -1.9332653 0
7.6146073 -5.4034214 -2.0153153 0
7.5635185 -5.3671684 -2.1663973 0
6.9192123 -4.9099603 -2.1317365 0
4.9640055 -3.522521 -2.103353 0
0.76233369 -0.54096162 -0.43730071 0
10.104418 -7.2207227 3.2599859 0
15.526994 -11.095753 3.6605141 1
15.521944 -11.092144 2.6421876 0
11.653984 -8.3280592 1.2237037 0
17.506456 -12.510298 1.0772059 1
32.300377 -24.910576 1.2006531 0
31.039278 -25.787617 1.0665714 0
20.947359 -12.781306 0.50416028 0
9.7816801 -6.46699 0.20672844 1
31.603672 -22.584316 0.56884307 0
29.528147 -22.772585 0.4373734 0
30.78742 -25.578373 0.35000432 0
36.936214 -33.024792 0.28883344 1
20.72975 -12.648529 0.069085136 1
9.7965479 -6.4768195 -0.0010248573 0
42.08289 -30.072876 -0.15707897 1
34.150879 -26.337713 -0.25818333 1
31.190405 -25.913176 -0.36166355 0
38.010616 -33.98542 -0.60695082 0
50.519798 -30.825317 -0.87700653 0
9.801671 -6.4802065 -0.2089972 0
35.374611 -25.27907 -0.90087897 1
37.770782 -29.129442 -1.1307436 0
15.448821 -12.834972 -0.534711 0
29.758284 -26.606979 -1.1819643 1
51.099312 -31.178915 -1.9460297 0
9.7803707 -6.4661241 -0.41639853 0
21.310556 -15.228747 -1.0071355 0
19.330235 -14.90779 -1.0111766 1
15.432975 -12.821808 -0.88970935 1
16.000872 -14.306433 -1.0159696 2
23.643415 -14.42634 -1.390475 1
9.8093548 -6.4852862 -0.62595463 0
20.01903 -14.305809 -1.3816774 1
18.446707 -14.226399 -1.3774683 3
15.409302 -12.80214 -1.2424996 4
24.116144 -14.714782 -1.919018 2
21.70739 -14.351468 -1.8461504 3
20.048035 -14.326535 -1.819891 2
18.765669 -14.472388 -1.8213899 3
15.41153 -12.803991 -1.597661 3
15.85126 -14.172665 -1.760116 5
11.890403 -7.255085 -1.1926699 0
10.934855 -7.2293921 -1.1620703 0
10.01756 -7.1586533 -1.127243 0
17.510725 -13.504557 -2.0914917 2
8.6813507 -7.2125182 -1.0996957 0
15.042475 -13.449527 -2.0279398 1
11.874091 -7.2451324 -1.4374509 0
10.965921 -7.2499304 -1.398387 0
10.13583 -7.2431703 -1.3610582 0
9.8889189 -7.0667253 -1.5434321 1
8.7060757 -6.2214527 -1.5482674 1
7.7383356 -5.5298958 -1.5462594 1
7.882844 -5.633163 -1.718676 1
8.175705 -5.8424444 -1.9907891 0
6.4068871 -4.5784287 -1.6996839 0
6.3794413 -4.5588155 -1.8315657 0
6.9060473 -4.9351339 -2.1327112 0
4.9738288 -3.5543501 -2.112498 0
0.78117019 -0.55823243 -0.44916546 0
9.8216772 -7.0705953 3.1767092 0
15.427593 -11.106277 3.6461976 3
15.602108 -11.23191 2.6624908 5
14.875528 -10.708847 1.5658914 1
17.469166 -12.575998 1.077606 1
31.197474 -26.103653 1.0751319 0
20.756136 -12.764268 0.50062722 0
31.722647 -22.837036 0.57241589 0
30.750095 -25.729321 0.35059893 0
36.981228 -33.298054 0.29009259 1
20.654808 -12.701955 0.06898272 3
42.065308 -30.282686 -0.15740694 1
34.564152 -26.849369 -0.26201466 1
31.08749 -26.011627 -0.36152086 1
38.004707 -34.219597 -0.60876006 1
20.66625 -12.708992 -0.35952705 0
35.386768 -25.474827 -0.90344769 1
42.630123 -33.114998 -1.2796704 0
29.584242 -24.753824 -1.0269474 2
29.564205 -26.619734 -1.1779392 1
44.032784 -27.078558 -1.6805024 0
38.485615 -27.705675 -1.8233871 0
19.309641 -14.999693 -1.0128322 0
17.521193 -14.66039 -1.0130389 1
15.873636 -14.292688 -1.0110525 1
23.378525 -14.376943 -1.3778398 1
21.724117 -14.471757 -1.3894747 1
19.891182 -14.3196 -1.3762951 1
18.475769 -14.351944 -1.3833711 2
15.376767 -12.866098 -1.24349 0
15.926115 -14.33994 -1.3941246 2
23.928656 -14.715252 -1.9081746 2
21.540939 -14.349731 -1.8362432 3
20.052938 -14.436049 -1.8248996 1
18.579603 -14.432601 -1.8082092 3
15.394265 -12.88074 -1.6005225 1
15.852054 -14.273255 -1.7657256 5
11.752975 -7.2276516 -1.1814086 0
10.859814 -7.2343831 -1.1567721 0
9.9892769 -7.1912498 -1.1268784 0
17.372278 -13.494753 -2.080569 2
15.315381 -12.814735 -1.9457051 3
14.93924 -13.451355 -2.0203402 1
11.821614 -7.2698627 -1.4341615 0
10.86441 -7.2374449 -1.3886553 0
10.023353 -7.2157807 -1.3493288 0
9.9318199 -7.1498866 -1.554014 0
8.4304905 -6.0690846 -1.5030165 2
7.7446194 -5.5753274 -1.5513943 1
7.8055973 -5.6192255 -1.7061002 1
8.10431 -5.8342676 -1.9783515 1
7.5078397 -5.4048705 -1.9967488 0
7.4951973 -5.3957696 -2.1572988 0
6.8730364 -4.9478779 -2.1278377 0
4.9644599 -3.5738993 -2.1138046 0
0.76157421 -0.54825497 -0.43899569 0
7.8143716 -5.6670613 2.5338521 0
15.40145 -11.169288 3.6492116 2
15.418468 -11.181629 2.6377976 3
5.3041458 -3.8466201 0.55975765 0
17.486607 -12.681464 1.081406 1
32.160339 -23.323002 1.2859573 0
31.266018 -24.462858 1.1685243 0
31.133692 -26.235577 1.0760831 0
20.731848 -12.849285 0.50112021 1
25.014839 -16.79027 0.53113413 0
31.807863 -23.067385 0.57540303 0
34.342461 -26.869898 0.51144964 0
37.131458 -33.668758 0.29219115 1
20.627342 -12.784514 0.06903962 1
43.478046 -29.183004 -0.0045696208 1
35.084854 -25.44389 -0.13161786 0
35.994946 -28.162821 -0.27360439 0
31.13415 -26.235962 -0.36312619 0
37.8228 -34.295628 -0.60776025 0
20.628561 -12.785269 -0.35964558 2
45.27763 -30.390905 -0.96993768 0
25.996513 -18.852934 -0.66538429 0
29.396757 -24.771904 -1.0234345 2
29.411865 -26.669056 -1.1755714 1
20.626728 -12.784133 -0.78891337 1
34.939384 -25.338394 -1.6595528 0
19.590811 -15.328054 -1.0303804 0
17.430189 -14.687981 -1.0107353 2
15.693413 -14.22992 -1.0027311 1
20.61846 -12.779009 -1.2177938 1
21.497694 -14.429518 -1.3782059 1
19.679424 -14.271717 -1.365082 2
18.378386 -14.379441 -1.3798294 1
17.090248 -14.40152 -1.3861126 5
15.766554 -14.296241 -1.3845172 3
23.690577 -14.68306 -1.8932649 2
21.5371 -14.455968 -1.8402061 2
19.760225 -14.330315 -1.8028028 4
18.629625 -14.576013 -1.8180181 3
17.078056 -14.391248 -1.7807959 5
15.775556 -14.304403 -1.7627558 5
11.680248 -7.2392402 -1.1766311 0
10.71209 -7.1900878 -1.1437032 0
18.664173 -13.535447 -2.1108 1
17.281157 -13.520958 -2.0752959 2
8.5638123 -7.2165084 -1.091162 0
14.836177 -13.452626 -2.0127404 2
11.701472 -7.2523947 -1.4226488 0
10.756516 -7.2199068 -1.3780775 0
9.9498186 -7.2157092 -1.3428124 0
9.8650408 -7.1542277 -1.5474633 0
8.7233191 -6.3262391 -1.5591505 1
7.7027369 -5.5861025 -1.5469013 1
7.77637 -5.639502 -1.7040043 1
8.0648365 -5.848701 -1.9736874 1
7.4509449 -5.4035006 -1.9866216 0
7.4731636 -5.4196138 -2.1563888 0
6.8431616 -4.9627299 -2.1239386 0
4.9641962 -3.6000853 -2.1190302 0
0.75965577 -0.55091006 -0.43899569 0
7.7664251 -5.6737633 2.5247118 0
15.352852 -11.216028 3.6469512 2
15.286561 -11.1676 2.6218841 1
14.755351 -10.779524 1.5611246 3
17.509977 -12.791917 1.085606 1
30.843756 -26.175919 1.0692135 0
28.088978 -25.648754 0.89507425 0
20.412132 -12.749965 0.4944649 1
25.045527 -16.937979 0.53303784 0
43.062889 -31.4596 0.7809878 0
29.699591 -23.404863 0.44351903 0
33.262573 -28.228676 0.38148269 0
7.6945744 -7.0261102 0.060741998 0
50.830555 -31.750128 0.17049952 1
43.293079 -29.278576 -0.0045608943 1
34.588856 -25.268894 -0.13008729 1
35.89328 -28.285822 -0.27358046 0
34.439686 -29.227648 -0.40286711 0
33.482147 -30.573395 -0.53972346 0
20.617727 -12.878386 -0.36023828 0
6.8444333 -4.6288056 -0.14696673 0
5.2959018 -3.868922 -0.13589418 0
13.002985 -10.247047 -0.3924613 0
29.209503 -24.78899 -1.0199215 2
29.25955 -26.717632 -1.1732037 1
20.561634 -12.843349 -0.78813356 2
42.182999 -28.52784 -1.808558 0
20.343037 -14.861609 -0.96871281 0
18.834049 -14.842237 -0.99329728 1
17.275223 -14.660822 -1.0047106 1
15.664301 -14.303469 -1.0040549 3
20.560173 -12.842436 -1.2169915 4
21.516678 -14.551462 -1.3826709 1
19.506943 -14.2508 -1.35656 1
18.136772 -14.292745 -1.3654268 2
17.02161 -14.445591 -1.3846269 2
15.648762 -14.28928 -1.3785449 3
20.592894 -12.862873 -1.6492875 4
21.486507 -14.531059 -1.8402061 2
19.81316 -14.474506 -1.8122307 2
18.566101 -14.63108 -1.816792 2
16.982115 -14.412073 -1.7760268 2
15.637218 -14.278739 -1.7528564 7
20.554958 -12.839178 -2.0751433 2
10.584613 -7.1582427 -1.1327536 0
18.520317 -13.530021 -2.0998595 1
17.140022 -13.507254 -2.0639968 2
3.4573164 -2.9340925 -0.44181779 0
14.742106 -13.46139 -2.0063405 2
11.605219 -7.2489309 -1.4140142 0
10.6983 -7.2351279 -1.3738464 0
9.8731985 -7.2128663 -1.3358616 0
9.8496208 -7.195642 -1.548975 0
0.9142316 -0.66789204 -0.16381964 0
7.7150712 -5.6362462 -1.5533199 1
7.5690022 -5.5295358 -1.662784 1
8.0665493 -5.8930192 -1.9791288 0
7.4004655 -5.4064112 -1.9781823 0
7.4038763 -5.4089031 -2.1418309 0
6.8257966 -4.9865866 -2.1239386 0
4.9210715 -3.5950894 -2.1059659 0
0.75772816 -0.55355841 -0.43899569 0
7.9865112 -5.8774133 2.602911 0
15.313607 -11.269551 3.6469512 2
6.5961809 -4.8542447 1.1342475 0
14.730474 -10.840413 1.5624865 2
17.478088 -12.862431 1.086406 1
31.767784 -25.214966 1.1938273 0
20.335295 -17.38026 0.70703155 0
51.913784 -32.679195 1.2603186 0
25.042433 -17.063585 0.53423649 1
45.165848 -33.238335 0.82122618 0
29.66157 -23.543205 0.44417584 0
30.323912 -25.917377 0.34881514 0
50.966534 -32.082909 0.17133023 1
42.899723 -29.231308 -0.0045301765 1
34.535881 -25.415558 -0.1302209 1
36.514908 -28.982889 -0.27908799 1
20.353748 -17.396034 -0.23880212 0
33.416443 -30.727987 -0.54039001 0
50.389118 -31.719433 -0.88234079 0
45.91045 -31.28278 -0.98814851 0
32.898823 -24.210819 -0.84635556 0
39.474594 -31.332073 -1.1947318 1
20.347351 -17.390566 -0.71259314 1
29.136679 -26.792543 -1.1720198 1
20.513296 -12.91291 -0.78800356 0
45.565037 -31.047419 -1.9581946 0
20.27816 -14.923052 -0.96809804 0
17.18141 -14.684686 -1.0022298 1
15.59369 -14.339129 -1.0027311 2
20.471272 -12.886456 -1.2143843 1
21.21158 -14.453293 -1.3662992 1
19.695107 -14.493973 -1.3731554 1
17.9429 -14.241775 -1.3545656 2
16.731323 -14.300002 -1.3650658 3
15.537086 -14.287081 -1.3730921 3
20.510719 -12.911287 -1.6463056 4
21.43895 -14.608219 -1.8404891 1
19.672552 -14.477375 -1.8039813 2
18.183788 -14.432975 -1.7843 3
17.077196 -14.595614 -1.791288 2
15.590215 -14.335935 -1.7531863 5
20.449306 -12.872628 -2.0690007 2
10.579316 -7.2086072 -1.1348729 0
18.370314 -13.519035 -2.0881896 1
17.024149 -13.512536 -2.0557108 2
8.5011168 -7.2657723 -1.0896103 0
14.615926 -13.44003 -1.9955409 2
11.542807 -7.2660785 -1.4094913 0
10.620387 -7.2365923 -1.3670766 0
9.8159342 -7.2237177 -1.3315172 0
9.7860918 -7.201756 -1.5429282 0
8.9977856 -6.6216278 -1.6164302 1
7.730329 -5.6888843 -1.5603805 1
7.4862118 -5.509234 -1.6488111 1
7.8815989 -5.8002062 -1.9387068 1
7.3532066 -5.4113531 -1.9705869 0
7.3598533 -5.4162445 -2.134552 0
6.8208466 -5.0195799 -2.1278377 0
3.4195018 -2.5164711 -1.4671214 0
0.73244631 -0.53902006 -0.42543599 0
10.019075 -7.429976 3.274204 0
15.187004 -11.262424 3.6266067 2
15.113963 -11.208259 2.6059706 2
17.110806 -12.689082 1.8198934 1
17.501423 -12.978758 1.090806 1
17.276535 -12.811985 0.69623131 0
39.512756 -31.599113 1.4892242 0
20.235096 -17.423368 0.70576334 1
25.048956 -17.202803 0.53571713 0
40.684235 -30.170738 0.74174511 0
31.799141 -25.430389 0.47757816 0
20.238358 -17.426178 0.23353441 2
36.612453 -33.915371 0.29093203 1
51.152561 -32.462395 0.17235439 1
42.693378 -29.320414 -0.0045197047 2
34.403938 -25.513376 -0.13007513 1
36.439674 -29.141512 -0.27932745 2
20.265606 -17.44964 -0.23851673 2
32.214993 -29.84185 -0.52272618 0
51.093121 -32.424675 -0.89674318 1
45.884495 -31.511971 -0.99006915 0
32.739197 -24.278831 -0.84453261 0
39.331383 -31.454067 -1.1938787 1
20.268324 -17.451979 -0.71206087 4
28.959085 -26.825792 -1.1688235 1
43.534195 -27.627634 -1.6762135 0
40.616852 -27.894323 -1.7499243 0
32.394566 -24.023258 -1.5507398 0
19.051966 -15.236225 -1.0105144 1
17.212263 -14.820569 -1.0071913 1
15.444301 -14.306584 -0.99649 2
22.606276 -14.346376 -1.3441459 1
20.918102 -14.365869 -1.3507779 1
19.343519 -14.344825 -1.3522991 1
17.937357 -14.344851 -1.3581073 3
16.639471 -14.327367 -1.3618469 3
15.420196 -14.284255 -1.3673794 3
20.490215 -13.003484 -1.6484742 0
21.02347 -14.438231 -1.809352 1
19.452738 -14.42582 -1.7886609 2
18.099619 -14.474615 -1.7812347 3
16.920853 -14.56965 -1.780478 2
15.426438 -14.290038 -1.7406471 5
20.452463 -12.979527 -2.0741196 1
7.0746293 -4.858624 -0.76082051 0
18.234251 -13.522211 -2.0783432 1
16.896757 -13.512663 -2.0462947 2
8.3839226 -7.2189522 -1.0779734 0
14.531532 -13.461056 -1.990741 2
9.9102945 -6.2892628 -1.2129519 0
10.54461 -7.241693 -1.3607299 0
9.7638407 -7.2406983 -1.3280419 0
9.7405062 -7.2233939 -1.539905 0
0.89352983 -0.66262656 -0.16095565 0
7.6142869 -5.646626 -1.5411245 1
7.4280062 -5.5084834 -1.6404272 1
7.6995516 -5.7098565 -1.899062 0
7.3333235 -5.4382682 -1.9705869 0
7.2898932 -5.4060607 -2.1199942 0
6.7899389 -5.0353036 -2.1239386 0
4.9225502 -3.6504796 -2.1177237 0
0.75374758 -0.5589664 -0.43899569 0
7.8894849 -5.8913589 2.5846307 0
15.039405 -11.230458 3.600234 2
14.968771 -11.177713 2.5873134 1
14.724688 -10.995448 1.5699772 0
17.519108 -13.08214 1.094606 1
15.530775 -12.504928 0.58691013 0
20.159077 -17.474661 0.70512927 3
25.014801 -17.301695 0.53621072 1
30.643068 -22.882269 0.5600574 0
35.515408 -28.595972 0.53481245 1
20.177437 -17.490576 0.23349944 3
36.53196 -34.066601 0.29118851 0
50.919933 -32.552132 0.17193334 1
25.035137 -17.315762 -0.0026563911 2
34.328758 -25.634504 -0.13011158 1
36.283638 -29.214529 -0.27887246 1
20.210651 -17.519367 -0.23855241 3
36.942444 -34.449387 -0.6012851 0
69.863022 -44.662079 -1.2287693 1
25.123276 -17.376724 -0.54333586 0
32.520718 -24.284374 -0.8409695 0
55.476387 -44.667969 -1.6884367 1
20.237532 -17.542667 -0.71301895 2
4.0382276 -3.765708 -0.16349085 0
4.5509634 -3.3983662 -0.21839456 0
4.1401987 -3.3335674 -0.2201809 0
16.852009 -14.607968 -0.98894 1
15.279886 -14.248724 -0.98892504 2
22.484526 -14.373923 -1.3397336 1
20.745516 -14.348809 -1.3426982 1
19.103844 -14.265519 -1.3388433 2
17.703079 -14.254004 -1.3439406 2
16.504383 -14.306631 -1.3546662 2
15.387338 -14.348924 -1.3686777 3
1.6072451 -1.0274807 -0.12957913 1
20.873751 -14.437504 -1.8005769 1
19.369633 -14.463994 -1.7854199 1
18.0422 -14.527054 -1.7803152 3
16.691668 -14.468977 -1.7614014 2
15.317739 -14.284022 -1.7337176 6
5.6009755 -3.5805955 -0.56920552 0
10.476304 -7.2460232 -1.1292216 0
18.090368 -13.508721 -2.0670378 1
16.774309 -13.506186 -2.0368786 3
8.3027811 -7.1971688 -1.0706033 0
14.39949 -13.427741 -1.9787414 1
3.0137477 -1.9266307 -0.36964196 0
10.44857 -7.2268405 -1.3514215 0
9.6728687 -7.2230749 -1.3189189 0
9.6751642 -7.2247896 -1.5333543 0
8.7832232 -6.5587454 -1.586072 2
7.4025474 -5.5277452 -1.5019705 0
7.4286327 -5.547224 -1.6446191 1
7.4919391 -5.5944972 -1.852421 0
7.2839198 -5.4391623 -1.9621475 0
7.2344728 -5.4022379 -2.1090758 0
6.7732034 -5.0577917 -2.1239386 0
4.9043589 -3.6622593 -2.1151109 0
0.73737454 -0.55062377 -0.43052086 0
7.8441386 -5.9002557 2.5765061 0
15.091157 -11.351365 3.6220856 2
14.825173 -11.151297 2.569205 1
14.619333 -10.996467 1.562827 2
17.479725 -13.148014 1.0950061 1
30.483194 -22.929049 1.2347106 0
15.480821 -12.554029 0.58667475 1
20.125065 -17.568588 0.70608044 2
27.725206 -26.035702 0.89498013 0
9.8571939 -6.3500934 0.24090581 0
43.211384 -30.11105 0.92851526 0
30.812325 -23.176617 0.56462592 0
15.5517 -12.611506 0.23484835 0
20.146391 -17.587206 0.2338492 1
9.8457832 -6.3427424 0.033319268 0
24.964695 -17.396183 -0.0026553439 2
34.402103 -25.876799 -0.13073109 1
15.589771 -12.642381 -0.12015989 0
20.164438 -17.602961 -0.23873077 0
32.209381 -30.246624 -0.52596378 0
9.8581915 -6.3507357 -0.17377733 0
25.049341 -17.45517 -0.5430513 2
32.429367 -24.392935 -0.8408038 1
35.572479 -28.847172 -1.0857148 0
28.962957 -25.283808 -1.023541 2
4.0221443 -3.7770448 -0.16337247 0
9.8708725 -6.3589048 -0.38171971 0
25.116232 -17.50178 -1.0872076 4
19.555391 -14.709303 -0.94089478 0
18.606358 -15.088653 -0.99230397 1
16.776833 -14.64568 -0.98752242 1
15.215493 -14.2883 -0.98797941 2
9.853591 -6.3477716 -0.58843988 0
20.596989 -14.352629 -1.3363197 1
18.954994 -14.257692 -1.3318912 1
17.591188 -14.26541 -1.3392185 3
16.352085 -14.274887 -1.3462476 2
15.19458 -14.268661 -1.3559544 3
1.6103585 -1.0374074 -0.13012129 1
20.76103 -14.466938 -1.7951988 1
19.373226 -14.572281 -1.7904286 2
17.604172 -14.275939 -1.7419991 3
16.553949 -14.451109 -1.7521812 7
15.302657 -14.370152 -1.7376772 4
9.8166294 -6.3239608 -0.99986345 2
10.333263 -7.2005429 -1.1165059 0
17.973074 -13.519105 -2.0590148 1
16.643551 -13.496934 -2.0267093 3
8.2716093 -7.220871 -1.0698274 2
14.314814 -13.442505 -1.9735415 2
9.8103924 -6.319943 -1.2059621 2
10.374329 -7.2291584 -1.3450748 0
9.5903988 -7.2137694 -1.3110992 0
9.6150055 -7.2322779 -1.5278114 0
8.8994799 -6.6940694 -1.611275 1
7.345346 -5.5250707 -1.4942682 1
7.3242431 -5.5091977 -1.6257557 2
7.2183752 -5.429565 -1.7894559 1
7.2461424 -5.4504509 -1.9570839 0
7.1875577 -5.4063845 -2.1008868 0
6.7369065 -5.0674105 -2.1180902 0
4.8915462 -3.6793556 -2.1151109 0
0.75571644 -0.56843978 -0.44238561 0
9.0261602 -6.8388205 2.972579 0
14.963768 -11.337548 3.6009874 2
14.915638 -11.301082 2.5917034 1
14.577682 -11.045024 1.5624865 4
17.430536 -13.206536 1.0948061 1
