# .PCD v0.7 - Point Cloud Data file format
VERSION 0.7
FIELDS x y z intensity
SIZE 4 4 4 4
TYPE F F F F
COUNT 1 1 1 1
WIDTH 1429
HEIGHT 1
VIEWPOINT 0 0 0 1 0 0 0
POINTS 1429
DATA ascii
3.3905101 5.3036323 -2.1752067 0
2.4218185 3.7883489 -2.1034503 0
14.485901 22.486336 5.1305971 1
16.814215 26.100555 4.2999339 1
17.649105 27.396549 2.7841473 4
4.3378906 6.7336693 0.40100223 0
4.3258939 6.7150464 0.25856322 0
3.2490425 4.6608596 0.16723467 0
5.0463943 6.7065277 0.22183248 0
5.4505835 6.7213106 0.20363127 0
4.7885876 8.7719603 0.20532864 0
3.9746163 6.6913567 0.1372079 0
4.3515215 6.754828 0.11766946 0
6.2923098 9.0265274 0.12905869 0
3.1432533 4.1773024 0.045713566 0
3.6568692 6.6988249 0.021712147 0
3.9731913 6.6889572 -0.00067893305 0
4.3043108 6.6815438 -0.024137028 0
4.6662903 6.6939487 -0.048849378 0
5.5722313 7.4053516 -0.082656786 1
5.4844565 6.7630806 -0.10365014 0
3.6354022 6.6595006 -0.11243369 0
3.9950299 6.7257233 -0.13914178 0
4.6307611 6.6429811 -0.19196478 0
5.5825005 7.4189987 -0.24718274 0
5.4018555 6.661222 -0.25393763 0
3.6453753 6.6777697 -0.24733149 0
3.9604805 6.6675582 -0.27542213 0
4.296823 6.6699204 -0.30507615 0
6.3376312 9.0915432 -0.45906889 0
5.5838008 7.4207273 -0.4118073 0
7.0767732 8.7266235 -0.53181434 0
4.9213958 9.0152445 -0.51563704 0
3.9716539 6.6863694 -0.41397205 0
4.2672806 6.6240621 -0.44246867 0
6.2589355 8.978651 -0.64717877 0
5.5857706 7.4233446 -0.57618505 0
4.3997397 5.4254775 -0.45440829 0
3.6370032 6.6624336 -0.51560563 0
3.9591546 6.6653266 -0.54999542 0
4.3120823 6.6936069 -0.58806902 0
4.7780914 6.854331 -0.64217633 0
5.5763984 7.4108891 -0.73953426 1
5.556541 6.8519707 -0.73024684 0
3.6244557 6.6394482 -0.6476931 0
4.000401 6.7347655 -0.69441646 0
5.5634809 8.6361418 -0.9405241 0
4.7891092 6.8701367 -0.7920776 0
5.5557637 7.3834667 -0.90031528 1
5.3971896 6.6554689 -0.86117446 0
3.6317937 6.6528902 -0.78327912 0
3.9569948 6.6616902 -0.82422322 0
4.2724094 6.6320233 -0.86190224 0
4.2872324 6.6550326 -1.0052717 16
4.2664018 6.6226974 -1.1398638 23
4.27421 6.6348186 -1.2830937 13
4.2680278 6.6252217 -1.3979962 15
4.2626419 6.6168609 -1.5593607 11
4.2730803 6.6330647 -1.7030597 7
4.2568893 6.6079316 -1.8361151 10
4.2586145 6.6106095 -1.9757795 7
3.4171925 5.3044777 -2.1804323 0
2.4448383 3.7951009 -2.1119251 0
14.729007 22.68935 5.1886168 2
13.006837 20.036427 3.3083591 0
18.465092 28.444616 2.8971884 1
4.3635445 6.721837 0.40120223 0
4.3732524 6.7367916 0.25998676 0
4.7175541 6.7173839 0.24161349 0
5.0842657 6.7079921 0.22246659 0
5.48666 6.7177291 0.20410177 0
4.8365345 8.7867231 0.20606813 0
3.9732962 6.6362653 0.13636181 0
4.3293414 6.6691489 0.11643946 0
4.7399611 6.7492895 0.096735381 0
6.8447523 9.0307131 0.099086866 0
3.6821592 6.6895242 0.021723526 0
3.9985707 6.6784792 -0.00067928212 0
4.3254299 6.6631236 -0.024124879 0
4.6896281 6.6776195 -0.048849378 0
5.432127 6.6509604 -0.10222179 0
3.6740553 6.6748013 -0.11290785 0
4.0041018 6.6877174 -0.13864383 0
4.3332314 6.6751418 -0.16489598 0
4.6746054 6.6562285 -0.19281794 0
5.4301329 6.6485186 -0.25417441 0
3.6667349 6.6615024 -0.24720152 0
4.0001583 6.6811309 -0.27655789 0
4.3374901 6.6817017 -0.30630568 0
5.0448413 6.6559768 -0.37034306 0
7.0945544 8.6863947 -0.53086871 0
3.6775427 6.6811371 -0.38286701 0
4.0031772 6.686173 -0.41482252 0
5.5820565 8.5988989 -0.5756802 0
5.5923567 7.3783484 -0.57420415 0
5.5801258 6.8321662 -0.57385278 0
3.6563885 6.6427054 -0.51506346 0
4.0131416 6.7028155 -0.55424142 0
4.3680019 6.7287035 -0.59248841 0
4.8042803 6.8408742 -0.64248288 0
5.5901904 7.3754907 -0.73794454 0
5.5577302 6.8047457 -0.72727698 0
3.6802807 6.686111 -0.65349436 0
4.0689139 6.7959676 -0.70218718 1
5.5567217 8.5598707 -0.93432444 0
3.4558835 4.9208755 -0.56872904 0
5.5646696 7.3418188 -0.8976 0
5.4103184 6.6242585 -0.8595745 0
3.6665063 6.6610866 -0.78574616 0
4.0047431 6.6887884 -0.82930058 0
4.2890387 6.6070642 -0.86059892 0
4.3190794 6.6533408 -1.0072873 14
4.300271 6.6243677 -1.1427279 23
4.3102427 6.6397281 -1.2869449 13
4.3061395 6.6334076 -1.4028867 15
4.3028045 6.6282701 -1.5655795 12
4.3004661 6.6246681 -1.7047476 7
4.3096218 6.638772 -1.8488532 10
4.2943377 6.6152277 -1.9816279 6
3.4295123 5.2830043 -2.1765132 0
2.4560983 3.783505 -2.1102302 0
14.791267 22.620653 5.1840959 1
13.04502 19.950073 3.3012254 2
18.561497 28.386559 2.8975289 1
3.7954974 5.8045487 0.34720191 0
4.3977566 6.7255988 0.26011616 0
4.7421131 6.7049675 0.24173118 0
5.1113338 6.6974516 0.22267796 0
5.521605 6.7149415 0.20457226 0
4.8617654 8.7636414 0.2059038 0
4.0613871 6.7326384 0.13861805 0
4.373322 6.68823 0.11702517 0
4.7068877 6.6551619 0.095609456 0
6.8722353 9.0047855 0.099051893 0
2.91395 3.5437164 0.026745133 0
3.7179053 6.7017612 0.021803182 0
4.0289598 6.6788836 -0.00068067841 0
4.3759599 6.6922641 -0.024282796 0
4.7302237 6.6881566 -0.049040943 0
5.1056361 6.6899858 -0.075058207 0
5.4770164 6.6607156 -0.1026503 0
3.6806474 6.6346016 -0.11243369 0
4.0510468 6.715497 -0.13949746 0
4.357532 6.6640825 -0.16497885 0
4.7243619 6.6798687 -0.19395551 0
5.4826226 6.6675339 -0.25559503 0
3.6965628 6.6632895 -0.2477214 0
4.0264215 6.674675 -0.27684185 0
4.3749361 6.6906986 -0.30738151 0
4.6108685 6.5193982 -0.33076799 0
6.8196888 8.9359331 -0.49845695 0
5.4763536 6.6599097 -0.40812778 0
4.012948 6.6523404 -0.4135468 0
5.5646424 8.5101461 -0.57097071 0
6.3245177 8.9423609 -0.64765096 0
6.3627925 8.3372555 -0.65046757 0
5.4912028 6.677968 -0.56242764 0
3.6958206 6.6619515 -0.51750326 0
4.0209198 6.6655555 -0.55225998 0
4.399024 6.7275367 -0.59366685 0
4.7187023 6.6718664 -0.62807608 0
5.5686564 7.2966881 -0.73190361 0
5.5321584 6.7277756 -0.72100735 0
3.721766 6.7087202 -0.6569069 0
4.0276279 6.6766748 -0.69123757 0
5.5523777 8.4913893 -0.92885411 0
4.7851744 6.7658525 -0.78379148 0
5.4223299 7.1049547 -0.87083489 0
5.4701724 6.6523929 -0.86557436 0
5.0030279 9.0182762 -1.065753 0
4.0207386 6.6652546 -0.82803124 0
4.3370385 6.632741 -0.86581206 0
4.3389473 6.6356597 -1.0067834 15
4.3308811 6.6233239 -1.1450191 26
4.347362 6.6485291 -1.291438 12
4.3281131 6.619091 -1.4028867 14
4.3312035 6.6238174 -1.5679116 10
4.3438087 6.643095 -1.7131869 8
4.3422713 6.6407437 -1.8534026 9
4.3268666 6.6171851 -1.9865016 6
3.4552889 5.2842593 -2.1817389 0
2.4607 3.7632098 -2.1034503 0
13.087525 19.855812 3.2935431 1
18.783855 28.498032 2.915915 2
4.4301519 6.72123 0.40300223 0
4.428978 6.7194486 0.26050439 0
4.8037872 6.7396359 0.2436142 0
5.145597 6.6913524 0.22310069 0
5.5844474 6.74085 0.20598376 0
4.9075232 8.7701931 0.20647895 0
4.1047411 6.7484593 0.13925262 0
4.3956051 6.6688166 0.1169666 0
6.4305978 9.0220251 0.12995005 0
5.1545124 6.7029457 0.07393916 0
5.5374141 6.6840773 0.050598901 0
3.7365839 6.6776171 0.021769043 0
4.0409403 6.6435666 -0.00067858398 0
4.4114656 6.6928797 -0.024343533 0
4.750062 6.6642604 -0.048993051 0
5.1325598 6.6743984 -0.075093888 0
5.5320125 6.677557 -0.10322164 0
3.7830622 6.7606783 -0.11480446 0
4.071476 6.6937699 -0.13935518 0
4.432548 6.724865 -0.16688468 0
4.7488132 6.6625085 -0.19395551 0
5.5325313 6.6781836 -0.2567789 0
3.7229125 6.6531854 -0.24785137 0
4.0529356 6.6632881 -0.2769838 0
6.3744969 8.9433165 -0.45493016 0
6.8986778 8.9710646 -0.50182372 0
5.5058255 6.6459475 -0.40850604 0
3.7358007 6.676218 -0.38407037 0
4.0580602 6.6717138 -0.41567302 0
3.1012053 4.7050109 -0.31643349 0
6.3410268 8.8963585 -0.64599818 0
5.5804543 7.2568421 -0.56776637 0
5.4952707 6.6332068 -0.56035036 0
3.7299569 6.6657739 -0.51885867 0
4.0598378 6.6746354 -0.55424142 0
4.4280424 6.718029 -0.5942561 0
4.8009949 6.7357187 -0.63573927 0
5.5248737 7.1845651 -0.72268331 0
5.5237193 6.6675467 -0.7167176 0
3.705461 6.6219978 -0.64974064 0
5.5571566 8.4310713 -0.92447793 0
5.8662314 8.2302275 -0.95591676 0
5.4483347 7.0850334 -0.87083489 0
5.481823 6.6169748 -0.86357439 0
5.0399342 9.0068226 -1.0665754 1
4.0720119 6.6946507 -0.83353168 0
4.3807096 6.6462178 -1.0108145 15
4.3616633 6.617322 -1.1467375 27
4.382565 6.6490326 -1.2946472 13
4.367517 6.6262026 -1.4077772 14
4.3770452 6.6406589 -1.5756851 9
4.3767347 6.6401877 -1.7165626 8
4.3751564 6.6377931 -1.8570421 10
4.3574958 6.6109991 -1.9894258 7
3.4767139 5.2747159 -2.1830454 0
2.4864402 3.7723165 -2.1136203 0
13.248821 19.948633 3.3165901 0
18.854551 28.389132 2.9114888 1
4.451376 6.7023973 0.40280223 0
4.4501939 6.7006178 0.26037499 0
4.8249507 6.7195783 0.24349651 0
5.17382 6.6796722 0.22331207 0
5.5925722 6.7028928 0.20541915 0
3.8141131 6.7606807 0.15948096 0
4.1052794 6.6965837 0.13847703 0
4.4232817 6.6600962 0.11708374 0
6.4807134 9.0255136 0.13032535 0
5.1754293 6.6817498 0.073904179 0
5.5683999 6.6739211 0.050668854 0
3.775594 6.6924038 0.02186008 0
4.0975552 6.6839838 -0.00068416906 0
4.4414392 6.6874361 -0.024379976 0
4.7919593 6.6736317 -0.049184617 0
5.1803198 6.6880636 -0.075450622 0
5.5578504 6.6612773 -0.10326925 0
4.0989971 6.6863365 -0.13949746 0
4.4228067 6.6593814 -0.16564174 0
4.7860346 6.665381 -0.1945243 0
6.9710321 8.9999676 -0.30307031 0
5.5737391 6.6803207 -0.25760761 0
3.7480783 6.6436315 -0.24798134 0
4.398376 6.6225958 -0.30569091 0
6.3753719 8.878808 -0.45277801 0
6.944633 8.9658842 -0.50288689 0
5.5469084 6.6481628 -0.40982991 0
3.7257121 6.6039863 -0.38066086 0
4.1022005 6.6915617 -0.4177992 0
5.5745778 8.3935928 -0.56581271 0
6.348752 8.8417349 -0.64363706 0
5.5935278 7.2215366 -0.56652832 0
5.5695353 6.675282 -0.56554359 0
1.9060149 3.378494 -0.26349562 0
4.0768552 6.650218 -0.55339223 0
4.4669142 6.7257934 -0.59631848 0
6.3015952 8.7760611 -0.83038461 0
5.496202 7.0958843 -0.71568859 0
5.5673904 6.6727114 -0.71935749 0
3.7481363 6.643734 -0.65315312 0
4.0753012 6.6476831 -0.69123757 0
5.5623102 8.3751211 -0.92046636 0
5.8856335 8.1967621 -0.9544102 0
5.4681573 7.0596771 -0.87005907 0
5.5533323 6.6558619 -0.87117416 0
4.0332227 7.1490626 -0.84824401 0
2.3595068 3.8488576 -0.48023275 0
4.4217877 6.6578469 -0.87319732 0
4.4236403 6.6606359 -1.0153496 14
4.3978763 6.6218433 -1.1501743 26
4.4101157 6.6402726 -1.295931 12
4.4189463 6.6535683 -1.4168596 16
4.4067106 6.6351457 -1.5780171 6
4.404213 6.6313844 -1.7182505 8
4.4112291 6.6419492 -1.8625013 10
4.3998623 6.6248336 -1.9981984 6
3.4846463 5.2468014 -2.1765132 0
2.4935789 3.75456 -2.1085353 0
16.591187 24.792974 5.7220964 0
13.230233 19.770548 3.2946405 0
4.4902983 6.7100596 0.40420222 0
4.5046849 6.7315583 0.26218674 0
4.8952446 6.767487 0.24585027 0
5.2143216 6.6836405 0.22405186 0
5.631371 6.7016993 0.20598376 0
3.8119855 6.7021351 0.15841281 0
2.4679286 3.9943573 0.082775988 0
5.9724174 8.924859 0.15726355 0
4.8220139 6.6662478 0.096500814 0
7.0562854 9.0446424 0.10031103 0
5.607101 6.6728168 0.050808758 0
3.82464 6.7243838 0.022008015 0
4.129272 6.6832514 -0.00068556529 0
4.4536338 6.6552701 -0.024319239 0
4.831636 6.6795502 -0.04935224 0
5.2233162 6.6951694 -0.075736016 0
5.5913606 6.6540847 -0.10345969 0
4.1391296 6.6992064 -0.14006655 0
4.8092728 6.648634 -0.1945243 0
7.0515966 9.0386324 -0.30519935 0
5.5867348 6.6485796 -0.25713405 0
3.7831051 6.6513581 -0.24876115 0
4.1077595 6.6484337 -0.27755168 0
4.8158708 6.6577559 -0.34036988 0
6.3785858 8.1759777 -0.45982787 0
5.5829329 6.6440549 -0.41077551 0
3.7902184 6.6638646 -0.38487259 0
4.1192355 6.6670074 -0.41716135 0
5.5549798 8.3010626 -0.56087893 0
1.919022 2.6529739 -0.19361056 0
6.3406849 8.1273956 -0.6393252 0
5.6005054 6.6649671 -0.56632257 0
4.1168222 6.6631017 -0.55565673 0
4.5014577 6.7267356 -0.59779161 0
4.7988148 6.6341767 -0.62930214 0
5.5724435 7.1426759 -0.72236538 0
5.5701323 6.6288214 -0.7167176 0
3.990016 7.0151434 -0.69103193 0
4.108953 6.6503649 -0.69300365 0
4.7363915 7.0778084 -0.77969772 0
4.828927 6.6758056 -0.77927178 0
5.4633803 7.0028801 -0.86540431 0
5.5534873 6.6090131 -0.86757427 0
4.0325804 7.0899796 -0.84289885 1
4.11865 6.66606 -0.83353168 0
4.44279 6.6390662 -0.87276286 0
4.4601049 6.6649404 -1.018373 14
4.4231663 6.6097412 -1.1507471 32
4.4442472 6.6412439 -1.2991403 12
4.4421453 6.6381025 -1.4168596 16
4.4385743 6.6327662 -1.5811266 4
4.4403815 6.6354671 -1.723314 8
4.4387207 6.6329846 -1.864321 10
4.431591 6.6223307 -2.0020974 6
3.5134535 5.2503157 -2.1830454 0
2.5127151 3.7548659 -2.1136203 0
13.35994 19.821846 3.310554 4
18.93375 28.091585 2.894124 1
4.5460167 6.7448244 0.40720224 0
4.5381546 6.73316 0.2628338 0
4.872932 6.6898127 0.2436142 0
5.2710376 6.7103353 0.22553144 0
5.6793904 6.7135177 0.20692475 0
5.0313802 8.7781773 0.20787574 0
4.1761274 6.7092299 0.13932312 0
5.6286721 8.3511362 0.14748217 0
4.8888364 6.711647 0.097392164 0
7.0738869 9.0054665 0.10013615 0
5.6421151 6.6694551 0.050925344 0
3.8329945 6.6873713 0.021928357 0
4.1619802 6.686501 -0.00068731065 0
4.5002699 6.6769509 -0.024452861 0
4.8608241 6.6731911 -0.049424075 0
1.9766331 2.5163679 -0.028539244 0
5.6547279 6.6843643 -0.10422148 0
3.8664005 6.7456541 -0.11521935 0
4.1549816 6.6752577 -0.13985313 0
5.5699544 8.2640181 -0.20649286 0
4.8595462 6.6714363 -0.19566187 0
7.0667114 8.9963322 -0.30456066 0
5.6345749 6.660542 -0.25831792 0
3.8369505 6.694273 -0.25084066 0
4.1509085 6.6687136 -0.2789714 0
5.5782056 8.2762594 -0.38376582 1
4.8614526 6.6740537 -0.34202537 0
5.653965 6.6834631 -0.41436887 0
3.8242159 6.6720552 -0.38607594 0
4.1370997 6.6465287 -0.41673613 0
5.5690827 8.2627249 -0.55953336 1
1.8784381 2.5788169 -0.18865225 0
7.0531917 8.9791203 -0.7081604 0
5.6638246 6.6951175 -0.57047713 0
3.8122904 6.6512489 -0.5207563 0
4.1473289 6.6629629 -0.55678904 0
4.5215096 6.7084641 -0.59749699 0
4.0576334 5.570529 -0.52968055 0
5.5739312 7.0959358 -0.71950388 0
5.6410017 6.668139 -0.72298723 0
4.0489311 7.0641131 -0.69717443 1
4.1330891 6.6400857 -0.69335687 0
4.7687411 7.0752754 -0.78115648 1
4.8463483 6.6533175 -0.7785185 0
5.4644399 6.9565473 -0.8619132 0
5.619072 6.6422157 -0.87437409 0
4.0521131 7.069664 -0.84207648 0
4.1302233 6.6354814 -0.83141613 0
4.4736705 6.637486 -0.87450057 0
4.4910531 6.6632762 -1.0203886 14
4.4627609 6.6212993 -1.1553293 21
4.4750724 6.6395659 -1.3017079 12
4.4773402 6.6429305 -1.4210515 15
4.4693165 6.6310263 -1.5842359 3
4.4689164 6.6304326 -1.7258459 8
4.4781075 6.6440687 -1.8715999 9
4.4470215 6.5979476 -1.999173 5
3.5329576 5.2417707 -2.1843517 0
2.5312276 3.7555263 -2.118705 0
17.037634 25.088951 5.8170381 0
13.900948 20.46999 3.426887 0
18.910786 27.847279 2.8757379 2
4.5672889 6.7256098 0.40700224 0
4.5863361 6.7536588 0.26425731 0
4.9246383 6.7114453 0.24502645 0
5.3018718 6.701303 0.2258485 0
1.0943964 1.284548 0.039709978 1
5.0679927 8.7709494 0.20812224 0
4.2058978 6.7047749 0.13953465 0
6.0487561 8.9071608 0.15767355 0
6.6111674 9.0098982 0.13107596 0
7.1027956 8.977582 0.10010117 0
5.6835203 6.6710334 0.051088568 0
2.889734 5.0011339 0.016432043 0
4.2214303 6.7295361 -0.00069324474 0
4.5460215 6.6942925 -0.024574336 0
4.9053855 6.6852069 -0.049639586 0
5.2737312 6.6657348 -0.075807363 0
3.8378975 6.6420784 -0.11367835 0
4.1931343 6.6844287 -0.14035109 0
4.4551988 6.5605507 -0.16431594 0
2.491082 3.3949213 -0.099821679 0
7.1005521 8.9747458 -0.30466712 0
5.6966844 6.6864848 -0.26009369 0
3.8382924 6.6427617 -0.249411 0
4.1720366 6.6507964 -0.27882943 0
2.8253825 3.8505163 -0.19783171 0
7.0787382 8.9471741 -0.50589925 0
5.7342663 6.7305961 -0.41852957 0
3.8774624 6.7105513 -0.38908434 0
4.1517849 6.6185117 -0.41588563 0
6.3662319 8.6760921 -0.63631767 0
5.4694257 6.9130826 -0.54671961 0
5.6845717 6.6722674 -0.57021749 0
3.8374805 6.6413565 -0.52102739 0
4.1620808 6.6349249 -0.55565673 0
6.2618642 8.5338564 -0.81352556 0
5.5640302 7.0326586 -0.71505266 0
5.6642437 6.648407 -0.72298723 0
4.0695767 7.043035 -0.6964919 0
4.1689458 6.6458688 -0.69547611 0
4.7844586 7.0454054 -0.77969772 0
5.9461675 8.1036158 -0.95064378 0
5.4541063 6.8937201 -0.85648263 0
5.6422234 6.622561 -0.87437409 0
4.0449162 7.0003557 -0.83549774 0
4.1744967 6.6547179 -0.83564728 0
4.5012803 6.6284084 -0.87536943 0
4.5165143 6.6508417 -1.0208925 14
4.4836221 6.602406 -1.1547565 24
4.5070934 6.6369686 -1.3042753 11
4.5005012 6.6272612 -1.4210515 16
4.5166836 6.6510911 -1.5927868 4
4.5052133 6.6342001 -1.7309095 8
4.5122137 6.6445088 -1.8761493 6
4.494 6.6176872 -2.0098951 6
3.5448616 5.2200236 -2.1804323 0
2.5260022 3.7196915 -2.1034503 0
16.506208 24.124769 5.6068106 0
13.983504 20.437693 3.4296308 2
18.989872 27.754786 2.873014 3
4.6110406 6.7392998 0.40880227 0
4.5873079 6.7046132 0.26296321 0
4.9836836 6.7424431 0.24679177 0
5.3601184 6.7265348 0.22732809 0
5.7495565 6.7010188 0.20777164 0
5.1026044 8.7601166 0.20828657 0
4.2463722 6.7170973 0.14009871 1
3.8213375 5.5851035 0.099102393 0
6.6520867 8.9996319 0.13126361 0
7.1964083 9.0309372 0.10097557 0
5.7302136 6.6784749 0.051298425 0
3.8956938 6.6881003 0.022019394 0
4.2277956 6.6877122 -0.00069045223 0
4.5829134 6.6981907 -0.024647221 0
4.9405789 6.6841259 -0.049759317 0
5.3144159 6.6691823 -0.076057084 0
3.2660458 3.8065257 -0.059704766 0
3.9234648 6.7357774 -0.11551569 0
4.2207155 6.6765127 -0.14049336 0
4.6000171 6.7231884 -0.1687905 0
7.7403412 9.0212479 -0.35196111 0
3.8795669 6.6604137 -0.25058073 0
4.1973629 6.6395721 -0.2789714 0
6.3665271 8.6132965 -0.44367278 0
7.0850244 8.8911591 -0.50412726 0
5.7603273 6.713572 -0.4187187 0
3.870702 6.645195 -0.38607594 0
5.5643482 8.8019295 -0.55430156 0
2.9620798 4.0074077 -0.29466584 0
7.0435534 8.8391161 -0.70097977 0
5.7312202 6.6796484 -0.57255447 0
3.8666663 6.6382661 -0.52184063 0
4.1937432 6.6338468 -0.55678904 0
4.5885067 6.7063651 -0.60014862 0
6.2726493 8.486289 -0.8110733 0
5.5761209 6.9976015 -0.71346295 0
5.7107782 6.6558237 -0.7259571 0
3.8714769 6.6465249 -0.65861315 0
4.1836023 6.6178055 -0.69406331 0
4.7752824 6.9793491 -0.77422744 0
5.9886198 8.102025 -0.95290363 0
5.4830995 6.8808665 -0.85725838 0
5.6964059 6.6390729 -0.87917393 0
4.0573115 6.9655647 -0.83303076 0
4.180697 6.6132092 -0.8322624 0
4.5401082 6.6356282 -0.8784104 0
4.5509062 6.6514101 -1.0234119 12
4.5289965 6.6193876 -1.1604846 26
4.5614462 6.6668148 -1.3132614 12
4.5369515 6.6310143 -1.4252435 15
4.5354414 6.6288075 -1.5912321 5
4.5371757 6.6313419 -1.7342852 7
4.5419784 6.6383619 -1.878879 6
4.5302162 6.6211705 -2.0157435 4
3.5651963 5.2107382 -2.1817389 0
2.5451088 3.7198222 -2.1085353 0
16.554646 24.015255 5.5947547 1
13.98055 20.281103 3.4115224 1
19.091162 27.694891 2.8736949 2
4.6345367 6.7231631 0.40880227 0
4.6311045 6.718184 0.26412791 0
4.9976382 6.7121773 0.24632102 0
3.3512757 4.1756034 0.14151201 0
4.5649934 5.2830009 0.16429769 0
5.1250515 8.7284575 0.20795791 0
4.2848358 6.7258444 0.14059226 1
4.5535841 6.6057281 0.11749374 0
6.7097373 9.0116463 0.13177967 0
7.2178731 8.9932842 0.10083567 0
7.8221321 9.0524406 0.069742538 0
3.9250913 6.6848092 0.022053532 0
4.2661591 6.696528 -0.00069289567 0
4.5971856 6.6689792 -0.024598632 0
4.9758248 6.6828804 -0.049879044 0
5.375217 6.697382 -0.076592192 0
7.7981749 9.0247154 -0.14197737 0
3.9186008 6.6737552 -0.11468592 0
4.2482939 6.6684847 -0.14063562 0
5.3635154 6.6828022 -0.22812775 0
7.8502078 9.0849323 -0.35551268 0
3.9432774 6.7157817 -0.25318012 0
2.2413266 3.2514153 -0.15184647 0
4.2084842 4.8704181 -0.30467743 0
3.9201703 6.6764283 -0.3886832 0
4.2300816 6.6398978 -0.41907495 0
6.3336458 8.5065289 -0.62710935 0
7.0443778 8.777113 -0.69800842 0
5.7727695 6.6807427 -0.57437211 0
3.9120414 6.6625838 -0.52482259 0
4.3047709 6.7571363 -0.56839466 0
4.61868 6.70016 -0.6010325 0
6.3022342 8.4643412 -0.8110733 0
5.4832115 6.8319402 -0.69851965 0
5.7470093 6.6509309 -0.72760701 0
3.9047432 6.6501546 -0.66031939 0
4.2302265 6.6401253 -0.69794863 0
4.7860513 6.9429598 -0.77203935 0
6.0335131 8.1034298 -0.95554012 0
5.4123926 6.7437019 -0.84251821 0
5.7351584 6.6372161 -0.88157386 0
4.0392942 6.8793077 -0.82439613 0
4.2251277 6.6321216 -0.83649349 0
4.5812974 6.6459308 -0.88188583 0
4.5876088 6.655086 -1.0264353 13
4.5722957 6.6328721 -1.1656398 22
4.5891714 6.6573529 -1.3145452 12
4.573482 6.6345935 -1.4294354 14
4.5719142 6.6323185 -1.5958961 7
4.5802674 6.6444364 -1.7418807 8
4.5629125 6.6192598 -1.877969 9
4.5555024 6.608511 -2.0167181 5
3.5962374 5.216938 -2.1895773 0
2.5642469 3.7198646 -2.1136203 0
13.949553 20.085733 3.3868289 1
19.610577 28.236948 2.9370253 1
4.6762075 6.7331953 0.41040227 0
3.2086821 4.6201286 0.18208131 0
5.06182 6.7490678 0.24832171 0
5.3089137 6.5676727 0.22320639 0
5.8487 6.7210484 0.20965363 0
5.1799321 8.7518129 0.20894387 0
4.303966 6.7041159 0.14045124 0
3.4381647 4.9505572 0.08826673 0
2.3230457 3.0973828 0.045412146 0
7.289454 9.0178051 0.10139528 0
7.8274264 8.9949064 0.069509365 0
3.9585886 6.6882787 0.022110431 0
4.2916689 6.6849613 -0.00069324474 0
4.6660705 6.7185984 -0.024841581 0
5.0207224 6.6942716 -0.050094556 0
5.3759322 6.6505814 -0.076271124 0
7.8742657 9.0487318 -0.14278676 0
3.9459474 6.6669202 -0.11480446 0
4.2845082 6.6738076 -0.14106245 0
4.6034975 6.6285014 -0.16721612 0
5.5712485 7.4283037 -0.22011961 0
5.3918381 6.6702585 -0.22834066 0
1.871387 2.1505089 -0.08440911 0
3.9585507 6.6882143 -0.25266024 0
4.2846456 6.6740217 -0.28166881 0
4.6056457 6.6315947 -0.31045532 0
5.5608449 7.414432 -0.3839094 0
5.3608198 6.631886 -0.37813976 0
5.8254166 6.6942916 -0.42004254 0
3.9780433 6.721148 -0.3920927 0
5.5825033 8.6956434 -0.55004913 0
5.5559087 7.4078507 -0.54754013 0
5.5641055 6.8833714 -0.54894811 0
5.8065362 6.6725955 -0.57541072 0
3.9413726 6.6591907 -0.52563584 0
4.2658205 6.6446986 -0.56018579 0
4.6579685 6.706933 -0.60309482 0
5.5564265 7.4085412 -0.71175826 1
5.547132 6.8623734 -0.70360672 0
5.7806582 6.6428576 -0.7289269 0
3.9847713 6.7325158 -0.66987437 0
4.2727513 6.6554947 -0.70112753 0
4.7693577 6.8673205 -0.76547498 0
5.5552216 7.4069343 -0.87569207 1
5.4834514 6.7835937 -0.84988832 0
5.7426167 6.5991421 -0.87917393 0
4.0389643 6.8240776 -0.81946212 0
4.2632937 6.6407628 -0.83945531 0
4.6067362 6.6331644 -0.88232023 0
4.6176019 6.6488099 -1.0279469 12
4.5909047 6.6103687 -1.1644942 20
4.6123819 6.641293 -1.3145452 12
4.6056004 6.6315289 -1.43223 16
4.6039906 6.6292109 -1.5990056 7
4.5989718 6.621985 -1.7401928 8
4.6059871 6.6320858 -1.8861579 9
4.5741172 6.5861969 -2.0147688 3
3.6122694 5.2012477 -2.188271 0
2.5730822 3.7049394 -2.1102302 0
19.132683 27.344614 4.6220446 6
3.0708237 4.3888507 0.4576121 0
4.7180047 6.7430177 0.41200227 0
3.1789503 4.543386 0.1794931 0
5.0877581 6.7345481 0.2484394 0
5.4479346 6.6917424 0.22806789 0
5.885303 6.7156291 0.21012414 0
5.226841 8.7611532 0.20960119 0
4.3490653 6.7226315 0.14115632 0
4.6523266 6.6491494 0.11884087 0
6.7990069 8.9996891 0.13229571 0
5.3561926 6.5790548 0.074183986 0
7.8851385 8.997611 0.069742538 0
3.9901083 6.6881604 0.022155948 0
4.3323593 6.6968079 -0.00069603731 0
4.6619768 6.6629415 -0.024695812 0
5.0392365 6.6703215 -0.050046667 0
5.4243674 6.6627951 -0.076627865 0
7.8662605 8.9760704 -0.14207259 0
3.9773912 6.6668444 -0.11504154 0
4.3316741 6.6957488 -0.14184494 0
1.8446248 2.1048732 -0.082870089 0
3.9839208 6.6777887 -0.25279021 0
4.292717 6.6355305 -0.28067502 0
6.3889208 8.4568682 -0.43903738 0
6.2542887 7.1366735 -0.44916752 0
3.9625909 6.642036 -0.38828209 0
5.6301804 8.7029333 -0.55175012 0
5.5841398 7.3915977 -0.54777622 0
5.5729756 6.8453312 -0.54746246 0
5.9508076 6.7903752 -0.5873552 0
3.9850399 6.6796646 -0.52834666 0
5.5589981 8.5929031 -0.72606194 0
4.69736 6.7135119 -0.6051572 0
5.5461922 7.3413668 -0.70716029 0
5.5660176 6.8367848 -0.70297086 0
5.8327107 6.6556172 -0.7325567 0
4.0511274 6.7904401 -0.67704064 1
5.5576921 8.5908842 -0.90705061 0
4.7590466 6.8016744 -0.7600047 0
5.5642395 7.3652558 -0.87305558 0
5.5397725 6.8045478 -0.854931 0
5.8311944 6.6538868 -0.88917363 0
4.0301433 6.7552667 -0.81288338 1
4.3166957 6.672596 -0.84537888 0
4.6344213 6.6235595 -0.88318908 0
4.6544318 6.6521583 -1.0309703 13
4.629838 6.6170087 -1.1685036 24
4.6491165 6.6445618 -1.3183963 12
4.6422682 6.6347737 -1.4364219 15
4.642849 6.6356039 -1.604447 6
4.6422334 6.6347241 -1.7477882 7
4.6469741 6.6414995 -1.8934368 10
4.6259918 6.6115117 -2.0274403 1
3.630403 5.1886067 -2.188271 0
2.5797679 3.6870291 -2.1051455 0
2.6180236 3.7154138 0.87180215 0
19.503973 27.679399 4.6895399 1
19.618671 27.842176 2.9097865 4
4.7472429 6.7371316 0.41260228 0
4.7483969 6.7387695 0.26684552 0
5.1149039 6.7240043 0.24867478 0
5.5106525 6.7231197 0.22975884 0
5.8969579 6.6840811 0.20974773 0
4.0938478 6.8106136 0.16326052 0
5.7229104 8.7822781 0.18480057 0
6.2340031 8.8470936 0.15849355 0
6.8385 8.9898272 0.13248336 0
2.2490656 2.7439106 0.031023668 0
7.9757967 9.0404024 0.070278838 0
4.0081439 6.6680346 0.022133188 0
4.3523588 6.6790538 -0.00069568824 0
4.718606 6.6964917 -0.024878023 0
5.0807018 6.6790423 -0.050238233 0
5.4895372 6.6973586 -0.077234328 0
5.8611274 6.6434679 -0.10545938 0
4.020083 6.6878972 -0.11563423 0
4.2839828 6.5741248 -0.1395686 0
4.6945801 6.6623945 -0.16887337 0
5.4827414 6.6890674 -0.2302568 0
7.8322453 8.8776894 -0.35054049 0
4.022521 6.6919532 -0.25382996 0
4.3736234 6.7116857 -0.28450823 0
3.2508705 4.6135292 -0.21701135 0
6.4822607 8.5215178 -0.44350722 0
5.3906384 6.5766997 -0.37707657 0
5.9527907 6.7473664 -0.42590538 0
4.0113516 6.6733708 -0.39088935 0
6.2823749 8.915741 -0.61245918 0
5.5336781 7.2745204 -0.54045683 0
7.0483365 8.5991287 -0.68958974 0
4.011281 6.6732535 -0.52888888 0
5.5569649 8.5276203 -0.72209901 0
4.7287884 6.7109418 -0.6063357 0
5.5560188 7.3038893 -0.70532113 0
5.5659094 6.7905345 -0.70010936 0
5.8652987 6.6481962 -0.73387659 0
4.0387187 6.7188993 -0.67123938 0
5.5600462 8.5323496 -0.90281206 0
4.7586308 6.753293 -0.75635785 0
5.4102211 7.1122255 -0.84518409 0
5.5067844 6.718401 -0.84639722 0
5.8453283 6.6255598 -0.88797367 0
4.0033269 6.6600213 -0.80301529 0
4.3301129 6.6449151 -0.8436864 0
4.6494894 6.5984035 -0.88188583 0
4.6833229 6.6464186 -1.032482 13
4.6722775 6.6307435 -1.1736588 23
4.6870446 6.6517 -1.3228894 12
4.6823926 6.6450987 -1.442011 15
4.6761284 6.6362085 -1.6083337 7
4.6732183 6.6320782 -1.751164 7
4.6734591 6.6324205 -1.8952565 9
4.6590638 6.6119909 -2.0323141 0
3.6258128 5.1456351 -2.1752067 0
2.6086762 3.702148 -2.118705 0
19.614231 27.630529 2.894805 4
4.7661061 6.7140045 0.41220227 0
4.7742052 6.7254138 0.26697496 0
5.1383438 6.706109 0.24867478 0
5.5468149 6.7192612 0.23028727 0
5.9707184 6.7202559 0.21153562 0
4.0968733 6.7620788 0.16243887 0
4.401309 6.7029018 0.14136784 0
6.2879992 8.857892 0.15907925 0
6.8820019 8.9817762 0.13271794 0
5.5358081 6.7059283 0.076037712 0
7.988708 8.9915743 0.070115618 0
4.0355406 6.6608458 0.022155948 0
4.3866243 6.6805382 -0.00069743354 0
4.7211146 6.6506252 -0.024768695 0
5.0966864 6.6517415 -0.050166395 0
5.4950571 6.6565638 -0.076984607 0
7.9882774 8.9910898 -0.14316764 0
4.0475488 6.680666 -0.11575277 0
4.3661742 6.649394 -0.14148927 0
2.4214067 3.4110312 -0.086673968 0
2.99154 3.9042919 -0.11660083 0
5.4958754 6.6575546 -0.22983098 0
7.9747214 8.975832 -0.35551268 0
4.0582852 6.6983871 -0.25460976 0
4.3619194 6.6429138 -0.2822367 0
5.4975133 6.6595387 -0.38292408 0
6.2416844 7.0252376 -0.44481769 0
4.0263405 6.6456614 -0.39008713 0
4.3826156 6.6744328 -0.42502832 0
6.3203936 8.9035263 -0.61313194 0
5.5517511 7.2456512 -0.53974849 0
5.4872789 6.647141 -0.53458679 0
6.0764246 6.8392315 -0.59514505 0
4.0428219 6.6728644 -0.52997321 0
5.5516586 8.4548082 -0.71757001 0
4.7568035 6.7009006 -0.60692495 0
5.5402436 7.2306333 -0.70011014 0
5.4575815 6.6111665 -0.68357635 0
5.9017081 6.6425819 -0.7355265 0
4.0187788 6.6331801 -0.66407317 0
5.5438709 8.4429474 -0.89539462 0
6.2002263 8.7342472 -0.98063946 0
5.4543905 7.1185851 -0.84819722 1
5.4643068 6.6193137 -0.83631182 0
5.8895674 6.6289172 -0.8911736 0
3.9976859 6.5983653 -0.79725891 0
4.3598313 6.6397338 -0.84495574 0
4.7001147 6.6210432 -0.88709897 0
4.7225733 6.6526804 -1.0360093 15
4.6999779 6.6208501 -1.1748044 25
4.7148056 6.6417379 -1.3241732 12
4.7146797 6.6415606 -1.4448056 15
4.7083497 6.6326432 -1.6114432 7
4.7008662 6.6221013 -1.7528517 8
4.7101107 6.6351242 -1.9007157 10
4.6776242 6.5893607 -2.0303645 0
3.6525061 5.1452785 -2.1804323 0
2.6215835 3.6930196 -2.118705 0
5.4970841 7.6839118 1.812173 0
19.330378 27.020309 4.6011925 0
19.736238 27.587627 2.8978693 1
4.8092771 6.7224841 0.4138023 0
5.1995392 6.7347026 0.25044009 0
5.6123142 6.7480741 0.23197822 0
6.0166454 6.7221642 0.21228842 0
4.092443 6.6992388 0.16128857 0
4.4324694 6.6967301 0.14157937 0
6.301805 8.8087635 0.15861069 0
6.9246521 8.9691553 0.13290559 0
5.5808105 6.7101951 0.076317519 0
8.0429516 8.9860783 0.070302159 0
4.0870342 6.6903849 0.022303881 0
4.4375734 6.7044415 -0.00070162234 0
4.7664037 6.6625552 -0.024878023 0
5.1454763 6.6646781 -0.050405852 0
5.5398788 6.6609802 -0.077270001 0
8.0611906 9.0064554 -0.14388183 0
4.0720072 6.6657858 -0.11575277 0
2.9711587 4.4889312 -0.095748894 0
6.9916086 9.0558805 -0.27121541 0
5.5637059 6.6896291 -0.23164068 0
8.0635633 9.0091066 -0.35799879 0
4.0765562 6.6732326 -0.25421986 0
4.3950629 6.6402154 -0.28280458 0
4.7861624 6.6901736 -0.31629556 0
6.9582729 9.012702 -0.47165066 0
5.5269947 6.6454887 -0.38327849 0
6.0755329 6.7879572 -0.43120083 0
4.0423408 6.6172228 -0.38928488 0
4.3695707 6.6017008 -0.42141378 0
6.343689 8.8673096 -0.61223489 0
5.57339 7.2189326 -0.53927624 0
5.4733119 6.5809422 -0.5308727 0
6.002955 6.7068682 -0.58553755 0
4.0776544 6.6750298 -0.53132862 0
5.5605874 8.4011316 -0.71473932 0
4.7882938 6.6931539 -0.60780883 0
5.4667802 7.0808463 -0.6875425 0
5.5633655 6.68922 -0.69375056 0
5.9552598 6.6535807 -0.73915631 0
4.0700731 6.6626191 -0.66850942 0
5.5461898 8.3793783 -0.89080286 0
6.1904788 8.6531506 -0.97407514 0
5.4439406 7.0512638 -0.8425476 1
5.5318079 6.6512761 -0.84290612 0
5.9377136 6.6339769 -0.89477348 0
4.0405111 6.6142268 -0.80095947 0
4.3929195 6.6369772 -0.84664822 0
4.735918 6.6199417 -0.88927108 0
4.7584691 6.651464 -1.0385288 12
4.7334266 6.6164589 -1.1770957 22
4.7597914 6.6533122 -1.32995 12
4.7504482 6.6402521 -1.4482988 15
4.7417598 6.6281071 -1.6145525 8
4.7387557 6.623908 -1.7579154 8
4.7525282 6.6431599 -1.9079947 9
5.2502432 7.3388734 -2.2672241 0
3.6713398 5.1318569 -2.1804323 0
2.6351011 3.6833863 -2.118705 0
19.419947 26.946241 4.6000953 0
3.9986405 5.5483332 0.58427256 0
4.8420572 6.7186198 0.41460228 0
4.8712955 6.7591896 0.26969257 0
5.2254705 6.7196674 0.25055778 0
5.6178622 6.706985 0.23123842 0
6.0641685 6.7278543 0.21313532 0
2.2392652 3.6370282 0.0877515 0
5.860466 8.7873983 0.18621071 0
6.3465457 8.80618 0.15896212 0
6.9755616 8.9701881 0.1332809 0
5.5862207 6.6692095 0.076072693 0
8.1171179 9.0054855 0.070675239 0
4.1271405 6.7033272 0.022394918 0
4.4476328 6.6689439 -0.00069952797 0
4.8223734 6.6913075 -0.025048088 0
5.1834421 6.6656213 -0.050549526 0
5.6041903 6.6906629 -0.077840783 0
8.1140022 9.0020294 -0.14426272 0
4.1036382 6.665154 -0.11598985 0
4.4025493 6.6013436 -0.14113358 0
4.837728 6.7126131 -0.17144211 0
7.0501809 9.066144 -0.27225819 0
5.5818877 6.6640363 -0.23142777 0
8.0628386 8.9452658 -0.35657817 0
4.1124015 6.679388 -0.25499967 0
4.4603567 6.6880226 -0.28550202 0
4.800139 6.6604557 -0.3156808 0
6.3591714 8.1775446 -0.42910442 0
6.1954927 6.8735514 -0.43800926 0
4.1010213 6.6609039 -0.39269438 0
4.459075 6.686101 -0.42779237 0
6.3582582 8.8224316 -0.61066508 0
5.5617871 7.1521521 -0.53573459 0
5.5475216 6.6230078 -0.53582484 0
6.0450358 6.7066278 -0.5873552 0
4.1009297 6.6607552 -0.53132862 0
4.825623 6.6958165 -0.60957658 0
5.4792228 7.0459785 -0.68600988 0
5.5457158 6.6208515 -0.68866348 0
5.9811172 6.6357136 -0.73948628 0
4.0933051 6.6483712 -0.66850942 0
4.7331262 7.097023 -0.75622874 0
4.7953248 6.6537757 -0.75088757 0
5.4562988 7.0165 -0.84066439 0
5.5601044 6.6380301 -0.84368193 0
5.9954739 6.6516414 -0.89997333 0
4.0927787 6.6475163 -0.80671585 0
4.4248877 6.6348391 -0.84834063 0
4.7636471 6.6098213 -0.89013994 0
4.7978988 6.6573472 -1.0420561 11
4.7634373 6.6095304 -1.1788141 24
4.794529 6.6526718 -1.3331593 12
4.7851119 6.639605 -1.4517921 15
4.7946906 6.6528964 -1.624658 7
4.7778511 6.62953 -1.7638229 7
4.7825208 6.6360097 -1.9107243 10
5.3007793 7.3551216 -2.2779462 0
3.7002833 5.134346 -2.1869645 0
2.6415875 3.6653476 -2.1136203 0
23.946337 32.983513 3.482142 1
4.8819089 6.7243071 0.4160023 0
4.8713717 6.7097931 0.26839846 0
5.2710834 6.7297163 0.25161698 0
5.6567092 6.7056723 0.23187254 0
6.1064305 6.7273722 0.21379401 0
4.1644154 6.7112823 0.16227454 0
5.578815 8.3021526 0.17633964 0
6.3960443 8.809866 0.15943068 0
7.0339599 8.980422 0.13379695 0
5.6455736 6.692472 0.076562352 0
8.1726999 9.0037527 0.070885092 0
4.1652775 6.7126713 0.022474576 0
4.4931946 6.6865788 -0.00070301862 0
4.8715506 6.7100391 -0.025181711 0
5.2066774 6.6474876 -0.050549526 0
5.6171951 6.6588311 -0.077698089 0
8.1319351 8.9588432 -0.14402466 0
4.1500754 6.6881723 -0.11664181 0
3.0514987 4.5411091 -0.097313881 0
4.8564305 6.6892133 -0.17127638 0
7.0521946 9.0037022 -0.27112061 0
5.5973811 6.6353426 -0.23110841 0
7.8629107 8.6624622 -0.34639698 0
4.133584 6.6615953 -0.2548697 0
4.4680676 6.6491861 -0.28450823 0
4.8374481 6.6630669 -0.31660295 0
7.0456676 8.995369 -0.47330615 0
5.6196337 6.6617217 -0.38646805 0
6.2677865 6.9051356 -0.44141346 0
4.1242471 6.6465483 -0.39269438 0
4.4556527 6.6307111 -0.42524093 0
4.8263698 6.6478071 -0.46130666 0
5.5473237 7.0823989 -0.53195685 0
5.5757546 6.6097064 -0.53632009 0
6.0871897 6.7061749 -0.58917284 0
4.1367803 6.6667461 -0.53295517 0
4.4730282 6.6565681 -0.56896079 0
4.8442788 6.6724749 -0.60898733 0
5.5308361 7.061348 -0.68938166 0
5.6176419 6.6593609 -0.69470435 0
6.0310369 6.6443119 -0.74278611 0
4.1185889 6.6374288 -0.66885066 0
4.7645369 7.0903788 -0.7572884 1
4.8232012 6.6434431 -0.75161695 0
5.4512911 6.9597912 -0.83614469 0
5.6063447 6.6459684 -0.84717298 0
6.0641308 6.6807714 -0.90677315 0
4.1180558 6.6365705 -0.807127 0
4.4546757 6.6292567 -0.84960997 0
4.8193955 6.6382017 -0.89622188 0
4.8281016 6.6501927 -1.0435678 12
4.8004341 6.6120834 -1.1822507 29
4.8339586 6.6582603 -1.3376524 11
4.8175144 6.6356101 -1.4545867 15
4.8155789 6.6329446 -1.6238806 7
4.8101516 6.6254687 -1.7671987 6
4.805655 6.6192756 -1.9107243 8
5.3036289 7.3051805 -2.2681987 0
3.707077 5.1061015 -2.1804323 0
2.6522369 3.6531723 -2.1119251 0
2.2115624 3.0239308 0.32005608 0
4.9195023 6.726572 0.41720229 0
4.918365 6.7250171 0.26969257 0
5.309401 6.7301097 0.25232309 0
5.7111492 6.7224541 0.23314075 0
6.1352725 6.7119198 0.21398221 0
4.2026596 6.7204404 0.16284969 0
5.9463339 8.7826996 0.1869863 0
6.4409242 8.8068552 0.15978211 0
7.0875607 8.9840746 0.13421917 0
7.6215501 8.9711409 0.10293422 0
8.2175722 8.9899321 0.071001686 0
4.1929255 6.704874 0.022497334 0
4.5187502 6.6741667 -0.0007033677 0
4.8878598 6.6833067 -0.025145268 0
5.2917862 6.7077808 -0.051148172 0
7.9931479 8.7444153 -0.14102514 0
4.1691551 6.6668634 -0.11652327 0
4.5135512 6.6664877 -0.14319652 0
7.0984411 8.9978676 -0.27168939 0
7.9713297 8.7205458 -0.34983018 0
4.1716504 6.6708536 -0.2557795 0
5.6118217 8.2886267 -0.35549331 0
6.3613524 8.6980543 -0.41435027 0
7.0794997 8.9738569 -0.4734717 0
5.6945987 6.7029734 -0.390012 0
6.2621984 6.8507757 -0.43933311 0
4.1241226 6.5948524 -0.39048824 0
6.3348222 8.6617785 -0.60259163 0
5.5448079 7.0285068 -0.52935964 0
5.6168876 6.6115012 -0.53805333 0
6.0970955 6.6701546 -0.58787453 0
4.1579103 6.6488819 -0.53268409 0
6.1068287 9.0197487 -0.77276766 0
4.9240584 6.7328019 -0.61605829 0
5.5258088 7.0044241 -0.68570334 0
3.5187566 4.1418428 -0.43335563 0
6.0649509 6.6349888 -0.74410599 0
4.1417327 6.6230121 -0.66885066 0
4.7914915 7.0770035 -0.75764161 0
6.1138005 8.3595695 -0.94818246 0
5.448421 6.9063282 -0.83200163 0
5.6243539 6.6202898 -0.84639722 0
6.0632463 6.6331244 -0.90317321 0
4.1707315 6.669384 -0.81288338 0
4.4978585 6.6433101 -0.85341799 0
4.8472333 6.6277566 -0.89709073 0
4.8583131 6.6429067 -1.0450795 13
4.8421817 6.6208496 -1.1868331 22
4.8618331 6.6477194 -1.3389361 12
4.852273 6.6346478 -1.4580799 15
4.8549175 6.6382632 -1.6293222 8
4.8517151 6.6338849 -1.7739501 6
4.8448281 6.6244683 -1.9170934 9
5.3222265 7.2772279 -2.2652745 0
3.7315738 5.1022849 -2.1843517 0
2.6521401 3.6263449 -2.1017554 0
24.223297 32.879707 3.4889517 3
4.9476914 6.7157927 0.4176023 0
4.963151 6.7367768 0.27085727 0
5.3676839 6.7553611 0.25397074 0
5.7527766 6.7237458 0.23388055 0
6.1749139 6.7081156 0.21454681 0
4.2282248 6.7091126 0.16293186 1
5.9972401 8.7916241 0.18762086 0
4.9248886 6.6848407 0.12159372 0
7.1089239 8.9467545 0.1340315 0
7.6970248 8.99615 0.10352881 0
8.2841196 8.9994507 0.071304813 0
3.4592032 5.4888721 0.018457601 0
4.5532908 6.6748738 -0.00070511299 0
4.9253941 6.6855273 -0.025218152 0
5.3101907 6.6830049 -0.05110028 0
8.0805092 8.7782583 -0.14202498 0
4.2115932 6.6827226 -0.1170567 0
4.5390482 6.653995 -0.14326766 0
7.7673793 9.0783787 -0.31808013 0
7.7878008 8.4602747 -0.34047768 0
4.2140946 6.6866918 -0.25694922 0
4.5729485 6.703691 -0.28819945 0
6.3703384 8.6468353 -0.41296706 0
5.3405447 6.7212057 -0.35560042 0
5.7309508 6.6982365 -0.39089799 0
6.277956 6.8200555 -0.43876576 0
4.1875877 6.6446319 -0.39429885 0
6.3105354 8.5656614 -0.59743363 0
5.5643396 7.0028567 -0.52888739 0
6.3458958 7.4169731 -0.60540283 0
6.1771116 6.7105031 -0.5933274 0
4.1938605 6.6545854 -0.53431058 0
6.1652584 9.0379295 -0.77616447 0
4.9498959 6.7187848 -0.61635292 0
5.4832349 6.900785 -0.67742705 0
5.6665883 6.6230102 -0.69502228 0
6.1177721 6.64604 -0.7477358 0
5.5438933 8.7967424 -0.89032209 0
4.7667699 6.9878225 -0.7498709 0
4.9214425 6.6801634 -0.75964004 0
5.4427667 6.8498545 -0.82748193 0
5.6577816 6.6127176 -0.84794879 0
6.09445 6.6207037 -0.90437317 0
4.1812582 6.6345882 -0.8104164 0
4.5501604 6.6702847 -0.85891849 0
4.8797727 6.6236024 -0.89882845 0
4.8955936 6.6450772 -1.0481029 12
4.8840475 6.6294055 -1.1914155 21
4.8920331 6.6402445 -1.3408618 11
4.8800745 6.6240125 -1.4594772 14
4.8803864 6.6244354 -1.6300994 7
4.877161 6.6200576 -1.7747941 7
4.8794737 6.6231971 -1.9216428 8
5.361402 7.2773466 -2.2711229 0
3.7359064 5.0709653 -2.1765132 0
2.6755271 3.6316502 -2.1102302 0
3.8668027 5.2123537 0.89883763 0
24.232468 32.664764 3.4746513 2
4.9889765 6.7250161 0.41920233 1
4.9878459 6.7234917 0.27098668 0
5.387558 6.7344007 0.25385305 0
5.7515559 6.6773658 0.23292938 0
6.2188692 6.7110672 0.21529961 0
4.2697406 6.7254405 0.16367133 1
6.0376835 8.7881699 0.18797341 0
4.9684763 6.697382 0.12212086 0
7.1585426 8.9481163 0.13440682 0
7.7476983 8.9948206 0.10380862 0
8.322073 8.980731 0.071374759 0
4.2663369 6.7200785 0.022645269 0
4.5776649 6.6630344 -0.00070546207 0
4.9523039 6.6755824 -0.025242448 0
5.3373213 6.6716056 -0.051148172 0
7.7946734 9.0493574 -0.10652272 0
8.0633583 8.70154 -0.14121558 0
4.238018 6.6754727 -0.11717523 0
5.3384161 6.6729736 -0.20258208 0
7.74264 8.9889488 -0.31584463 0
3.1306734 3.3784535 -0.13638049 0
4.2362456 6.6726804 -0.25694922 0
2.2658861 3.2981176 -0.14211214 0
5.3028841 6.6285591 -0.35162723 0
5.7818189 6.7125001 -0.39284715 0
6.2842431 6.7816153 -0.43763101 0
4.2310114 6.6644359 -0.39630446 0
6.3151116 8.5126133 -0.595191 0
5.5401373 6.9251232 -0.52440131 0
6.3444018 7.3656402 -0.60292679 0
6.1776261 6.6665602 -0.59125012 0
5.5741491 8.7800665 -0.70645022 0
2.4853079 3.6174979 -0.31137159 0
4.9792795 6.7119446 -0.61723679 0
5.4687171 6.8358488 -0.67282915 0
5.7197466 6.6404362 -0.69883764 0
6.1587443 6.646184 -0.75004566 0
5.5538087 8.7480278 -0.88725084 0
4.7831469 6.9621243 -0.74881124 0
6.1088543 8.2345829 -0.93870062 0
5.4231615 6.7789044 -0.82107902 0
5.7264466 6.6482148 -0.854931 0
6.1326027 6.6179733 -0.90677315 0
4.218164 6.6441994 -0.81329459 0
4.5790114 6.6649952 -0.86018777 0
4.8969722 6.600997 -0.89795959 0
4.9270592 6.6415534 -1.0501184 12
4.9107223 6.6195312 -1.1925611 21
4.9328446 6.6493516 -1.3459967 12
4.9207869 6.6330981 -1.4650664 13
4.923367 6.6365762 -1.6370956 6
4.9270415 6.6415296 -1.7849213 7
4.9292593 6.6445189 -1.9325612 9
5.3785715 7.2501802 -2.2681987 0
3.7662172 5.076767 -2.1843517 0
2.698349 3.6373074 -2.118705 0
24.370199 32.611904 3.4780562 2
5.0267692 6.7267613 0.42040232 1
5.0232501 6.7220521 0.27163374 0
5.4311013 6.7404609 0.25479454 0
5.7853098 6.6693301 0.23335212 0
6.2477136 6.6951652 0.21548781 0
6.091085 8.7999249 0.18867847 0
5.5568461 7.4361038 0.13594365 0
7.1997719 8.9355316 0.13459447 0
1.7665361 2.0364704 0.02357379 0
8.3288107 8.9253073 0.071164906 0
4.2574339 6.654604 0.022474576 0
4.6304903 6.6897721 -0.00070999993 0
4.9971251 6.6870923 -0.025351774 0
4.3366466 5.3821492 -0.041378297 0
7.8209724 9.0160503 -0.10645138 0
8.03092 8.6060829 -0.14012052 0
4.2677608 6.6707454 -0.11735304 0
5.5299163 7.4000669 -0.19141191 0
5.3215327 6.6044769 -0.20106532 0
7.7739706 8.9618664 -0.31584463 0
7.9134021 8.4801483 -0.34343734 0
4.2379665 6.624176 -0.25564954 0
4.6093726 6.6592622 -0.28763157 0
5.5413752 7.4154005 -0.35594779 0
5.8156891 6.7043514 -0.39355594 0
7.0193529 7.5220685 -0.48699215 0
4.2542491 6.6496263 -0.39630446 0
5.5415287 7.415606 -0.51983899 0
5.529202 6.8622127 -0.52109575 0
6.3177533 7.283133 -0.5979746 0
6.1736269 6.6157727 -0.5886535 0
5.5789552 8.7202148 -0.70319718 0
4.6393194 6.702527 -0.57830197 0
5.0098414 6.7041087 -0.61812067 0
5.5425916 6.87883 -0.67895973 0
5.7611809 6.6415138 -0.70106322 0
6.2009444 6.6450467 -0.75235552 0
5.5413556 8.6614447 -0.88042587 0
4.7688704 6.8896923 -0.74280667 0
5.527143 7.3963556 -0.84534115 1
5.5042567 6.8312531 -0.82974178 0
5.7548361 6.6341996 -0.85570681 0
6.201827 6.6459928 -0.91357291 0
4.2434754 6.6327863 -0.81370574 0
4.6022491 6.6489711 -0.86018777 0
4.9556885 6.6316419 -0.90447599 0
4.9644651 6.6433868 -1.0531417 13
4.9551268 6.6308904 -1.1977162 18
4.972569 6.6542315 -1.3504897 11
4.9651289 6.6442752 -1.4713542 14
4.9465032 6.6193504 -1.6370956 7
4.9618979 6.6399512 -1.7891409 7
4.9710765 6.6522341 -1.9398401 9
5.3992019 7.2251463 -2.2662494 0
3.7771261 5.0545039 -2.1804323 0
2.6980162 3.6104524 -2.1085353 0
4.0389194 5.3656697 0.93011588 0
24.402395 32.418373 3.4664798 3
5.0478168 6.7059813 0.42020231 1
5.06111 6.7236414 0.27241021 0
5.5024662 6.7804494 0.25703064 0
5.8480148 6.6942654 0.2349374 0
6.3039074 6.7082858 0.216617 0
5.6471038 8.7592325 0.21412022 0
6.1286283 8.7884512 0.18889 0
5.5827694 7.4166613 0.13594365 0
7.2384801 8.9196634 0.13473521 0
7.8603024 8.9977455 0.10447316 0
6.2781534 6.6808796 0.053443629 0
4.3174825 6.6968541 0.022668026 0
4.6629663 6.6866922 -0.00071139616 0
5.0252485 6.6759996 -0.02537607 0
5.4089723 6.6652408 -0.05138763 0
6.2668591 6.6688609 -0.10893501 0
6.2818842 9.0082197 -0.19533913 0
2.1910198 2.9107509 -0.075487554 0
5.4554267 6.7224846 -0.20523641 0
5.8637691 6.7122993 -0.23728266 0
6.2618198 6.6634984 -0.27074844 0
6.3556762 8.4434614 -0.40635836 0
5.852201 6.6990576 -0.39444193 0
7.0565124 7.5091681 -0.48774865 0
5.5529695 7.3770723 -0.51849341 0
4.408278 5.4321294 -0.4136655 0
6.2958593 7.2069159 -0.59351766 0
6.265018 6.6669016 -0.59514505 0
5.5812483 8.6570835 -0.69967306 0
4.6809449 6.7124739 -0.58056647 0
5.0524058 6.7120776 -0.62047762 0
5.546464 6.8346663 -0.67650747 0
5.8105617 6.6513925 -0.70424265 0
6.2432113 6.6436958 -0.75466537 0
5.5413227 8.5951548 -0.87564832 0
4.7427506 6.8011031 -0.73503596 0
5.5313678 7.3483748 -0.84205896 0
5.5506525 6.8398275 -0.83313155 0
5.7779584 6.6140709 -0.85570681 0
6.2467918 6.6475067 -0.91677284 0
4.2687583 6.6212778 -0.8141169 0
4.6299801 6.63939 -0.86103404 0
4.9883718 6.6270094 -0.9062137 0
5.0091023 6.6545496 -1.0576768 12
4.9806237 6.6167154 -1.198289 20
5.0076389 6.6526051 -1.3536991 11
4.9930291 6.6331964 -1.4727516 14
4.9955359 6.6365266 -1.6456465 8
4.9968023 6.6382093 -1.7933606 6
4.9895816 6.6286163 -1.9380203 7
5.419723 7.2000556 -2.2642999 0
3.7947466 5.0412884 -2.1804323 0
2.728034 3.6241698 -2.1220951 0
24.559587 32.37952 3.4719274 3
5.0989184 6.7224479 0.42240232 1
5.1050477 6.7305288 0.27344549 0
5.5070343 6.7354736 0.25608912 0
5.9015698 6.7058053 0.23609993 0
6.369689 6.7286963 0.21802849 0
5.6813493 8.7418289 0.21420239 0
6.1699972 8.7790184 0.18917203 0
6.6661549 8.788703 0.16153924 0
7.2609959 8.8806877 0.13454756 0
7.9196534 8.9989033 0.10482292 0
6.3163476 6.6723485 0.05356022 0
4.3419986 6.6809845 0.022668026 0
4.7081428 6.6990094 -0.0007145378 0
5.0641875 6.6766582 -0.025448954 0
5.4586835 6.6763372 -0.051627088 0
7.9804187 9.0679493 -0.10773564 0
6.3050079 6.6603699 -0.10917307 0
4.3415399 6.6802788 -0.11806427 0
2.2089238 2.9122596 -0.075736143 0
5.4623108 6.6807737 -0.20457283 0
7.9303594 9.0110674 -0.31957045 0
4.7002201 4.9651332 -0.2024398 0
4.3266521 6.6573715 -0.25811893 0
6.3696713 8.3978167 -0.40528253 0
5.4262767 6.6367021 -0.35510379 0
5.9110355 6.7165608 -0.3967455 0
6.2929101 6.6475902 -0.43328118 0
5.5992785 7.3821259 -0.52028751 0
5.5402527 6.7761021 -0.5175541 0
6.3064055 7.1658101 -0.59203202 0
3.5453403 3.7451622 -0.33548316 0
5.5716214 8.5729914 -0.69452244 0
4.7353411 6.737709 -0.58424634 0
5.113133 6.7411885 -0.624897 0
5.5235119 6.7556272 -0.67068344 0
5.8428035 6.6390305 -0.70519644 0
6.2921844 6.6468234 -0.75763524 0
5.5467267 8.5346861 -0.87155336 0
4.7653556 6.7804151 -0.73468274 0
5.4667892 7.2074513 -0.82820094 0
5.5252714 6.7577796 -0.82559872 0
5.8573952 6.6556106 -0.86385268 0
6.2574344 6.6101151 -0.91477287 0
4.3016706 6.6189322 -0.81576157 0
4.6474223 6.6126132 -0.8597647 0
5.0390611 6.6435313 -0.91099238 0
5.0502453 6.6582766 -1.0612041 10
5.0215878 6.6204948 -1.2022986 18
5.0415316 6.6467886 -1.3562666 9
5.0315881 6.6336794 -1.4769435 12
5.0269403 6.6275511 -1.6479784 7
5.0352759 6.6385412 -1.7984242 7
5.0256128 6.6258011 -1.9425697 8
5.4531097 7.1894159 -2.2672241 0
3.0021226 3.9580183 -1.7166497 0
2.7128353 3.5766199 -2.1000605 0
24.62649 32.233425 3.4654582 4
5.13448 6.7204814 0.42340234 2
5.1479278 6.7380829 0.27448079 0
5.5457616 6.7347283 0.25679526 0
5.9328985 6.6941419 0.23641698 0
6.4400444 6.7556262 0.21962819 0
4.5637674 6.9688568 0.17114829 0
6.2167821 8.7802763 0.18966559 0
6.7137895 8.7876282 0.16194925 0
7.964283 8.9861708 0.1049978 0
8.3267622 8.7347984 0.070348792 0
4.3893991 6.7025967 0.022793202 0
4.7314978 6.6825347 -0.0007145378 0
5.0826054 6.6525831 -0.025424659 0
5.4895835 6.6665058 -0.051698923 0
7.9695759 8.9921427 -0.10716486 0
8.0558529 8.4506149 -0.13897784 0
4.3473024 6.6383152 -0.11759011 0
4.7700381 6.7369671 -0.14682445 0
5.4906816 6.6678395 -0.20476243 0
7.9325924 8.9504137 -0.31839949 0
7.7908096 8.1725836 -0.33432162 0
4.3323426 6.6154714 -0.25707918 0
6.3746805 8.34377 -0.40374562 0
5.4697347 6.6424017 -0.35642818 0
5.9423962 6.7048583 -0.39727709 0
7.0631976 7.4093161 -0.48453355 0
6.3266745 8.935483 -0.5827927 0
5.5159068 7.2197285 -0.51019573 0
5.4623418 6.6334238 -0.50810969 0
6.2996049 7.1078997 -0.58906066 0
3.5583918 3.7327638 -0.33548316 0
5.584022 8.526782 -0.69235373 0
2.6537864 3.7480772 -0.3258079 0
5.2189741 6.8310752 -0.63491422 0
5.4887505 6.665494 -0.66363335 0
5.8871002 6.642467 -0.70774001 0
6.3208485 6.6305895 -0.75829518 0
5.5393667 8.4585934 -0.8657521 0
6.2395072 8.8123722 -0.95720685 0
5.4096937 7.0807061 -0.81580162 0
5.460228 6.630857 -0.81241626 0
5.8541861 6.6053295 -0.85997367 0
6.3408852 6.651608 -0.9235726 0
4.3356481 6.6205187 -0.81781745 0
4.7026553 6.6417985 -0.86568826 0
5.0694623 6.6353803 -0.9122957 0
5.0903192 6.6626797 -1.0647314 12
5.0542803 6.6155086 -1.2045898 21
5.0862751 6.6573863 -1.3620434 11
5.0642776 6.6285939 -1.479738 13
5.0667191 6.6317897 -1.65342 6
5.0702872 6.6364598 -1.8026439 4
5.0558047 6.6175041 -1.9452993 9
5.4805274 7.1734204 -2.2681987 0
3.830724 5.0140052 -2.1804323 0
2.7363012 3.5815237 -2.1085353 0
24.704826 32.103046 3.4606915 4
5.1773992 6.7278466 0.42500234 4
5.1762929 6.726409 0.27473962 0
5.5666847 6.7122517 0.25667757 0
6.0121431 6.7360377 0.23863636 0
6.4109697 6.6782942 0.21784028 0
5.7158084 8.6618977 0.21321642 0
6.2450705 8.7552662 0.18959507 0
6.7590585 8.7831564 0.16230068 0
5.5380731 6.6777525 0.1017551 0
7.9982648 8.9612989 0.10503278 0
8.3433514 8.6912518 0.070232205 0
4.4017529 6.6705408 0.022736304 0
4.7687325 6.6855168 -0.00071663217 0
5.1204333 6.6538215 -0.025497545 0
5.5332479 6.6719341 -0.051890489 0
8.0275497 8.9941101 -0.1075216 0
7.9495773 8.2810583 -0.13664488 0
4.3968821 6.6631589 -0.11830135 0
