# .PCD v0.7 - Point Cloud Data file format
VERSION 0.7
FIELDS x y z intensity
SIZE 4 4 4 4
TYPE F F F F
COUNT 1 1 1 1
WIDTH 1397
HEIGHT 1
VIEWPOINT 0 0 0 1 0 0 0
POINTS 1397
DATA ascii
-24.420591 22.322529 -0.39384198 30
-28.400291 17.760265 -0.49637964 0
-48.155689 32.603848 -1.0343868 17
-36.408306 26.627342 -0.93460393 4
-36.779499 29.015429 -1.1105517 21
-28.123852 23.892986 -0.98245031 14
-24.417524 22.319727 -0.97952449 29
-27.635906 17.282253 -1.0596393 0
-26.904938 18.216007 -1.1539335 0
-33.943707 24.82485 -1.6169804 1
-31.599909 24.929239 -1.6672494 1
-27.290024 23.184597 -1.587868 10
-19.304852 17.646301 -1.2380003 44
-5.4228849 3.3912284 -0.32109484 0
-16.018509 10.845344 -1.0297209 10
-16.391941 11.988303 -1.1403716 1
-14.533525 11.465531 -1.0946081 5
-21.343616 18.13275 -1.7369738 19
-19.282755 17.626104 -1.699487 29
-16.911505 10.575695 -1.354888 16
-15.812645 10.705963 -1.3547494 17
-15.10131 11.044396 -1.3817854 13
-14.390854 11.352977 -1.4088031 25
-20.037645 17.023243 -2.0965128 0
-18.601505 17.003382 -2.0861366 3
-16.503464 10.320524 -1.6666666 7
-15.790462 10.690945 -1.6904768 7
-15.044009 11.002489 -1.7063638 10
-14.503607 11.441928 -1.747241 34
-15.360763 14.041064 -2.091538 0
-15.963338 9.9827538 -1.9456571 1
-15.177181 10.275722 -1.9497026 3
-14.709449 10.757807 -1.9909767 4
-12.891851 9.4285011 -2.0281796 1
-11.219017 8.2050676 -2.0110865 0
-9.9556446 7.281096 -2.0051949 0
-8.9140167 6.5192976 -1.9590111 1
-8.1046352 5.9273539 -1.9892344 1
-7.4071012 5.4172096 -1.9807141 1
-6.8382621 5.0011873 -1.9789644 1
-6.3221703 4.6237416 -1.9679817 2
-4.5835118 3.3521676 -1.9622586 3
-0.68725085 0.50262338 -0.39831656 0
-17.420424 12.834057 4.1502905 1
-35.580772 26.213234 6.1206565 20
-24.261101 17.873753 2.5744085 22
-26.017263 19.167562 1.6178089 3
-50.66584 37.326778 2.0370591 31
-50.975109 40.50388 1.9164317 4
-27.2679 25.100483 0.87211394 9
-48.361095 30.478188 1.1744568 0
-8.454627 5.7673573 0.18042909 0
-50.245792 37.017319 0.9139443 14
-34.55946 27.460306 0.51773602 0
-27.39571 23.439514 0.3152732 8
-24.246721 22.319445 0.19211259 30
-11.833899 7.4579744 0.039794222 0
-31.543732 21.517681 -0.0033321825 12
-36.602943 26.966293 -0.13806817 11
-48.230995 38.323456 -0.36878884 0
-27.43214 23.470682 -0.32199401 10
-24.227757 22.301987 -0.39198512 24
-28.429483 17.916862 -0.49797991 0
-31.584999 21.545832 -0.68005902 12
-36.662872 27.010445 -0.94355303 1
-36.812607 29.250616 -1.1146281 2
-27.44478 23.481497 -0.96158558 8
-24.260044 22.331709 -0.97632807 24
-27.426598 17.284822 -1.0539206 0
-26.936949 18.375145 -1.1580507 0
-33.741001 24.85783 -1.6114476 1
-12.9136 10.260907 -0.68322295 0
-26.935661 23.045898 -1.5719203 14
-19.237259 17.708166 -1.237622 27
-18.974041 11.957842 -1.1259378 1
-15.855162 10.815661 -1.0216414 14
-16.301767 12.009914 -1.1370077 0
-15.00612 11.923585 -1.1333301 12
-21.316597 18.238281 -1.7399452 17
-19.241671 17.712225 -1.7013047 13
-16.881241 10.638915 -1.3554301 21
-15.768582 10.7566 -1.3541833 14
-15.017705 11.063914 -1.3776608 12
-14.332397 11.388258 -1.4069639 23
-19.947805 17.067156 -2.0933335 1
-18.495113 17.025011 -2.080857 3
-16.339214 10.297318 -1.6536992 14
-15.69709 10.707832 -1.6844722 7
-14.983065 11.038394 -1.7038109 11
-14.547755 11.559377 -1.7574104 6
-16.114342 13.787279 -2.0663419 0
-15.352654 14.132332 -2.0971379 0
-15.904835 10.023563 -1.9427789 3
-15.151074 10.335365 -1.950972 3
-14.67501 10.811442 -1.9914112 5
-12.878033 9.487565 -2.031203 1
-11.193496 8.2465258 -2.0116594 1
-9.9174547 7.3064342 -2.0026274 0
-8.9070616 6.5620522 -1.9625044 1
-8.0902157 5.9602618 -1.9907891 1
-7.3818521 5.4383931 -1.9790262 1
-6.8364444 5.0365777 -1.9835138 1
-6.3278561 4.6618881 -1.9748049 2
-4.5748267 3.370388 -1.963565 2
-0.23627608 0.17407043 -0.13729209 0
-17.381824 12.899473 4.1517978 3
-16.860003 12.512217 2.9077783 0
-24.486597 18.172098 2.6050522 11
-27.130768 20.134401 1.6914093 11
-50.650803 37.589191 2.0417178 37
-3.3495619 2.6806259 0.12627923 0
-44.956387 38.736904 1.5684687 3
-27.136124 25.154741 0.87070245 15
-48.375938 30.72401 1.1774148 3
-31.404221 21.583519 0.67179692 8
-50.488827 37.468983 0.92073858 30
-5.4149637 4.3335495 0.081347793 0
-26.980402 23.247805 0.31142586 7
-24.148125 22.384914 0.19194938 32
-45.471989 28.879684 0.15324815 22
-6.6984982 4.6037498 -0.00070930179 0
-8.3867598 6.2240176 -0.031717051 0
-44.7616 35.82233 -0.34321475 0
-27.010662 23.273878 -0.31799853 7
-24.135092 22.372833 -0.39174706 31
-28.410656 18.043873 -0.49875042 0
-31.519493 21.662745 -0.6802724 32
-36.610104 27.169247 -0.94463027 1
-36.882004 29.516356 -1.1198419 8
-27.053667 23.310932 -0.9507274 6
-24.146751 22.383642 -0.9749074 32
-6.4795775 4.1152401 -0.24954097 0
-6.7173381 4.6166978 -0.28947717 0
-33.634762 24.961172 -1.6105254 1
-31.421978 25.146742 -1.667084 1
-26.591673 22.912853 -1.556504 11
-19.201698 17.799658 -1.2393241 5
-18.820894 11.953326 -1.1193194 2
-15.843648 10.889036 -1.0233423 13
-16.18598 12.012008 -1.1318496 0
-14.99247 11.998346 -1.1354551 8
-21.252798 18.312584 -1.7399452 3
-19.296814 17.887831 -1.7116911 1
-16.763147 10.646432 -1.3489242 26
-15.747384 10.822875 -1.3555987 15
-14.969381 11.109141 -1.3767768 14
-14.261422 11.413295 -1.4038987 24
-19.767279 17.032579 -2.0806158 1
-18.333248 16.994619 -2.0693076 3
-16.266163 10.330791 -1.6499454 13
-15.639917 10.749016 -1.6823529 7
-15.245121 11.313774 -1.7380913 9
-14.404718 11.527973 -1.7449813 12
-16.041985 13.822659 -2.0632386 0
-6.4096675 5.9416561 -0.87837398 0
-15.80929 10.040628 -1.935378 2
-15.108352 10.38368 -1.9501257 4
-14.589282 10.827061 -1.9848948 4
-12.857579 9.5419216 -2.0332186 1
-11.158282 8.2808323 -2.0105138 1
-9.9077406 7.3527751 -2.0058367 0
-8.8809366 6.5907588 -1.9618057 1
-8.0662079 5.9861288 -1.9900117 1
-7.3879409 5.48277 -1.9857777 1
-6.8000531 5.0464845 -1.9780546 1
-6.2959671 4.67239 -1.9699311 1
-4.5660696 3.3885911 -1.9648714 3
-6.097733 4.5583673 1.4602875 0
-17.901552 13.382327 3.0954475 0
-24.375135 18.221661 2.5999448 24
-24.961285 18.659838 1.5602087 8
-50.631363 37.849533 2.0462472 31
-50.616386 40.798542 1.9136071 26
-44.772583 38.851654 1.5667777 9
-26.618448 24.848175 0.85686982 9
-45.263836 28.969698 1.1041242 5
-44.905098 31.093777 0.96292299 104
-50.453838 37.716824 0.92249572 31
-48.268131 38.905769 0.72715729 0
-26.645329 23.12163 0.30848786 8
-24.14879 22.542763 0.19257894 36
-48.251442 30.881821 0.16297765 22
-37.637749 26.061623 -0.0039950586 1
-8.6357632 6.960721 -0.066401631 0
-26.660391 23.134701 -0.31482354 7
-24.124098 22.519712 -0.39284211 32
-12.851542 8.2252264 -0.22611204 0
-37.309566 25.834379 -0.8071788 32
-36.483017 27.272923 -0.94380164 16
-36.903278 29.745308 -1.1236337 11
-26.68523 23.156254 -0.94061446 6
-24.153234 22.546911 -0.97834063 31
-6.4382358 4.1205907 -0.24850121 0
-27.061071 18.737982 -1.1689824 0
-33.537823 25.071239 -1.6100644 1
-31.365118 25.281361 -1.6687394 1
-26.300262 22.822197 -1.5441002 15
-24.078382 22.477037 -1.5591314 27
-18.641102 11.930652 -1.1110965 14
-15.969735 11.057974 -1.0339733 8
-16.047991 11.996695 -1.1251218 0
-14.359811 11.574499 -1.0905942 1
-22.672295 19.674007 -1.8617685 1
-21.189198 19.780001 -1.8856646 1
-16.719162 10.700575 -1.348382 17
-15.788233 10.932295 -1.3623922 9
-14.793125 11.058619 -1.364108 15
-14.283595 11.513067 -1.4100292 21
-19.605312 17.012617 -2.0698056 2
-18.209707 16.998661 -2.0620482 4
-16.156157 10.34024 -1.6424378 12
-15.595746 10.799011 -1.6816465 14
-15.368248 11.488552 -1.7566904 8
-14.342684 11.560695 -1.7423447 13
-15.981613 13.868133 -2.061687 0
-15.291438 14.274474 -2.1023376 0
-15.687016 10.039983 -1.9246875 3
-15.055659 10.425037 -1.9480101 5
-14.570511 10.892202 -1.9875013 5
-12.821017 9.5843668 -2.0327148 1
-11.141993 8.3292103 -2.012805 1
-9.9136381 7.4109516 -2.0122554 0
-8.8768053 6.6358657 -1.9659976 1
-8.0609779 6.0259933 -1.9938985 2
-7.3468361 5.492136 -1.9798702 1
-6.7917562 5.0771852 -1.9807842 1
-6.2765126 4.6920142 -1.9689565 1
-4.5390735 3.3931897 -1.9583392 3
-0.70516515 0.52714705 -0.41187626 0
-3.3923671 2.5544767 0.81453598 0
-16.557007 12.467546 2.8704638 0
-24.298643 18.297052 2.598583 17
-24.793869 18.669962 1.5538086 6
-50.703323 38.179966 2.0545294 10
-50.625774 41.098446 1.9193739 29
-31.491066 27.519844 1.1053578 1
-26.266415 24.691689 0.84830678 8
-45.15572 29.123177 1.1039599 15
-44.835655 31.277786 0.96376914 255
-50.535931 38.053921 0.92641997 25
-50.547955 41.035271 0.7636559 16
-26.329525 23.009207 0.30575976 8
-24.113672 22.668009 0.19292872 40
-48.06604 31.000187 0.16271593 36
-37.421886 26.105871 -0.0039817942 2
-36.714767 27.646482 -0.13957445 0
-14.052165 11.40767 -0.10835462 0
-26.386709 23.059179 -0.31254038 6
-24.132772 22.685965 -0.39427048 38
-28.374756 18.300295 -0.50035071 0
-37.087963 25.872921 -0.80433339 34
-36.531349 27.508369 -0.94753045 26
-37.004135 30.040279 -1.1298904 2
-26.357336 23.03351 -0.93188536 4
-24.155956 22.707758 -0.98165542 26
-27.160099 17.516903 -1.0506715 0
-33.001789 23.022367 -1.4290718 23
-33.418167 25.16412 -1.6085274 0
-31.292196 25.403278 -1.6695672 1
-26.018829 22.737692 -1.532228 16
-23.912445 22.478846 -1.5534577 31
-18.602699 11.997809 -1.111297 5
-15.822933 11.038231 -1.0269568 13
-15.961349 12.01901 -1.1219821 0
-14.344124 11.644685 -1.092483 4
-22.615501 19.763544 -1.862759 1
-21.175285 19.905785 -1.8905982 1
-16.648172 10.737237 -1.3456711 18
-15.527455 10.832103 -1.3431438 16
-14.751245 11.107793 -1.3638134 15
-14.283576 11.595531 -1.4140141 27
-19.509775 17.049469 -2.0659904 2
-3.4650767 3.2573383 -0.39366671 0
-16.012787 10.327446 -1.6315179 13
-15.665795 10.928611 -1.6933025 7
-14.908015 11.225842 -1.7085519 6
-14.354803 11.653355 -1.7487476 12
-3.4923923 3.0519795 -0.45190319 0
-15.198025 14.286872 -2.0963378 0
-15.601722 10.062329 -1.91852 3
-15.025704 10.482077 -1.9488564 5
-14.519692 10.933433 -1.9857635 6
-12.828689 9.6600952 -2.0392654 1
-11.147635 8.3942499 -2.0191057 1
-9.884552 7.4431391 -2.0116136 0
-8.8378544 6.6549678 -1.9625044 1
-8.0430269 6.056457 -1.9946759 2
-7.3494835 5.534214 -1.9857777 1
-6.7833257 5.107893 -1.9835138 1
-6.2817883 4.7302318 -1.9757795 2
-4.5574021 3.4317565 -1.9714036 4
-0.70042634 0.52742606 -0.41018131 0
-7.3901443 5.6053596 1.2846025 0
-24.479137 18.567209 2.6248002 15
-24.929079 18.908487 1.5664086 7
-35.197514 26.697004 1.4299918 2
-21.586945 17.649849 0.8207562 6
-45.190647 39.770874 1.5910852 3
-25.346594 23.99424 0.82130021 14
-45.010189 29.252306 1.1028917 3
-44.80801 31.491581 0.96553183 255
-5.7677855 4.374815 0.10601379 0
-50.553028 41.333004 0.76590776 19
-26.053881 22.929203 0.30348632 9
-24.092493 22.807049 0.19339506 25
-48.064854 31.237547 0.16308007 38
-44.850975 31.521776 -0.0047839475 8
-36.755085 27.87841 -0.1400968 0
-44.925922 36.732189 -0.34740528 0
-7.4765549 6.5798817 -0.088828392 0
-24.120239 22.833317 -0.39536554 22
-28.350937 18.42539 -0.50106192 0
-36.905815 25.937826 -0.80234158 30
-35.339031 26.804344 -0.91902578 22
-45.013176 36.803532 -1.3783544 2
-26.090675 22.961586 -0.92528528 5
-24.117189 22.830429 -0.98331285 17
-27.139011 17.637754 -1.0522311 0
-37.719109 26.509418 -1.637342 1
-5.3596992 4.0652847 -0.25866154 0
-21.664421 17.713196 -1.1591779 0
-25.756317 22.667326 -1.5214189 14
-23.743877 22.477034 -1.5475949 41
-16.296305 10.591036 -0.97571921 9
-15.748362 11.068128 -1.024618 13
-15.820661 11.999832 -1.1150301 0
-14.436311 11.80337 -1.1026357 2
-22.519407 19.818624 -1.8605305 1
-21.065086 19.941168 -1.8869629 1
-16.607243 10.793115 -1.3454 10
-15.469967 10.872469 -1.3414454 19
-14.706027 11.154392 -1.3632241 13
-14.329463 11.716009 -1.4225969 21
-19.3813 17.056875 -2.0586777 2
-14.202662 13.444886 -1.6188843 0
-15.94322 10.361565 -1.6281053 14
-15.487384 10.88471 -1.6781143 17
-14.903652 11.304289 -1.7125634 15
-14.29862 11.690793 -1.7468644 8
-16.009926 14.089834 -2.0779788 0
-15.174071 14.364466 -2.0999377 0
-15.523129 10.088546 -1.9131747 3
-14.962993 10.516162 -1.9454714 6
-14.475105 10.97924 -1.9848948 5
-12.80754 9.714406 -2.041281 1
-11.102498 8.4211473 -2.0162416 0
-9.8490763 7.470438 -2.0096879 0
-8.8302622 6.6976762 -1.9659976 1
-8.0218382 6.0844941 -1.9946759 1
-7.3176608 5.5503817 -1.982402 1
-6.762352 5.1291842 -1.9826039 1
-6.259058 4.7474403 -1.9738301 1
-4.5363593 3.4407887 -1.9674842 3
-0.68414766 0.51892 -0.40170649 0
-5.3901553 4.1181026 0.93944448 0
-24.493353 18.71303 2.6333125 13
-25.097843 19.174864 1.5812087 8
-34.980217 26.72504 1.4249448 8
-21.620888 17.803877 0.82440454 3
-44.895927 39.790474 1.5855896 20
-25.326366 24.143265 0.8233704 9
-47.989098 31.427105 1.178565 12
-26.314714 18.631859 0.56843269 21
-35.249039 26.930422 0.64961267 11
-21.594799 17.782394 0.32811213 3
-25.779108 22.847572 0.30121288 9
-23.810076 22.697807 0.19176283 1
-48.109455 31.505926 0.16360353 3
-36.879623 26.112232 -0.0039433967 0
-35.230408 26.916189 -0.13464259 26
-21.6206 17.80364 -0.1676683 7
-25.791044 22.85815 -0.30736765 8
-23.745102 22.635868 -0.39050916 2
-28.356718 18.57025 -0.50230658 0
-26.347282 18.654919 -0.5742088 13
-35.232544 26.917822 -0.91869438 31
-21.577871 17.768454 -0.66263396 17
-25.809866 22.874832 -0.91815299 5
-23.701653 22.594448 -0.96958005 4
-27.127449 17.765226 -1.0541806 0
-26.328321 18.641493 -1.1456993 23
-33.276623 25.423489 -1.610218 1
-21.556185 17.750597 -1.1566947 33
-25.521523 22.619278 -1.5122046 20
-23.592978 22.49085 -1.5428668 35
-16.205765 10.612833 -0.97251028 12
-15.755266 11.155352 -1.0275947 13
-15.740597 12.025886 -1.1123389 1
-14.305632 11.780076 -1.0957886 2
-22.426184 19.875933 -1.8585496 1
-21.027136 20.044868 -1.8898191 1
-16.168837 10.588649 -1.3128697 8
-15.448198 10.937936 -1.3428607 16
-14.663833 11.203234 -1.3629296 13
-19.261959 17.071537 -2.0523188 2
-17.834499 17.001375 -2.0396094 3
-16.006981 10.482654 -1.6383429 12
-15.416773 10.915685 -1.6745822 12
-14.791303 11.300621 -1.7041756 14
-15.898076 14.090186 -2.069833 0
-15.135363 14.428326 -2.1015377 0
-15.471179 10.131767 -1.9111189 2
-14.893727 10.545348 -1.9412403 5
-14.424055 11.020042 -1.983157 7
-12.789319 9.7710972 -2.0438006 0
-11.088765 8.4718657 -2.0191057 1
-9.844902 7.5215487 -2.0141811 0
-8.8193493 6.7380219 -1.9687922 1
-8.0130234 6.1219859 -1.9977852 1
-7.3075638 5.5830112 -1.9849337 1
-6.772264 5.1740398 -1.9907928 1
-6.2547793 4.7786794 -1.977729 1
-4.5333343 3.4634876 -1.9714036 2
-0.6967274 0.5323028 -0.41018131 0
-17.267075 13.287839 3.0175264 1
-24.481573 18.839739 2.6391008 4
-24.69832 19.006536 1.5602087 9
-35.06097 26.981091 1.4320624 3
-21.383181 17.733761 0.81769633 16
-44.667271 39.867058 1.582419 13
-25.293856 24.281378 0.82506424 1
-50.652905 33.42482 1.2468436 24
-26.288591 18.751465 0.56927878 12
-6.7577372 5.2004013 0.12487371 0
-21.517197 17.844906 0.32787758 14
-25.535076 22.790926 0.2992892 10
-26.056438 25.013435 0.21055672 6
-14.576366 9.6186485 0.049683034 0
-3.3346176 2.3785589 -0.00035744341 0
-35.161594 27.058527 -0.13473976 9
-21.52445 17.85092 -0.1674049 6
-25.579798 22.830841 -0.30579799 4
-29.710821 28.521538 -0.49025518 8
-34.550945 22.799467 -0.61343634 1
-26.262472 18.732834 -0.57378197 22
-36.618439 28.179638 -0.95739102 22
-21.515711 17.843674 -0.66263396 6
-25.562805 22.815674 -0.91219163 4
-23.559179 22.616138 -0.96697557 3
-27.138676 17.90826 -1.05704 0
-26.227295 18.707743 -1.1441376 32
-33.13699 25.500496 -1.607759 2
-28.591105 23.711523 -1.5386175 38
-19.646767 17.53541 -1.1677324 4
-23.439381 22.501135 -1.5379496 35
-16.111933 10.631937 -0.96910077 13
-15.921101 11.356407 -1.0409898 12
-13.02091 10.020212 -0.92261332 0
-19.765369 17.641266 -1.6431302 5
-20.97143 20.131973 -1.8911175 0
-16.065153 10.601068 -1.3074479 10
-15.377442 10.96862 -1.3400301 17
-14.589859 11.227593 -1.3596886 9
-20.540577 17.034962 -2.0509794 2
-19.115984 17.061666 -2.0430984 2
-17.708899 17.000036 -2.0320199 4
-15.860517 10.466032 -1.6270816 10
-15.138541 10.798213 -1.6484444 11
-14.638119 11.264731 -1.691047 6
-28.592705 23.712851 -3.5133142 3
-3.6414216 3.2500927 -0.47556508 0
-14.984413 14.384608 -2.0875382 0
-15.395864 10.159417 -1.9061848 4
-14.853591 10.59496 -1.9408172 6
-14.394952 11.077602 -1.9844604 9
-10.239327 7.8796515 -1.640684 0
-11.081085 8.5274239 -2.0231152 1
-9.8123274 7.5510545 -2.0128973 0
-8.7988949 6.7711701 -1.9694909 1
-7.9822755 6.1427422 -1.9954532 1
-7.3252134 5.6371017 -1.9950609 0
-6.7387266 5.1857719 -1.9862434 1
-6.23806 4.8004851 -1.977729 1
-4.5332007 3.4885144 -1.9766293 2
-0.70347899 0.54136068 -0.41526619 0
-16.65064 12.90625 2.9176555 0
-24.714916 19.157032 2.6714468 16
-25.380161 19.672678 1.6076089 12
-25.167974 19.508207 1.0307589 2
-44.420769 39.926521 1.5786145 1
-7.1963959 6.9567637 0.23553099 0
-50.662479 33.685562 1.2499659 24
-44.784317 32.180801 0.97223002 255
-47.938644 37.158218 0.88823158 35
-28.521442 23.822264 0.43587217 32
-4.2658625 3.8342662 0.050155513 0
-23.415215 22.635511 0.18985081 3
-50.672966 33.692532 0.17311682 27
-7.9876537 5.7397122 -0.00085835293 0
-36.868965 28.577883 -0.14166382 3
-28.516752 23.818346 -0.22243229 35
-25.333355 22.770266 -0.30380026 4
-23.405323 22.62595 -0.38750964 6
-12.652746 8.4128313 -0.22516374 0
-36.427551 26.175858 -0.79786003 39
-36.693703 28.442034 -0.96194845 20
-28.512321 23.814648 -0.88066798 40
-32.019547 28.779985 -1.1461743 4
-3.3058407 3.1957598 -0.13614371 0
-27.082664 18.007307 -1.0572999 0
-26.262465 18.871498 -1.1485387 5
-33.054096 25.620903 -1.6080663 1
-28.520435 23.821423 -1.5392797 52
-19.594349 17.611902 -1.168264 3
-23.237171 22.463396 -1.5298173 19
-16.03813 10.663778 -0.96689463 12
-16.569033 11.906059 -1.0860653 9
-8.8224268 6.8384423 -0.62681192 0
-21.562881 18.010193 -1.6612731 1
-19.575989 17.595398 -1.632483 15
-4.8155885 4.6552343 -0.43571264 0
-16.137722 10.729997 -1.3163939 8
-15.277495 10.977996 -1.3346518 18
-14.408702 11.168477 -1.3464305 13
-20.401405 17.040081 -2.0430098 2
-18.967342 17.04833 -2.0335603 2
-17.577801 16.992477 -2.0237703 3
-15.704413 10.441889 -1.6147965 13
-15.107225 10.855644 -1.6491508 9
-14.434999 11.18886 -1.6720833 12
-28.528097 23.827822 -3.515574 2
-11.127032 10.001261 -1.4577272 0
-23.192371 22.42009 -3.241904 0
-15.333804 10.19547 -1.9028955 3
-14.816515 10.646748 -1.9408172 5
-14.343627 11.118036 -1.9827226 12
-12.72393 9.8625765 -2.0443044 0
-11.038737 8.5563498 -2.020824 1
-9.7983932 7.594933 -2.0154648 0
-8.7938843 6.8163185 -1.9736828 1
-7.9762912 6.1825852 -1.9993399 1
-7.2653189 5.6314964 -1.9840899 1
-6.7236633 5.211648 -1.9871533 1
-6.2212658 4.8222294 -1.977729 1
-4.5150204 3.4996841 -1.9740164 3
-0.68153983 0.52827537 -0.40340143 0
-16.626488 12.976025 2.920948 0
-24.999996 19.51107 2.7092407 9
-24.763636 19.326603 1.5726087 14
-25.295391 19.741608 1.0386529 34
-28.594124 24.044382 1.0996768 3
-28.935387 26.181845 1.0313784 0
-18.407515 17.91304 0.60440093 2
-50.67675 33.93795 1.2530881 25
-44.784279 32.406494 0.9745568 31
-47.934963 37.410503 0.89045727 21
-28.457598 23.929579 0.43610674 38
-25.08276 22.695841 0.2957916 9
-23.25975 22.634932 0.18919791 4
-50.690563 33.947201 0.17356062 33
-36.650917 26.521086 -0.0039479346 7
-47.974567 37.441414 -0.18481164 15
-28.446798 23.920498 -0.22250412 42
-25.127211 22.736063 -0.3022306 3
-23.261364 22.636501 -0.38636696 6
-48.186172 32.270023 -0.85940355 19
-36.376194 26.322292 -0.79864252 42
-36.741043 28.674288 -0.96567726 17
-28.460747 23.932226 -0.88152117 35
-25.143028 22.750376 -0.90271735 3
-23.387495 22.759245 -0.96626526 54
-27.185564 18.206028 -1.0636684 0
-37.418026 27.076176 -1.6403234 0
-33.044571 25.7894 -1.6117549 1
-27.811163 23.386 -1.5051764 5
-19.455837 17.604385 -1.1634797 4
-23.079506 22.45953 -1.5243328 17
-15.989399 10.708015 -0.96609235 13
-16.603889 12.014793 -1.0909556 11
-14.38806 11.229059 -1.0248767 3
-21.554996 18.125282 -1.665287 4
-19.452408 17.601284 -1.6270356 20
-20.856792 20.296524 -1.8931948 0
-15.893146 10.643555 -1.2993153 21
-15.211917 11.007544 -1.3321043 23
-14.327555 11.181839 -1.3423059 10
-20.27153 17.046034 -2.0356531 2
-18.848618 17.054951 -2.0268834 2
-17.461355 16.992296 -2.0168407 4
-15.732614 10.536048 -1.6212803 12
-15.077601 10.910351 -1.6498573 10
-14.884543 11.616536 -1.7286096 5
-9.5703497 8.0475674 -1.1826551 0
-15.79052 14.287868 -2.0748756 1
-15.405271 14.991444 -2.160336 0
-15.293295 10.241838 -1.9020731 3
-14.784351 10.698151 -1.9412403 5
-14.306676 11.165544 -1.9827226 10
-12.691152 9.9047194 -2.0443044 0
-11.022783 8.6026535 -2.0231152 1
-9.7607012 7.6176701 -2.0128973 1
-8.7650204 6.8405981 -1.9722854 1
-7.9557433 6.2090034 -1.9993399 1
-7.2558498 5.6627765 -1.9866216 2
-6.6971302 5.226728 -1.9844236 1
-6.2082973 4.845222 -1.9787037 1
-4.5004086 3.5123119 -1.97271 3
-0.68835276 0.53722006 -0.40848634 0
-16.836525 13.234766 2.9659448 0
-24.68421 19.403633 2.6823423 23
-24.768265 19.469707 1.5772088 4
-25.150898 19.770485 1.035547 0
-28.522217 24.154388 1.1001476 1
-27.342371 24.914549 0.97769046 14
-18.284899 17.918404 0.60242486 1
-50.577873 34.128048 1.253581 4
-50.556114 36.852654 1.1029512 25
-7.0151243 5.5144119 0.13067225 0
-28.401361 24.05204 0.43652895 44
-24.497824 22.322578 0.28981072 28
-23.114895 22.651588 0.18866162 4
-50.724289 34.226845 0.17408407 6
-36.635685 26.705418 -0.0039563123 8
-48.636059 38.231575 -0.18787281 1
-28.176924 23.861973 -0.22104344 18
-24.491871 22.317154 -0.29552385 26
-23.110794 22.64757 -0.38517669 5
-48.199223 32.523026 -0.86165583 16
-36.387501 26.524508 -0.80091888 35
-36.804226 28.930872 -0.96998614 18
-28.142052 23.832441 -0.8742218 15
-24.495993 22.320911 -0.88227844 24
-23.090883 22.628057 -0.95726794 4
-27.11191 18.294098 -1.0632784 0
-35.236481 25.685474 -1.5486107 0
-32.973209 25.919405 -1.6126771 1
-27.351171 23.162676 -1.4846483 9
-19.338152 17.621052 -1.160113 7
-22.866848 22.408512 -1.5154439 19
-16.04134 10.824093 -0.97150749 10
-14.320519 11.256998 -1.0228584 0
-21.476357 18.187515 -1.6641065 3
-19.349541 17.631428 -1.6235691 30
-20.934069 20.514473 -1.9066972 1
-15.802968 10.663249 -1.294978 18
-15.134707 11.032377 -1.3287075 22
-14.338618 11.271226 -1.3470198 17
-20.120596 17.039373 -2.0264573 2
-18.703503 17.042755 -2.017663 2
-17.333605 16.986177 -2.0089211 3
-15.781637 10.648856 -1.6301528 9
-15.087718 10.998124 -1.6551554 7
-14.537006 11.427174 -1.6928704 32
-16.549938 14.015518 -2.0511909 0
-15.717011 14.321445 -2.0717723 1
-22.675371 22.220875 -3.1907055 0
-15.240963 10.284029 -1.9000173 3
-14.737272 10.742668 -1.939971 6
-14.261365 11.210499 -1.9818537 11
-12.697059 9.9808369 -2.0508549 0
-11.023813 8.6655407 -2.0288432 1
-9.7713013 7.6809726 -2.0205996 0
-8.7534761 6.8808861 -1.97508 1
-7.9401927 6.2415848 -2.0008945 1
-7.2729268 5.7170639 -1.9967488 2
-6.7002816 5.266922 -1.9907928 1
-6.2065978 4.8788495 -1.9835774 1
-4.488122 3.5279992 -1.97271 3
-0.68932188 0.54185849 -0.41018131 0
-16.784794 13.29393 2.9653959 1
-21.77297 17.244677 2.3728414 5
-3.1849575 2.5225573 0.20340112 0
-24.92156 19.73843 1.0290765 8
-50.73196 43.283253 1.9629184 3
-27.085905 24.86318 0.97177207 6
-27.849451 27.492052 0.92085749 2
-31.517481 21.435356 0.78310817 4
-50.51096 37.103985 1.1049254 17
-48.186493 38.164772 0.9001801 0
-28.328232 24.168947 0.43676353 26
-24.374584 22.374355 0.28932106 25
-22.963406 22.668713 0.18810199 5
-31.567005 21.469038 0.10860625 8
-36.663292 26.931862 -0.0039699259 10
-4.4933524 3.558835 -0.017407328 0
-27.535469 23.492582 -0.2166853 9
-24.38928 22.387848 -0.29527414 27
-22.930859 22.636581 -0.38355789 6
-31.623196 21.507254 -0.56673223 8
-36.344841 26.697937 -0.8021282 25
-3.4421945 2.7262948 -0.09098281 0
-27.503891 23.465641 -0.85706347 10
-24.381611 22.380808 -0.88110751 27
-22.948046 22.653549 -0.95478183 2
-27.140537 18.458553 -1.0670476 0
-9.8422384 7.2298422 -0.43371889 0
-32.884247 26.045055 -1.6129844 1
-26.965101 23.005957 -1.468259 13
-19.267544 17.686411 -1.1597586 9
-22.645239 22.354628 -1.5061769 24
-16.100657 10.950219 -0.97752422 8
-6.6218033 4.8641977 -0.43736029 0
-7.9363465 6.2857628 -0.56850386 0
-21.43993 18.292019 -1.6664675 1
-19.252432 17.672539 -1.6208454 35
-2.9769797 2.9387755 -0.27212566 0
-15.809977 10.752523 -1.2987732 12
-15.065232 11.066512 -1.32616 28
-14.309715 11.333613 -1.3481983 21
-19.966991 17.035343 -2.0172613 2
-18.582159 17.05727 -2.0113041 2
-17.217335 16.996382 -2.0026517 3
-15.732614 10.699909 -1.6291291 6
-15.037677 11.04627 -1.6540959 10
-14.504391 11.487801 -1.6939645 22
-15.916804 13.579824 -1.9788758 0
-15.682011 14.395113 -2.0740998 0
-22.777885 22.485571 -3.2167046 0
-15.157104 10.308499 -1.8942609 4
-14.697802 10.796607 -1.939971 6
-14.210827 11.255291 -1.9805505 11
-14.346367 11.362642 -2.3239665 0
-10.995079 8.7083473 -2.0294161 1
-9.7461758 7.7191882 -2.0212417 0
-8.7251081 6.9104795 -1.9743813 1
-7.9264889 6.2779555 -2.0032268 1
-7.2396626 5.733974 -1.993373 2
-4.8946676 3.8766856 -1.4585196 0
-6.1886725 4.9015665 -1.9835774 1
-4.4514508 3.5256481 -1.9622586 2
-0.6958518 0.55113012 -0.41526619 0
-5.1199837 4.0843034 0.90706873 0
-21.622292 17.248491 2.3629673 19
-24.618937 19.638971 1.5766087 18
-24.983776 19.930008 1.0345118 4
-44.988457 38.655224 1.7459017 12
-26.92555 24.889715 0.96912998 13
-24.63652 24.490757 0.81744218 31
-31.435871 21.540712 0.78294384 10
-50.561161 37.413307 1.1088738 29
-48.174927 38.430008 0.90246439 0
-31.686932 27.226213 0.4900102 13
-24.161228 22.334404 0.28771216 34
-22.782009 22.647217 0.18726256 5
-31.495173 21.581347 0.10861763 10
-36.688019 27.147718 -0.003982841 12
-3.5709636 2.8486221 -0.013872413 0
-27.16811 23.343529 -0.2144344 7
-24.172937 22.345228 -0.29359746 28
-22.7978 22.662914 -0.38265327 4
-31.511641 21.59263 -0.56608027 32
-36.389664 26.926945 -0.80518699 6
-8.82862 7.0427494 -0.23400314 0
-27.157934 23.334785 -0.8488161 7
-24.168274 22.340916 -0.87621069 23
-22.718538 22.584122 -0.94850737 1
-27.158394 18.609669 -1.0702968 0
-4.7365527 3.5048661 -0.20926404 0
-8.9333563 7.1262999 -0.43940187 0
-26.64212 22.891584 -1.4550149 14
-19.217432 17.764406 -1.1604673 8
-22.601067 22.467346 -1.5084463 26
-15.950292 10.929572 -0.97070521 11
-16.237427 12.015069 -1.0752217 0
-14.995131 11.961887 -1.0771297 12
-23.904837 20.53964 -1.8636198 1
-19.20822 17.75589 -1.622331 15
-20.707472 20.584955 -1.8994267 0
-15.778932 10.812152 -1.2993153 13
-15.020093 11.114289 -1.3255938 19
-14.295016 11.403393 -1.3505553 21
-19.849926 17.055559 -2.0114374 2
-18.437595 17.043533 -2.002084 3
-17.092873 16.991741 -1.9950621 3
-15.698457 10.757009 -1.6294703 16
-15.133543 11.198237 -1.6689308 11
-14.479774 11.550776 -1.6957879 12
-26.830414 23.053371 -3.3457086 0
-15.663827 14.479488 -2.0783668 1
-15.117749 10.359092 -1.8938497 4
-14.624851 10.821825 -1.9353168 6
-14.190104 11.319701 -1.983157 11
-12.768005 10.185268 -2.0740342 0
-11.004847 8.7787647 -2.0368624 1
-9.7284327 7.7605457 -2.0231671 0
-8.7132492 6.9507165 -1.977176 1
-7.9045272 6.305584 -2.0032268 1
-7.2410002 5.7762761 -1.9992807 2
-6.6563311 5.3098755 -1.988973 1
-6.1745586 4.9255567 -1.9845521 1
-4.4745831 3.5694556 -1.9779357 1
-0.66843277 0.53322089 -0.40001151 0
-21.809626 17.522865 3.8746598 0
-21.527771 17.29641 2.3592219 18
-24.68726 19.83489 1.5854088 20
-25.051182 20.127281 1.0402058 6
-44.871403 38.827717 1.7466078 13
-27.163368 25.285975 0.98086101 6
-18.375719 18.394964 0.61183482 3
-44.942692 31.027033 1.122036 255
-9.0618629 6.7545047 0.19925463 0
-50.678207 40.717224 0.95201558 12
-31.543314 27.294775 0.48925957 33
-6.1686263 5.7422824 0.073694326 0
-22.634974 22.65868 0.18670295 5
-48.566326 33.528679 0.1678936 2
-36.721325 27.371231 -0.0039968039 11
-48.254326 38.769764 -0.18798213 0
-26.762817 23.158159 -0.21187221 8
-24.126989 22.459455 -0.29398987 30
-22.616795 22.640482 -0.38093928 3
-37.370461 25.7994 -0.67294264 71
-36.417301 27.144621 -0.80789018 12
-6.6497493 5.3427172 -0.1767453 0
-26.776949 23.170389 -0.83943111 7
-24.116478 22.449669 -0.87716872 28
-22.566103 22.589739 -0.94542933 1
-9.6660633 6.6731486 -0.38184968 0
-8.833643 7.0973582 -0.43571329 0
-26.335392 22.788303 -1.4425987 16
-19.17285 17.847719 -1.1615305 2
-22.381317 22.404758 -1.4989902 20
-16.040262 11.073697 -0.97852701 8
-16.150553 12.038251 -1.072245 1
-14.891017 11.964133 -1.0726445 2
-23.857155 20.643858 -1.8655087 0
-19.181183 17.855478 -1.6253024 4
-20.753975 20.775713 -1.9103324 1
-15.757518 10.8785 -1.3006709 20
-14.850046 11.068883 -1.3139881 23
-14.27689 11.470716 -1.3526177 13
-19.69075 17.038622 -2.0013218 2
-18.322535 17.056173 -1.996043 2
-16.985565 17.003355 -1.9894524 3
-15.5985 10.768719 -1.6229866 19
-15.027279 11.200988 -1.6615133 7
-14.312048 11.498963 -1.6808357 18
-16.556379 14.326417 -2.0707765 0
-15.613185 14.534081 -2.0783668 0
-15.081498 10.411797 -1.8938497 5
-14.567855 10.858544 -1.9327781 5
-14.206298 11.413999 -1.9909767 7
-12.596264 10.120422 -2.0518627 0
-10.983393 8.8245668 -2.0385807 1
-9.7074366 7.7994051 -2.024451 0
-8.698143 6.9884915 -1.9792719 1
-7.8855252 6.335597 -2.004004 1
-7.2085991 5.7917228 -1.9959049 2
-6.6499 5.3428383 -1.9926125 1
-6.151278 4.9422221 -1.9826027 1
-4.4503059 3.5755823 -1.97271 3
-0.64114732 0.51512748 -0.38475683 0
-17.217556 13.932553 3.0674617 0
-21.442482 17.351391 2.356498 20
-24.596138 19.903349 1.5840088 23
-25.055361 20.274954 1.0433117 0
-50.691887 44.174648 1.9791594 5
-26.786139 25.109901 0.97039819 30
-18.308573 18.456161 0.61174071 2
-44.850521 31.195152 1.1224469 255
-50.561008 37.962261 1.1146555 24
-50.532669 40.891354 0.95195699 21
-31.420698 27.381073 0.48883736 41
-24.098097 22.590073 0.28883138 27
-22.496578 22.677927 0.18621328 5
-8.8596554 6.162209 0.030701976 0
-36.747112 27.590502 -0.0040100683 9
-48.314602 39.096478 -0.18874742 0
-26.467705 23.064865 -0.21017206 5
-24.11557 22.606451 -0.29481038 37
-22.49255 22.673866 -0.38017747 2
-37.142262 25.83378 -0.67045331 161
-36.47905 27.389235 -0.81137586 25
-4.734695 3.8313446 -0.12619929 0
-26.457731 23.056173 -0.83194214 5
-24.090483 22.582935 -0.87908489 29
-22.419525 22.600252 -0.94258809 2
-33.040558 22.980896 -1.3084005 1
-34.914616 26.214624 -1.5505983 1
-32.410847 26.22706 -1.6031482 1
-26.047781 22.698931 -1.4311758 15
-24.028713 22.52503 -1.4604629 26
-22.11725 22.29554 -1.4865081 24
-15.827684 11.008724 -0.96789742 14
-16.041357 12.044187 -1.06778 1
-14.721878 11.913035 -1.0634497 0
-23.661518 20.619459 -1.8558282 0
-8.9561911 9.028388 -0.82728279 0
-15.670302 10.89926 -1.2966045 18
-14.81132 11.120649 -1.3139881 28
-14.277078 11.553101 -1.3564478 10
-19.543953 17.031271 -1.9924326 3
-18.201799 17.062757 -1.9893662 2
-16.861532 16.997456 -1.9818628 3
-15.744035 10.950542 -1.6420966 11
-14.867012 11.162464 -1.6480912 13
-14.339948 11.603974 -1.6888589 13
-16.401188 14.292558 -2.0575938 0
-15.614639 14.637497 -2.0853488 1
-22.061863 22.239706 -3.1483066 0
-15.035261 10.457565 -1.8926163 5
-14.539407 10.916492 -1.9340475 6
-14.191098 11.483525 -1.9944521 5
-12.644149 10.231724 -2.0654681 0
-10.940214 8.8528891 -2.0362895 1
-9.6954994 7.8456588 -2.0276601 1
-8.6492043 6.9989896 -1.9736828 1
-7.8511629 6.35321 -2.0008945 1
-7.1731424 5.8045516 -1.9916853 1
-6.6039591 5.3439651 -1.9844236 1
-6.1550999 4.9807453 -1.9894258 1
-4.4407377 3.5934725 -1.9740164 3
-0.65906084 0.53331614 -0.39662158 0
-16.956898 13.819848 3.0295987 0
-21.397234 17.438717 2.3582003 19
-21.637218 17.634304 1.3974078 4
-21.665371 17.657248 0.9047125 1
-45.275394 39.733418 1.7730876 2
-26.023737 24.566448 0.94587934 9
-18.277718 18.55414 0.61286992 0
-44.836342 31.418068 1.1248296 255
-50.638706 38.29776 1.1193089 3
-50.510548 41.166027 0.95424128 18
-31.306896 27.474749 0.48855588 40
-24.065626 22.717989 0.28939101 22
-22.333075 22.670826 0.18551375 2
-44.852173 31.429159 0.15580855 0
-36.800518 27.83202 -0.0040264744 10
-8.9825735 7.3207846 -0.035191227 0
-26.158552 22.956591 -0.20835218 6
-24.091768 22.742666 -0.29548818 25
-22.281345 22.618317 -0.37793973 1
-36.983082 25.91507 -0.66920865 242
-36.523567 27.622562 -0.81450582 25
-44.987137 36.664452 -1.2024977 1
-26.157686 22.955832 -0.82502192 5
-24.063837 22.716299 -0.88100106 20
-22.259132 22.595768 -0.93915492 2
-37.989124 26.620031 -1.5080333 5
-32.232357 26.269325 -1.5988449 1
-25.812189 22.652626 -1.4225672 19
-23.859852 22.523737 -1.4549698 28
-22.072943 22.406761 -1.4887776 19
-15.841509 11.100584 -0.97110635 11
-15.935499 12.051926 -1.0635276 1
-14.581141 11.88361 -1.0562733 1
-23.640423 20.746696 -1.8598421 0
-21.906923 20.68017 -1.868454 1
-20.580416 20.891663 -1.9077358 0
-15.596213 10.928699 -1.2936226 18
-14.750133 11.155439 -1.3120066 21
-14.255219 11.617985 -1.3582156 15
-19.433428 17.054661 -1.9872216 2
-18.05224 17.041344 -1.9795099 2
-16.765732 17.019287 -1.977573 3
-15.646967 10.964263 -1.6359541 8
-14.945537 11.303223 -1.6611601 7
-14.299357 11.653956 -1.6888589 14
-16.333242 14.333958 -2.0553341 0
-15.534496 14.66459 -2.08147 0
-22.003654 22.336424 -3.1511066 0
-15.001926 10.512265 -1.8930274 5
-14.479003 10.950386 -1.9310856 4
-14.200247 11.573182 -2.0014029 5
-12.583751 10.255739 -2.0614369 0
-10.912316 8.8935223 -2.0368624 1
-9.6711168 7.881947 -2.0283022 0
-8.6644106 7.0614824 -1.9827652 1
-7.8441477 6.3929696 -2.0047815 1
-7.1649613 5.8394337 -1.9950609 2
-6.6154604 5.3915911 -1.9935224 1
-6.1376777 5.0021987 -1.9894258 1
-4.4252372 3.6065621 -1.97271 2
-0.66842943 0.54476911 -0.40340143 0
-21.600435 17.730175 3.8702698 7
-21.44713 17.604338 2.3704579 21
-21.547735 17.686916 1.3956077 2
-21.554157 17.692188 0.90264189 6
-11.000989 9.7225943 0.43215039 0
-25.352419 24.100628 0.92453098 16
-18.268763 18.675003 0.61475188 0
-26.365376 18.612516 0.66306609 18
-12.973749 9.8833447 0.28753021 0
-50.514923 41.463905 0.95705271 20
-31.432573 27.779879 0.49202746 10
-23.942699 22.760515 0.28886637 11
-22.167086 22.660013 0.18479091 2
-26.380636 18.623291 0.091866955 7
-35.29039 26.884062 -0.0038714893 12
-11.430408 9.3823624 -0.044909205 0
-25.88044 22.872944 -0.20677175 6
-23.951359 22.768745 -0.29473904 7
-22.115547 22.607327 -0.37646377 2
-26.328836 18.586721 -0.47759131 10
-35.284809 26.87981 -0.78896803 36
-21.607185 17.735716 -0.57920748 8
-25.876633 22.869579 -0.81867051 6
-24.013384 22.827709 -0.88206553 9
-22.115812 22.607599 -0.936432 3
-26.363546 18.611225 -1.0491118 9
-34.622635 26.375372 -1.5457712 1
-21.611313 17.739103 -1.0750668 20
-25.577232 22.604973 -1.4139587 20
-23.685513 22.516027 -1.4491223 28
-21.963854 22.452261 -1.4866972 23
-15.835299 11.178857 -0.97311193 12
-15.785303 12.025174 -1.0562985 1
-14.382133 11.805213 -1.044836 0
-21.87801 20.79777 -1.8721681 1
-20.526897 20.983353 -1.9095535 1
-15.482981 10.93014 -1.2873876 23
-14.66667 11.173004 -1.3080437 21
-14.319411 11.753729 -1.3682327 11
-19.281132 17.040524 -1.9777192 2
-17.957968 17.071283 -1.9756947 2
-16.678341 17.049215 -1.9742733 4
-15.266731 10.77748 -1.6001228 13
-14.845772 11.309443 -1.6544491 13
-14.326324 11.759403 -1.6968819 3
-16.223425 14.338145 -2.0478013 0
-15.491873 14.726953 -2.0826337 0
-4.9651146 5.0755234 -0.71357882 0
-14.91638 10.530151 -1.8868599 6
-14.443856 11.003266 -1.9315088 5
-14.239673 11.688277 -2.0126979 3
-12.563208 10.312193 -2.0639563 0
-10.914863 8.9591904 -2.0431631 1
-3.5888629 2.945828 -0.7548365 0
-8.6275291 7.0816908 -1.9799706 1
-7.8339138 6.4302711 -2.0078907 1
-7.165689 5.8817759 -2.0009685 2
-6.5905766 5.4097095 -1.9917027 1
-6.1261754 5.0285172 -1.9913752 1
-4.4126201 3.6219883 -1.97271 2
-0.65812212 0.54020298 -0.39831656 0
-21.544579 17.804228 3.8708184 8
-21.514595 17.779451 2.3844178 23
-21.664501 17.903332 1.4070078 8
-21.618643 17.865435 0.90781838 12
-48.170227 42.857826 1.8978369 16
-25.333019 24.242628 0.92675036 18
-24.179041 24.881222 0.81640708 36
-44.856121 31.889368 1.1307454 255
-35.163834 26.972414 0.7812953 14
-21.550571 17.809179 0.40941238 10
-48.262482 42.939903 0.75769788 18
-23.644567 22.626852 0.28617322 10
-22.002623 22.6416 0.18404475 1
-26.292654 18.692122 0.091775924 13
-35.185169 26.988781 -0.003869744 19
-21.552782 17.811007 -0.084910832 12
-25.64607 22.81772 -0.20550263 6
-23.679209 22.660004 -0.29231319 5
-21.993074 22.631773 -0.3756544 3
-26.276834 18.680876 -0.47776911 17
-35.179604 26.98451 -0.78861237 31
-21.557505 17.814909 -0.57945609 7
-25.633352 22.806404 -0.81336182 5
-23.697765 22.677761 -0.87322998 3
-21.984997 22.623461 -0.93406433 4
-26.262587 18.670746 -1.0475522 36
-34.309772 26.317308 -1.5356914 1
-21.555452 17.813213 -1.0752205 14
-25.364788 22.567459 -1.4063433 19
-23.518324 22.506042 -1.4434519 35
-21.836378 22.470526 -1.4831039 18
-15.889312 11.296119 -0.97872758 12
-15.68195 12.028838 -1.0520461 1
-21.577473 17.831411 -1.5718514 2
-19.769657 17.589382 -1.5647039 5
-21.782955 20.845369 -1.8699396 1
-7.3995337 7.6144228 -0.69070059 0
-15.443399 10.979109 -1.2871165 19
-14.616872 11.21187 -1.3069115 19
-14.332633 11.844347 -1.3732413 7
-19.14109 17.030136 -1.9691365 2
-17.832115 17.064581 -1.9680641 3
-16.593935 17.075838 -1.9709735 4
-15.30237 10.878847 -1.6076303 11
-14.773408 11.331942 -1.6505637 11
-28.642056 23.669514 -3.401787 4
-16.157942 14.375979 -2.0455413 0
-15.471709 14.805772 -2.0865126 1
-16.758615 17.245302 -2.4167283 0
-14.88138 10.579555 -1.8868599 6
-14.410442 11.053529 -1.9319319 9
-14.283595 11.803823 -2.0244277 2
-12.522825 10.34874 -2.0629485 0
-10.866784 8.9802036 -2.0397263 1
-9.620285 7.950109 -2.028944 0
-8.6131077 7.1177878 -1.9820665 0
-7.8246465 6.4662108 -2.0110002 1
-7.1371036 5.8980322 -1.9984367 2
-6.5846119 5.4414587 -1.9953421 1
-6.1064768 5.0463324 -1.9904006 1
-4.3976712 3.6341922 -1.9714036 3
-0.70939189 0.58623451 -0.43052086 0
-21.351271 17.776588 2.3735223 17
-30.735594 25.589767 2.0022111 17
-21.34716 17.773167 0.89914781 12
-48.03368 43.052765 1.8986608 19
-25.252638 24.343636 0.9270674 18
-24.065464 24.946655 0.81565428 13
-44.82671 32.116459 1.1329639 255
-47.962849 37.069897 1.0686845 25
-21.457483 17.865019 0.40888524 8
-47.967777 42.993694 0.75553989 25
-23.512529 22.666164 0.28557864 10
-21.861162 22.66164 0.18355508 1
-44.917274 32.181347 0.15719685 3
-7.6084061 5.8804436 -0.00083915429 0
-21.542685 17.935957 -0.085129485 1
-25.40143 22.767395 -0.20420955 4
-23.52689 22.68001 -0.29145703 4
-21.812778 22.611485 -0.373988 3
-36.488583 26.14254 -0.66517836 32
-36.618366 28.301886 -0.82318437 26
-28.570026 23.786764 -0.77028799 40
-25.39773 22.764078 -0.80852717 5
-23.525251 22.678429 -0.86992997 5
-21.81032 22.608934 -0.9301576 3
-26.25897 18.813452 -1.0501516 15
-5.2630663 4.067759 -0.23623836 0
-28.551985 23.771742 -1.4285556 50
-19.832684 17.776108 -1.1032221 6
-23.355129 22.514431 -1.4384904 31
-5.4343052 5.6332898 -0.37049228 0
-14.43996 11.160467 -0.97146291 0
-25.808838 21.48786 -1.885818 0
-19.615858 17.581766 -1.5576206 16
-5.2225308 5.0345387 -0.44990468 0
-20.354965 21.100292 -1.9072165 1
-15.360878 11.005425 -1.2835923 17
-14.446247 11.165327 -1.2953058 18
-20.512447 17.078203 -1.9713275 2
-19.007273 17.036287 -1.9617798 3
-17.723526 17.085545 -1.9629771 3
-16.495253 17.099249 -1.9666837 3
-15.055049 10.786312 -1.5857903 12
-14.47327 11.186213 -1.6216003 9
-9.3979597 7.8245311 -1.1195847 0
-16.185213 14.506866 -2.0557108 0
-15.474669 14.917638 -2.0942707 1
-16.656607 17.266512 -2.4111285 2
-14.839268 10.631714 -1.8864486 6
-14.372982 11.108701 -1.9323549 9
-14.344131 11.942602 -2.0391982 0
-12.484809 10.394572 -2.0629485 0
-10.864219 9.0453043 -2.0454543 1
-4.4056463 3.6680424 -0.93199199 0
-8.5930128 7.1543503 -1.9834638 0
-7.7918458 6.4873161 -2.0086682 1
-7.1364703 5.9416652 -2.0043442 1
-6.5885701 5.485496 -2.0026209 1
-6.0939012 5.0736456 -1.99235 1
-4.4075642 3.6696391 -1.981855 2
-0.6682567 0.55637556 -0.40679136 0
-53.986656 45.252026 9.7560644 1
-21.237228 17.801207 2.3673935 13
-21.263433 17.823172 1.3890077 7
-29.002138 26.168694 1.1498119 4
-25.174646 24.430023 0.92717308 13
-24.051785 25.098499 0.81800675 10
-44.778343 32.307041 1.1344428 255
-47.97221 37.331917 1.0716459 28
-28.478727 23.871088 0.54418463 34
-25.158199 22.700298 0.39745012 0
-23.351128 22.66044 0.28452936 10
-21.689037 22.632927 0.18273897 1
-48.45639 34.960709 0.16998744 0
-47.979668 37.337719 -0.0053054518 27
-28.487782 23.878677 -0.11288646 29
-25.165419 22.706814 -0.20291647 4
-23.371181 22.679903 -0.29045814 4
-21.668495 22.611492 -0.3727977 4
-36.417915 26.275091 -0.66547471 31
-36.663181 28.531242 -0.82631439 26
-28.487932 23.878801 -0.77020508 46
-25.16474 22.7062 -0.80350292 4
-23.360966 22.669989 -0.86662996 4
-21.671604 22.614737 -0.92743468 4
-34.049496 26.497274 -1.532284 1
-28.374979 23.784124 -1.4236375 4
-19.536242 17.627594 -1.0899782 0
-23.19718 22.511045 -1.4333516 17
-21.532454 22.46953 -1.4730804 38
-16.616764 11.988798 -1.0286667 23
-14.412325 11.215653 -0.97210079 4
-25.703775 21.545101 -1.8833511 1
-19.495184 17.590548 -1.5526623 22
-4.819025 4.6764865 -0.41647753 0
-20.218605 21.098505 -1.9009846 1
-15.266046 11.01427 -1.2787129 18
-14.396545 11.203374 -1.2941736 31
-20.321188 17.033375 -1.9583641 1
-18.879602 17.035107 -1.9544231 3
-17.609543 17.088682 -1.9566182 3
-16.397091 17.11068 -1.9617341 3
-15.070912 10.873484 -1.5912503 9
-14.665636 11.41278 -1.6473848 5
-28.470011 23.863781 -3.4010575 2
-16.095619 14.523113 -2.0504377 0
-15.490829 15.032636 -2.1031923 1
-16.519403 17.238316 -2.399529 3
-14.807158 10.683188 -1.8868599 6
-14.317228 11.141649 -1.9298162 9
-5.1744695 4.3372798 -0.73765624 0
-12.474603 10.456307 -2.0669796 0
-10.815962 9.0660219 -2.0420175 0
-9.5766525 8.0272226 -2.0315115 1
-8.5782986 7.1903954 -1.9855597 1
-7.7552571 6.5005159 -2.0047815 1
-7.101747 5.9527388 -2.0001245 1
-6.555419 5.494802 -1.9980717 1
-6.0770445 5.0938249 -1.99235 1
-4.3982692 3.6866629 -1.9831614 2
-0.66085476 0.5539335 -0.40340143 0
-58.094292 49.041382 10.529241 1
-21.388138 18.055197 2.3912275 12
-30.939234 26.117933 2.0270112 13
-28.560587 24.109953 1.2098637 10
-27.32749 24.831244 1.0868489 16
-18.357189 17.939072 0.67839098 15
-23.944735 25.16202 0.81734806 8
-50.6306 36.798771 1.2859539 30
-50.920048 39.912064 1.1406024 3
-28.392164 23.967775 0.54412603 33
-24.557817 22.314569 0.38919336 6
-23.174616 22.646772 0.28334016 11
-21.477549 22.569408 0.18161973 1
-7.9208593 5.7569509 0.027857093 0
-50.524994 39.602413 -0.0056021577 7
-28.401192 23.975397 -0.11287431 25
-24.562027 22.318394 -0.19867808 23
-23.197464 22.6691 -0.28928089 2
-21.501207 22.594269 -0.37127414 4
-36.429508 26.477291 -0.66737133 38
-36.714458 28.777464 -0.8297289 23
-28.312719 23.900713 -0.76771921 23
-24.570366 22.325972 -0.78700817 30
-23.204468 22.675945 -0.8637557 3
-21.504337 22.597557 -0.92364633 4
-36.679455 26.658955 -1.4741113 0
-33.846684 26.52965 -1.5273151 1
-27.482393 23.199778 -1.3829094 7
-19.516006 17.733305 -1.0922959 0
-23.026995 22.502514 -1.4276813 24
-19.900423 20.912104 -1.3664149 64
-16.526344 12.011493 -1.0256584 1
-15.32878 12.014978 -1.0367374 1
-25.631458 21.637274 -1.8835754 0
-19.392294 17.620893 -1.5493568 30
-21.666267 21.172779 -1.8788536 1
-20.21088 21.238344 -1.9072165 1
-15.204911 11.051064 -1.2768152 18
-14.438999 11.317552 -1.3015332 32
-20.191492 17.045025 -1.9515878 1
-18.758041 17.044577 -1.947986 3
-17.54978 17.150051 -1.9566182 2
-16.298794 17.12738 -1.9571143 5
-15.161821 11.019747 -1.6049004 19
-14.556723 11.409825 -1.6396141 29
-28.255646 23.852531 -3.3853762 1
-16.03599 14.571173 -2.0493078 0
-15.503745 15.15062 -2.112114 1
-16.393288 17.226677 -2.3899291 2
-14.772999 10.737146 -1.887271 6
-14.265729 11.181739 -1.9281238 10
-14.311123 12.081002 -2.0461488 0
-12.44712 10.507469 -2.0684915 0
-10.823572 9.1369209 -2.0494637 0
-9.5757227 8.0835257 -2.0372882 0
-8.559164 7.225378 -1.9869571 1
-7.7535043 6.5452657 -2.0102229 1
-7.1018372 5.9951487 -2.006032 1
-6.5302444 5.5126281 -1.9962519 1
-6.0473671 5.1049981 -1.988451 1
-4.3882613 3.7044327 -1.9844679 2
-0.63123137 0.53286576 -0.38645181 0
-58.021931 49.310726 10.545703 1
-20.930317 17.787914 2.3466239 14
-31.007713 26.352327 2.0372112 17
-57.887062 49.196106 2.4590683 3
-27.10043 24.789503 1.0810821 14
-18.340363 18.041906 0.67997628 13
-23.874891 25.255821 0.81781858 13
-50.559917 37.004272 1.2872685 15
-50.712074 40.021229 1.1389102 9
-28.34606 24.090284 0.5447703 41
-24.418751 22.336498 0.38816127 17
-23.025257 22.650562 0.2824308 10
-21.358618 22.594007 0.18124665 1
-50.602661 37.035553 0.17839691 16
-4.4775991 3.5336559 -0.00049776788 0
-28.205715 23.97101 -0.11241271 13
-24.419992 22.337633 -0.19812733 32
-23.048033 22.672966 -0.28835338 1
-21.360214 22.595695 -0.37013146 5
-36.418961 26.654655 -0.6687938 30
-36.760109 29.010542 -0.83293003 25
-27.626898 23.479094 -0.75122964 10
-24.446028 22.36145 -0.78539658 34
-23.055038 22.679857 -0.86098796 1
-21.368851 22.60483 -0.92104185 4
-9.8784304 7.2299194 -0.39796585 0
-33.714596 26.607065 -1.5253276 1
-27.094652 23.026758 -1.3672329 8
-19.53376 17.868063 -1.0966002 0
-22.812666 22.441429 -1.4189987 25
-19.809 20.95476 -1.3649019 8
-6.6280947 4.8510327 -0.41234916 0
-15.182248 11.981608 -1.0295084 1
-25.5474 21.711803 -1.8826784 1
-19.298393 17.652769 -1.5465235 33
-21.593098 21.241707 -1.8786058 1
-16.540026 17.496706 -1.5662805 6
-15.148855 11.087288 -1.2751887 19
-14.37007 11.34065 -1.2987026 30
-20.086227 17.070553 -1.9468738 1
-18.680813 17.087851 -1.9458404 4
-17.54114 17.255688 -1.9620231 2
-16.222734 17.161062 -1.9548044 6
-15.051222 11.015831 -1.5970515 16
-14.540703 11.47531 -1.6420866 20
-5.8762798 4.9940362 -0.70603126 0
-19.310856 17.664167 -2.4752896 0
-15.464775 15.213113 -2.1136656 1
-16.26498 17.205751 -2.3795295 2
-14.708412 10.764932 -1.8835704 6
-14.250429 11.246231 -1.9310856 8
-14.380063 12.221092 -2.0617883 0
-12.409187 10.546116 -2.0679874 0
-10.78115 9.1625061 -2.0471725 0
-9.5578918 8.1229038 -2.0392139 0
-8.5411606 7.2588215 -1.9883543 1
-7.758667 6.5938087 -2.0172188 1
-7.0789394 6.0161328 -2.0051882 1
-6.5148969 5.5367737 -1.9971619 1
-6.0570111 5.1476336 -1.9972236 1
-4.3701921 3.7140672 -1.981855 3
-0.62670022 0.5326097 -0.38475683 0
-20.931677 17.915293 2.3537741 18
-30.857862 26.411055 2.0334113 16
-45.028122 38.539291 1.9185184 6
-27.066671 24.932703 1.0832005 13
-18.328402 18.156475 0.68187857 6
-23.726381 25.27486 0.81574839 11
-50.63002 37.32766 1.2923627 19
-50.932102 40.484203 1.1470186 2
-28.362062 24.274914 0.54670316 5
-3.1889355 2.9375162 0.050854098 0
-22.863636 22.649168 0.28141651 10
-20.91552 22.28055 0.17814544 16
-50.447327 37.192966 0.17830588 12
-48.663559 38.681019 -0.0054248325 3
-27.39253 23.445097 -0.10949732 7
-24.230082 22.319754 -0.19721739 32
-24.074129 23.848305 -0.3022306 10
-16.487877 17.563944 -0.28676379 13
-36.441593 26.867052 -0.67092746 28
-36.802631 29.253166 -0.83620226 23
-27.198404 23.278948 -0.74178332 8
-24.214888 22.305758 -0.78046715 32
-22.748466 22.535078 -0.85247177 1
-16.465403 17.540003 -0.7123276 27
-7.8483987 5.7863369 -0.31699502 0
-33.734161 26.814144 -1.5304384 1
-26.768131 22.910679 -1.354784 10
-19.244932 17.72764 -1.0838529 9
-22.623466 22.411251 -1.4120879 6
-16.462402 17.536804 -1.1385214 25
-16.341303 12.047844 -1.0192405 0
-5.4063668 4.297338 -0.3676208 0
-25.510893 21.834616 -1.8855938 1
-19.277777 17.757895 -1.549829 12
-21.501793 21.300098 -1.8771203 1
-16.432413 17.504858 -1.5618663 29
-15.084366 11.12115 -1.27302 15
-14.29916 11.365918 -1.295872 32
-19.944685 17.070534 -1.9389189 1
-18.565321 17.10161 -1.9400163 5
-17.506289 17.342073 -1.9648846 1
-16.129995 17.182705 -1.9508446 7
-15.015889 11.070664 -1.5973928 22
-14.403863 11.449143 -1.631137 12
-27.021341 23.127399 -3.2562773 0
-15.924719 14.669195 -2.0478013 0
-15.437027 15.292222 -2.1171567 0
-16.155794 17.210188 -2.3723297 2
-14.664344 10.811483 -1.8827481 6
-14.220425 11.303334 -1.9323549 9
-14.346375 12.278975 -2.0630915 0
-2.5624881 2.1932178 -0.42831123 3
-10.788197 9.233551 -2.0546191 1
-9.5234776 8.1510859 -2.03793 1
-8.5157681 7.2885938 -1.9883543 1
-4.4833698 3.8372884 -1.1691319 0
-7.0519528 6.0357232 -2.0035002 1
-6.522162 5.5822783 -2.0053506 1
-6.0419517 5.1712694 -1.9981984 1
-4.3658166 3.7366755 -1.9857743 2
-0.66887844 0.5724889 -0.41187626 0
-57.982662 49.996334 10.603321 1
-20.702888 17.851345 2.3353879 11
-30.878859 26.625713 2.0412114 13
-44.96833 38.774548 1.9220126 4
-26.116377 24.23489 1.0487179 7
