# .PCD v0.7 - Point Cloud Data file format
VERSION 0.7
FIELDS x y z intensity
SIZE 4 4 4 4
TYPE F F F F
COUNT 1 1 1 1
WIDTH 1393
HEIGHT 1
VIEWPOINT 0 0 0 1 0 0 0
POINTS 1393
DATA ascii
27.99758 -23.693314 0.43019563 0
28.433134 -25.890308 0.33625877 0
25.411932 -24.885201 0.2073389 0
6.5700407 -4.4298792 0.022542853 0
3.6502748 -2.6589003 -0.00039409535 0
23.270929 -18.279556 -0.089867003 0
28.524769 -25.973747 -0.34407625 0
35.192432 -34.462971 -0.58633506 1
6.7086248 -4.5233207 -0.11990162 0
2.0236585 -1.4740552 -0.044531059 0
23.291203 -18.295481 -0.61367822 1
28.509888 -25.960197 -1.0265217 1
27.3666 -26.799351 -1.1341364 0
6.6826158 -4.5057836 -0.26201802 0
33.364914 -24.303371 -1.465984 0
20.380911 -16.009417 -0.99653083 0
18.634071 -15.769323 -1.0111766 0
16.986462 -15.467333 -1.0187092 1
15.655147 -15.33065 -1.0371515 1
6.6777363 -4.5024934 -0.4043268 1
7.8423233 -5.7124348 -0.51645511 0
19.497076 -15.315155 -1.3922176 1
18.16337 -15.370987 -1.4069822 0
6.6409936 -4.4777198 -0.54406965 0
5.0597968 -4.2819185 -0.50944966 0
4.6670432 -4.249661 -0.50330299 0
4.5303998 -3.0546424 -0.4678542 0
3.9688575 -3.117579 -0.46205661 0
3.9122415 -3.3107851 -0.48473793 0
3.8738368 -3.5273926 -0.51047605 2
3.8530326 -3.7731678 -0.54198396 2
4.4206228 -2.9806247 -0.55096799 3
4.0734735 -2.9671628 -0.53608358 2
3.8868339 -3.0531483 -0.53999215 3
3.8725724 -3.0419459 -0.62533444 2
3.9007974 -3.064117 -0.7177133 2
3.9089708 -3.0705373 -0.80811149 2
3.7910123 -2.9778795 -0.85514605 3
3.7983904 -2.983675 -0.9569158 1
3.8127227 -2.9949331 -1.0464786 2
4.916317 -3.8618181 -1.4603393 0
4.8934212 -3.8438332 -1.5634683 0
4.7896338 -3.7623072 -2.1046596 0
0.71515387 -0.56176078 -0.42543599 0
39.165958 -30.986952 9.5792751 1
17.192593 -13.602271 3.0361836 2
16.921759 -13.387996 1.8433868 1
18.986084 -15.021229 1.2120067 0
17.955854 -14.206142 0.74113697 0
23.251648 -18.396017 0.43418798 1
27.756405 -23.655987 0.42775616 0
28.215816 -25.873158 0.33475482 0
47.012859 -46.360973 0.3849014 0
6.6041684 -4.4865022 0.022713546 0
23.247761 -18.392942 -0.090024918 1
33.782463 -28.791822 -0.26572624 0
28.445723 -26.083975 -0.34421894 0
35.066223 -34.57999 -0.58623987 0
6.7556539 -4.5894132 -0.12102773 0
31.944557 -23.439863 -0.70474315 0
23.230335 -18.379154 -0.61376107 1
30.316179 -25.837608 -0.94427705 0
28.548767 -26.178465 -1.0312055 0
1.7166544 -1.6928511 -0.071386665 0
6.673461 -4.533576 -0.26227796 1
31.900473 -23.407516 -1.4052207 0
23.19622 -18.352165 -1.1373116 1
18.502869 -15.769463 -1.0070379 1
16.914696 -15.510329 -1.0176461 1
15.513344 -15.298234 -1.0312886 1
6.6685886 -4.5302663 -0.40472794 1
7.835218 -5.7492251 -0.51730561 0
19.374594 -15.328606 -1.3872839 1
18.149113 -15.467967 -1.4100516 0
6.6682377 -4.5300279 -0.54759377 1
5.9962416 -4.3998446 -0.52763331 0
4.6756911 -4.2874851 -0.5058465 0
3.931179 -3.8766689 -0.45702299 0
4.4867435 -3.0480425 -0.46444169 0
4.4587488 -3.2716832 -0.49025947 0
4.1016493 -3.2451041 -0.47883216 0
3.9006608 -3.3244212 -0.48473793 0
3.8967113 -3.5731812 -0.51513082 2
3.8710103 -3.8173344 -0.5463838 2
4.3641152 -2.9647357 -0.54521161 3
4.0438509 -2.9672446 -0.5335449 2
3.869916 -3.0617633 -0.5391233 3
3.8774903 -3.0677559 -0.62785387 2
3.8776593 -3.0678897 -0.71542209 2
3.8827474 -3.0719151 -0.8049022 2
3.7867723 -2.9959824 -0.85654336 3
3.7787209 -2.9896126 -0.95458376 1
3.8175769 -3.020354 -1.0506984 2
4.9577913 -3.9224582 -1.4767169 0
4.9012704 -3.8777406 -1.5702915 0
4.7586823 -3.7649288 -2.0968208 0
0.69614029 -0.55076563 -0.41526619 0
12.54401 -9.9958439 3.07655 0
17.29994 -13.785663 3.0636206 1
17.205313 -13.710258 1.8794782 1
18.880419 -15.045087 1.2086067 0
23.181036 -18.472084 0.43407083 1
27.782923 -23.846512 0.42944503 0
19.042122 -17.583876 0.22664416 0
25.041746 -24.867527 0.20572999 0
6.6148734 -4.5276027 0.022804581 0
41.041531 -30.335886 -0.0044537312 0
23.192801 -18.481459 -0.090061359 0
30.373373 -26.069937 -0.23962535 0
29.932524 -27.640291 -0.3633759 0
25.117025 -24.942284 -0.42136139 0
6.7791986 -4.6400762 -0.12173896 0
2.0679936 -1.5285594 -0.04574037 0
23.172291 -18.465117 -0.61392683 0
30.234907 -25.95109 -0.94456148 0
28.918427 -26.703854 -1.0479186 0
1.6681793 -1.6565735 -0.069610879 0
6.6872869 -4.5771666 -0.26344767 0
20.471836 -16.313225 -1.0065207 0
18.426481 -15.815735 -1.005879 0
16.801735 -15.515058 -1.0141021 1
15.434332 -15.326954 -1.0295866 1
6.6791077 -4.571568 -0.4063324 1
7.831162 -5.7884107 -0.51836872 0
19.230391 -15.323965 -1.3807803 1
17.879879 -15.346578 -1.3932878 0
16.610006 -15.338013 -1.4022071 0
6.6425042 -4.546515 -0.54678053 1
6.028975 -4.4563227 -0.53187931 0
5.1205702 -4.3950648 -0.51864552 0
4.6431198 -4.2875495 -0.50393885 0
4.4859428 -3.0704391 -0.46546546 0
3.9812636 -3.1725173 -0.46606815 0
3.9101853 -3.3561726 -0.48737442 0
3.8754401 -3.5786591 -0.51396716 2
3.8859022 -3.8588674 -0.55038369 1
4.3603063 -2.984446 -0.54603398 2
4.0174751 -2.9695206 -0.53142935 2
3.8654242 -3.0802093 -0.53999215 3
3.8791716 -3.0911639 -0.62986946 2
3.8607349 -3.0764725 -0.71427649 2
3.9090533 -3.1149757 -0.81260461 2
3.7578099 -2.9944556 -0.85235149 3
3.7467816 -2.9856675 -0.94914234 1
3.7947791 -3.0239148 -1.0473226 1
5.135983 -4.092669 -1.5340387 0
5.0242329 -4.0036197 -1.6141543 1
4.7366409 -3.7744484 -2.0929017 0
0.70554757 -0.56222397 -0.42204604 0
5.5156574 -4.4267821 1.8564656 0
39.071228 -31.357971 9.6094151 2
17.298067 -13.883163 3.0718517 4
16.949102 -13.60309 1.8566657 1
17.818323 -14.300714 1.1438063 0
26.863644 -23.220829 1.0451872 0
18.927874 -17.601183 0.68314677 1
40.624283 -30.247326 0.89290893 0
27.330347 -23.624245 0.42372158 0
18.977697 -17.647514 0.22660919 1
24.881248 -24.881248 0.20512374 0
6.6220789 -4.5665607 0.022884239 0
40.909721 -30.459856 -0.0044509387 1
40.110836 -32.192345 -0.1561922 0
27.785652 -24.017809 -0.21987009 0
29.92959 -27.831768 -0.36451748 1
24.993038 -24.993038 -0.42074245 0
6.7102785 -4.6273828 -0.12079065 0
41.037983 -30.555355 -0.91004127 1
31.191805 -25.034065 -0.82870591 1
31.199966 -26.969128 -0.97764575 0
28.795755 -26.777407 -1.046854 0
26.61232 -26.61232 -1.1143659 0
6.6877241 -4.6118298 -0.26409751 0
32.67894 -24.331522 -1.44696 0
20.262024 -16.261992 -0.99898994 0
18.304642 -15.822461 -1.002237 0
16.688948 -15.519188 -1.0105581 1
15.318582 -15.318582 -1.0254258 1
6.679553 -4.6061945 -0.40733519 1
7.8397431 -5.8371806 -0.52028227 0
7.26332 -5.8294296 -0.52297866 0
17.771826 -15.361896 -1.3890377 0
18.933256 -17.606188 -1.6035129 0
6.6627321 -4.5945954 -0.54976249 1
6.0261841 -4.4868722 -0.53301156 0
5.0267487 -4.3451018 -0.51067579 0
4.1830788 -4.1830788 -0.48969105 0
4.5047255 -3.106442 -0.4685367 0
4.4549747 -3.3170083 -0.49237874 0
3.9515264 -3.1714346 -0.46388003 0
3.8984461 -3.3698015 -0.48737442 0
3.8862484 -3.6138537 -0.51707035 2
3.8695941 -3.8695941 -0.54998368 2
4.3203826 -2.9793196 -0.54233342 2
3.9847527 -2.9668984 -0.52846754 2
3.879458 -3.1135936 -0.54346758 2
3.8807368 -3.11462 -0.63188505 2
3.8808465 -3.1147082 -0.7200045 2
3.8950775 -3.1261296 -0.81196272 2
3.7411916 -3.0026231 -0.85095417 3
3.7393975 -3.0011833 -0.9499197 1
3.7689545 -3.0249052 -1.043103 1
5.1338172 -4.1203232 -1.5376781 0
5.037457 -4.0429859 -1.622927 1
4.7440763 -3.8075233 -2.1020465 0
0.69792962 -0.56014764 -0.41865611 0
39.047073 -31.563313 9.6305132 1
17.172466 -13.881191 3.0581331 2
16.848824 -13.619579 1.8508775 3
17.824219 -14.40803 1.1474063 0
18.892622 -17.69178 0.22632937 2
40.822346 -30.616871 -0.0044530327 1
44.256855 -35.77459 -0.17282209 0
27.602093 -24.027979 -0.21907988 0
29.919842 -28.018093 -0.36558771 0
30.01247 -30.222733 -0.50701439 0
33.884289 -23.541428 -0.61142117 0
40.902279 -30.676821 -0.90940106 1
31.104229 -25.142794 -0.82870591 1
31.048338 -27.027981 -0.97584462 0
28.681679 -26.858629 -1.0461088 0
3.527262 -3.5519736 -0.14821908 0
6.6387525 -4.6123357 -0.26279783 1
32.417919 -24.313528 -1.4391516 0
20.07147 -16.224573 -0.99238122 0
18.409069 -16.025333 -1.0110111 1
16.555918 -15.5036 -1.0057738 1
15.160847 -15.267061 -1.0184282 1
6.6896801 -4.647718 -0.40893966 0
7.8257108 -5.8693042 -0.52070755 0
7.2522449 -5.8622799 -0.52365148 0
17.808449 -15.502486 -1.396121 0
16.345161 -15.306239 -1.3888363 0
6.6630402 -4.6292095 -0.5511179 0
5.1108203 -4.4490352 -0.52079123 0
4.6625519 -4.3661933 -0.50934386 0
4.5233121 -3.1426134 -0.47160795 0
4.5071182 -3.3803511 -0.49944299 0
3.9342365 -3.1802008 -0.46315068 0
3.8806529 -3.3781588 -0.48662114 1
3.8707037 -3.6246762 -0.51668245 2
3.8728895 -3.9000225 -0.5523836 2
4.2838154 -2.9762208 -0.53904408 2
3.9393692 -2.9545379 -0.52381331 2
3.8778429 -3.1346157 -0.54477084 2
3.8790989 -3.1356311 -0.63339674 2
3.8915014 -3.1456563 -0.72401404 2
3.8994942 -3.1521173 -0.81517208 2
3.7153728 -3.0032847 -0.84746093 2
3.6953323 -2.9870851 -0.94136882 1
3.7066798 -2.9962575 -1.028756 1
4.0288796 -3.2567046 -1.2101254 0
3.7984092 -3.0704062 -1.2271862 0
4.7072353 -3.8050468 -2.0915952 0
0.69033468 -0.55802518 -0.41526619 0
17.068598 -13.896023 3.0482559 1
16.872267 -13.736183 1.8587086 1
18.762112 -15.27476 1.2112067 0
5.1591845 -4.5228896 0.20195264 0
24.372007 -24.714705 0.81678349 0
27.747364 -22.589905 0.52397758 0
18.865671 -17.79055 0.22674908 1
30.046021 -30.4685 0.24945025 0
32.37999 -22.664293 0.11244115 0
44.116199 -35.916233 -0.17276135 1
27.518049 -24.124182 -0.21907988 0
18.915112 -17.837173 -0.23188135 0
30.058447 -30.4811 -0.50958544 1
65.26429 -45.68158 -1.1805241 0
34.786114 -26.279911 -0.7754522 0
31.171343 -25.37746 -0.83284903 0
27.582979 -24.181105 -0.86957669 0
28.477201 -26.854336 -1.0420637 0
6.6488147 -4.6538215 -0.26383758 1
32.208458 -24.332565 -1.4336149 0
20.030212 -16.307156 -0.99314964 0
18.106586 -15.873458 -0.99743605 0
16.417389 -15.481791 -1.000635 1
15.056963 -15.268681 -1.0150241 1
6.6668701 -4.6664596 -0.40853855 0
7.8338594 -5.9182558 -0.5226211 0
7.2410288 -5.895124 -0.52432424 0
17.583078 -15.414515 -1.3826628 1
6.6729975 -4.6707482 -0.55328661 0
5.3770957 -4.0622416 -0.47809693 0
4.9842963 -4.3695712 -0.50944966 0
4.6008673 -4.3386722 -0.50425678 0
3.9942284 -4.0503912 -0.47088218 0
6.6901107 -4.6827269 -0.69922191 0
4.4793959 -3.3840549 -0.49767694 0
3.9447351 -3.211519 -0.46570346 0
3.8897982 -3.4100599 -0.48925763 1
3.8869915 -3.6654787 -0.52056146 2
3.867636 -3.922019 -0.55358362 2
4.2636218 -2.9843116 -0.53781056 2
3.9099901 -2.9538853 -0.52127463 2
3.869961 -3.1506436 -0.5452053 3
3.8927481 -3.1691949 -0.63742793 2
3.8835673 -3.1617208 -0.72458684 2
3.8854055 -3.1632173 -0.81453019 2
3.6987584 -3.0112627 -0.84606361 2
3.6544547 -2.9751937 -0.93359536 2
3.7780666 -3.0758295 -1.0515423 1
3.9600945 -3.2240236 -1.1928378 0
3.8147447 -3.1056905 -1.2359588 1
4.7085838 -3.8333898 -2.0981274 0
0.68838263 -0.56043154 -0.41526619 0
40.186691 -32.951031 9.9680824 1
17.03837 -13.970592 3.0515482 1
16.497532 -13.527131 1.8226172 3
18.702499 -15.335093 1.2108067 0
32.468391 -26.622419 0.61488003 0
51.965107 -45.877914 0.81305569 1
18.79476 -17.848028 0.22664416 0
13.735556 -14.026291 0.11444212 0
44.058609 -36.125805 -0.17302859 0
30.675097 -27.081816 -0.24496526 0
18.829535 -17.881052 -0.23159596 1
29.960257 -30.594414 -0.50972825 1
44.937027 -31.687847 -0.8148331 0
34.68462 -26.393913 -0.77523881 0
31.162971 -25.552042 -0.83500344 0
27.486412 -24.266655 -0.86919755 0
1.8324898 -1.7401835 -0.06727799 0
27.059511 -27.632269 -1.1451463 0
6.6455979 -4.6862183 -0.26435748 0
18.352095 -13.965372 -0.81902593 0
19.827896 -16.25786 -0.98592621 0
17.907257 -15.809602 -0.98948961 0
16.360352 -15.536247 -1.0004579 1
13.737202 -14.027971 -0.92935127 0
6.6831889 -4.7127256 -0.41054413 1
7.8322248 -5.9600787 -0.52389681 0
7.2574663 -5.9507508 -0.52701539 0
17.370516 -15.335734 -1.3701489 1
16.156849 -15.342996 -1.3819032 0
5.5631585 -5.6809115 -0.51724648 0
6.6338215 -4.6779137 -0.55138898 0
4.6406317 -4.4068737 -0.51029772 0
3.9410176 -4.0244355 -0.46626243 0
6.6672096 -4.7014575 -0.69853944 0
3.9981861 -3.2783079 -0.47336185 0
3.8957827 -3.4394307 -0.49151748 1
3.8799474 -3.6845064 -0.52133721 2
3.8650601 -3.9468703 -0.55518353 2
4.2239132 -2.9785397 -0.53411001 2
3.9059858 -2.9723332 -0.52212089 2
3.8773887 -3.1792603 -0.54781187 2
3.8785934 -3.180248 -0.63692403 2
3.8908746 -3.1903181 -0.72802365 2
3.889605 -3.1892772 -0.81773955 2
3.6638594 -3.0041771 -0.84047443 1
3.644047 -2.987932 -0.93359536 4
3.7642832 -3.0865195 -1.0506984 3
3.8072493 -3.1217496 -1.150074 2
3.7888808 -3.1066885 -1.2310852 1
4.6893272 -3.8450084 -2.0955145 0
0.66681004 -0.54675013 -0.40340143 0
40.119888 -33.13113 9.9801378 1
37.510715 -30.976467 6.7374411 1
16.493235 -13.620166 1.827384 1
18.45787 -15.242567 1.1984066 0
13.724774 -14.113498 0.46325174 0
18.270664 -14.004381 0.40584207 0
32.695995 -27.000456 0.62097138 0
51.879379 -46.125473 0.81422853 0
49.663834 -47.492962 0.60088682 0
13.653048 -14.039741 0.11416231 0
18.232233 -13.974924 -0.0020046851 0
32.464947 -26.809654 -0.12786429 0
30.613258 -27.217962 -0.24522866 0
18.746767 -17.92732 -0.23134623 2
13.643948 -14.030382 -0.23296286 1
64.59816 -45.890568 -1.1742417 0
18.28966 -14.018941 -0.40988493 1
32.451962 -26.798933 -0.87204289 0
30.360153 -26.992929 -0.96304697 0
28.086744 -26.859037 -1.0346121 0
13.644511 -14.030961 -0.57949871 0
18.284199 -14.014756 -0.81817412 1
29.349876 -24.237221 -1.4635971 0
17.810148 -15.834837 -0.98717195 0
16.262699 -15.551836 -0.99779987 1
13.696507 -14.08443 -0.92991865 2
6.6471567 -4.7221437 -0.40934077 1
7.8335633 -6.0043912 -0.5253852 0
7.2428083 -5.9811339 -0.52746391 0
17.218403 -15.308722 -1.3623573 1
15.996434 -15.29721 -1.3727417 0
6.5686507 -4.6663733 -0.54732269 0
7.2613087 -5.5657606 -0.64906824 0
4.959631 -4.4095616 -0.51006275 0
3.9936454 -4.1067567 -0.47418198 0
4.6428595 -3.2982898 -0.48764673 0
3.9928608 -3.297317 -0.47409123 0
3.9016094 -3.4688847 -0.49377733 1
3.8785717 -3.7090342 -0.52288884 2
3.8651328 -3.9746041 -0.5571835 2
4.1972723 -2.9817445 -0.53205419 2
3.879802 -2.9738507 -0.52000529 3
3.8754654 -3.2003715 -0.54911512 3
3.8766475 -3.2013476 -0.63843572 2
3.8858199 -3.2089221 -0.72916919 2
3.8997588 -3.220433 -0.8222326 2
3.6472766 -3.0119326 -0.83907717 1
3.6184671 -2.9881415 -0.9297086 8
3.7263525 -3.0772336 -1.043103 3
3.7993321 -3.1375005 -1.1509839 1
3.7600656 -3.1050739 -1.2252368 2
4.6962829 -3.8782051 -2.1046596 0
0.69562799 -0.5744518 -0.42204604 0
36.324791 -30.221741 6.5442843 1
15.514884 -12.908176 1.7242169 0
18.328173 -15.248795 1.1936066 0
13.650738 -14.140689 0.46249893 1
18.143246 -14.012582 0.40414986 1
32.458458 -27.005003 0.61833572 0
27.180805 -24.345158 0.4279907 0
26.890791 -25.904718 0.32650048 0
13.598723 -14.086807 0.11413899 1
63.567963 -45.510178 0.22241294 0
18.190386 -14.048989 -0.0020057324 1
54.204449 -45.097378 -0.21413565 0
30.310686 -27.148512 -0.24360035 0
18.70686 -18.020887 -0.23166731 0
13.581323 -14.068782 -0.23277241 1
5.789237 -4.4712043 -0.13010752 0
40.245148 -33.483425 -1.0847504 1
30.186546 -27.037325 -0.96067703 0
18.712496 -18.026316 -0.69172847 0
13.562449 -14.049232 -0.57819647 1
7.2165227 -5.1665215 -0.28853175 0
18.283329 -14.120772 -0.82044566 0
19.600435 -16.307299 -0.98039335 0
17.85321 -15.990667 -0.99280065 0
16.274658 -15.677875 -1.0020527 1
13.639246 -14.128784 -0.9295404 4
7.828433 -5.6046062 -0.48334703 0
7.7482781 -5.9842319 -0.52113277 0
18.564798 -15.445663 -1.3561115 1
17.209768 -15.414353 -1.366135 1
5.4696922 -5.6660094 -0.51231289 0
6.5093203 -4.6602144 -0.54379857 0
7.2503333 -5.5996537 -0.64991742 0
3.9148881 -4.0554008 -0.46659243 0
4.3989663 -3.3974559 -0.49273196 0
3.8948019 -3.4884753 -0.49453062 1
3.8764198 -3.7342732 -0.52444041 2
3.8477757 -3.9858797 -0.5567835 2
4.1377883 -2.9623649 -0.52588665 2
3.8814681 -2.9977763 -0.52169776 2
3.8698227 -3.2196407 -0.54998398 3
3.8801398 -3.2282245 -0.64095515 2
3.8618593 -3.2130153 -0.72687805 2
3.9000695 -3.2448056 -0.82480007 2
3.6452959 -3.0328374 -0.84117311 1
3.580344 -2.9787984 -0.9227125 9
3.6278834 -3.0183506 -1.0186288 3
3.7698412 -3.1364574 -1.1455247 1
3.7426953 -3.1138725 -1.2232873 3
4.6849427 -3.8978097 -2.1059659 0
0.69908822 -0.58163208 -0.42543599 0
19.834545 -16.619577 3.583827 0
15.396416 -12.900822 1.7160454 1
17.077538 -14.309453 1.1154062 0
15.429668 -13.917336 0.6116246 0
13.60683 -14.194026 0.46268713 1
18.100534 -14.08074 0.40429088 0
28.176327 -23.609247 0.53832752 0
28.491577 -25.698988 0.45004001 0
25.28722 -24.530708 0.30806816 0
13.577148 -14.163064 0.11437217 0
54.764137 -45.887459 -0.21697815 0
30.215734 -27.254152 -0.24360035 1
46.201923 -44.819714 -0.57410258 0
13.54597 -14.130541 -0.23301047 0
18.255163 -14.201029 -0.41137877 0
40.31501 -33.780376 -1.089805 1
30.023687 -27.080929 -0.95849669 0
18.635107 -18.077604 -0.6911962 4
13.546529 -14.131124 -0.57961708 1
34.977306 -25.226423 -1.4019784 0
31.069298 -24.16938 -1.3979803 0
19.399399 -16.254965 -0.97316986 0
17.565802 -15.844098 -0.97988778 0
16.159601 -15.676158 -0.99833149 1
13.587079 -14.173424 -0.92935127 2
7.8250227 -5.6435833 -0.48434982 0
18.330162 -15.35904 -1.34288 1
17.025394 -15.356658 -1.3557462 1
15.906619 -15.430744 -1.3744749 0
6.3408847 -4.5731893 -0.53105754 0
4.8124509 -4.3407607 -0.49810815 0
4.0055366 -4.1783938 -0.47913167 0
4.5965123 -3.3151085 -0.48525798 0
4.4562674 -3.4666126 -0.50050265 0
3.97527 -3.3309214 -0.47482061 0
3.9003432 -3.5180528 -0.49679047 1
3.857646 -3.7422378 -0.52366465 2
3.8723977 -4.0395093 -0.56238335 2
4.1145144 -2.9674807 -0.52424192 2
3.87098 -3.0113068 -0.52169776 2
3.8737998 -3.2458985 -0.55215609 2
3.8992634 -3.2672346 -0.64599413 2
3.8779294 -3.2493587 -0.73203319 2
3.8947718 -3.2634711 -0.82608378 2
3.6437435 -3.0531318 -0.84326905 0
3.5819545 -3.0013583 -0.9258219 7
3.5843587 -3.0033727 -1.0093455 4
3.7290139 -3.1245809 -1.136426 1
3.7377501 -3.1319008 -1.2252368 3
4.6800022 -3.9214239 -2.1098852 0
0.68594533 -0.57476091 -0.41865611 0
39.344574 -33.201691 9.8746481 0
36.739731 -31.003546 6.6578736 0
14.46798 -12.209089 1.6173047 0
16.97558 -14.325177 1.1120062 1
29.995682 -31.509575 1.0237082 1
23.393623 -18.329758 0.52394235 0
27.879776 -23.526896 0.53422749 0
28.543808 -25.927372 0.45229185 0
25.4475 -24.8592 0.3110761 0
26.32716 -27.655901 0.22258852 0
32.095192 -23.31852 0.11286219 0
23.324842 -18.275864 -0.0025858798 0
54.787041 -46.233124 -0.21770699 0
28.58967 -25.96903 -0.23122038 0
35.235603 -34.421021 -0.43932599 0
32.398369 -34.033527 -0.5593394 0
32.179161 -23.379526 -0.5894323 0
23.318007 -18.270508 -0.52690345 0
33.772446 -28.49954 -0.91562843 0
28.573273 -25.954136 -0.91507947 0
18.574753 -18.145338 -0.69130266 1
26.919806 -28.278458 -1.1560378 0
19.056845 -13.845607 -0.76577884 0
30.884056 -24.198784 -1.3934373 0
19.296719 -16.283915 -0.97086447 0
17.498554 -15.89457 -0.97922558 1
16.033321 -15.662659 -0.99390155 1
14.592644 -15.32914 -1.0017854 2
7.8182025 -5.6802559 -0.48515207 0
19.588058 -15.347959 -1.3246255 1
18.194029 -15.353389 -1.336825 1
16.959862 -15.405255 -1.3548018 1
15.658463 -15.296468 -1.3576375 0
5.4822941 -5.7589874 -0.51724648 0
6.3603969 -4.621098 -0.5340395 0
4.9064999 -4.4567509 -0.50944966 0
3.9689381 -4.1692519 -0.47649184 0
4.8106108 -3.4951129 -0.5091455 0
3.9362204 -3.3216569 -0.47153842 0
3.8968823 -3.5396791 -0.49792039 1
3.8644943 -3.7751541 -0.52637994 2
3.8665061 -4.0616498 -0.56358331 2
4.0880356 -2.9701314 -0.5221861 2
3.8573151 -3.022347 -0.52127463 2
3.8806794 -3.2747874 -0.55476266 2
3.8878348 -3.2808256 -0.64599413 2
3.8695893 -3.265429 -0.73260599 2
3.8924086 -3.2846854 -0.82800943 2
3.669184 -3.096313 -0.8516528 0
3.5414689 -2.988538 -0.91804838 3
3.5469596 -2.9931715 -1.0017501 4
3.712131 -3.1325545 -1.1346062 1
3.6971467 -3.1199098 -1.2154894 3
4.6633959 -3.935298 -2.1085787 0
0.66732103 -0.56313193 -0.40848634 0
24.464134 -20.791174 4.4464478 0
14.379724 -12.220801 1.6121974 2
15.232927 -12.945908 1.0008055 0
15.323279 -14.016621 0.61127156 0
29.514654 -31.221785 1.0110048 0
23.279266 -18.371662 0.52281427 1
27.934629 -23.740622 0.53686321 0
28.444275 -26.018751 0.45215109 0
46.911636 -46.148247 0.57542431 1
26.950384 -28.509199 0.2286977 0
47.371609 -34.670773 0.167006 0
23.257763 -18.354694 -0.0025855307 1
54.607052 -46.408535 -0.21763411 0
28.501801 -26.071371 -0.23124433 0
35.112389 -34.541004 -0.43929031 0
44.330551 -46.894638 -0.76816326 0
23.266644 -18.361702 -0.527188 1
28.476603 -26.048321 -0.91488987 0
27.764099 -27.312294 -1.0368475 1
26.91157 -28.468138 -1.1599445 1
33.826046 -24.75692 -1.3627276 0
23.218006 -18.323317 -1.0504373 2
28.556597 -24.269207 -1.4410045 0
17.469505 -15.979832 -0.98071551 1
15.961456 -15.701716 -0.99283832 1
14.478661 -15.316108 -0.9976247 1
7.8176699 -5.7216687 -0.48635539 0
19.415213 -15.322207 -1.316546 1
18.167717 -15.440078 -1.3388433 1
16.758667 -15.329609 -1.3429962 1
15.55659 -15.303438 -1.3534282 0
14.469782 -15.306716 -1.3702358 0
6.2572765 -4.5796337 -0.52672017 0
4.9791961 -4.554606 -0.51864552 0
3.9625757 -4.1917715 -0.47748178 0
3.933708 -3.3431146 -0.4726325 0
3.8874412 -3.555948 -0.49829704 2
3.8569691 -3.7942047 -0.52715576 2
3.8577726 -4.0809064 -0.56438327 3
4.0423255 -2.9585347 -0.51766324 2
3.887332 -3.0678265 -0.52677512 2
3.8722551 -3.2908881 -0.55519706 2
3.8854303 -3.3020852 -0.64750582 2
3.8853166 -3.3019886 -0.73776114 2
3.895962 -3.3110356 -0.83121872 2
3.6793618 -3.1269553 -0.85654336 0
3.5220463 -2.9932585 -0.91571635 2
3.5275526 -2.9979379 -0.99921834 4
3.6121321 -3.069819 -1.1073102 1
3.6714537 -3.1202343 -1.2106158 5
4.6035385 -3.912379 -2.0876758 0
0.67639458 -0.57484299 -0.41526619 0
18.870758 -16.151356 3.4400568 0
14.364228 -12.294247 1.6152617 1
15.202821 -13.011992 1.0018055 0
19.135466 -17.626808 0.76579589 0
24.617783 -24.386856 0.91586483 0
29.227589 -31.135109 1.0048883 0
23.214994 -18.452812 0.52281427 1
19.115957 -17.608839 0.3048431 0
25.242071 -25.005287 0.31069136 0
29.205069 -31.11112 0.24875072 0
23.199814 -18.440744 -0.0025862288 1
30.413191 -26.030445 -0.1215719 0
28.454748 -26.211351 -0.23160352 0
25.1511 -24.915169 -0.31575105 0
43.140034 -45.955544 -0.75030893 0
2.0409865 -1.5047451 -0.037576679 0
23.18049 -18.425386 -0.52669007 1
30.294392 -25.928764 -0.82622004 0
29.826689 -27.475128 -0.96134061 0
27.708361 -27.448442 -1.0383378 1
26.874969 -28.62895 -1.1626674 0
31.808697 -23.451395 -1.2847461 0
23.153904 -18.404253 -1.0504373 1
28.429192 -24.332354 -1.4388529 0
17.328373 -15.962189 -0.9759146 0
15.883839 -15.73484 -0.99142075 1
14.416905 -15.357817 -0.99705732 1
7.8265891 -5.7702594 -0.48816043 0
7.235589 -5.7513242 -0.49200377 0
18.043924 -15.443673 -1.3336853 1
16.658064 -15.344728 -1.3392185 1
15.565474 -15.419461 -1.3588756 0
14.328843 -15.264006 -1.3619266 0
7.8023682 -5.7524018 -0.65846801 0
4.8752661 -4.4908957 -0.50944966 0
3.9533763 -4.211391 -0.47814173 0
4.6641955 -3.4387414 -0.49617797 0
3.9220145 -3.3568256 -0.4726325 0
3.8955073 -3.5883822 -0.50093353 1
3.8437011 -3.8076451 -0.52715576 2
3.8652954 -4.1175618 -0.5675832 2
4.0127583 -2.9584606 -0.5151962 2
3.8797128 -3.0838523 -0.52719826 2
3.8728278 -3.3147273 -0.55693477 3
3.8738801 -3.3156278 -0.64750582 2
3.8707592 -3.3129568 -0.73718834 2
3.8843806 -3.324615 -0.83121872 2
3.6923618 -3.1602676 -0.86213255 0
3.4936907 -2.9902263 -0.91105223 1
3.4962728 -2.9924364 -0.99331081 7
3.5244544 -3.0165567 -1.0836537 1
3.6605396 -3.1330311 -1.2106158 16
4.6415539 -3.9726746 -2.1111915 0
0.66337347 -0.56777686 -0.40848634 0
19.819651 -17.083731 3.6238852 0
14.288018 -12.315689 1.6115164 1
15.169411 -13.075414 1.0026056 0
18.924326 -17.554815 0.75979382 1
29.088734 -31.204765 1.0038532 0
40.739204 -30.255606 1.0425831 0
23.172295 -18.551231 0.5233078 0
18.940018 -17.56937 0.30301347 2
24.735529 -24.675167 0.30551493 0
26.139751 -28.041264 0.22347459 0
40.937103 -30.402578 0.14506626 1
57.402653 -45.955307 -0.0064168773 0
27.774088 -23.940132 -0.11135588 0
30.028742 -27.855629 -0.24520472 1
25.078136 -25.016937 -0.31592941 0
42.684807 -45.789875 -0.7451669 1
41.070843 -30.501902 -0.75811249 1
23.209698 -18.581175 -0.52882415 0
35.659203 -30.736778 -0.97545505 0
25.033447 -24.972359 -0.94135964 0
26.434088 -28.35701 -1.1478691 0
33.119595 -24.596785 -1.3411528 0
23.042709 -18.447489 -1.0483078 0
28.274446 -24.371422 -1.435318 0
17.14949 -15.908421 -0.96896148 0
15.661899 -15.62368 -0.98096609 1
14.314168 -15.355439 -0.99365312 2
7.8128138 -5.8023081 -0.48856154 0
7.2435327 -5.7990136 -0.49391735 0
17.817476 -15.357939 -1.3209023 1
16.537071 -15.340322 -1.3337879 1
15.316529 -15.279153 -1.3417906 1
5.4652333 -5.8627968 -0.52140105 0
6.2764144 -4.6612768 -0.53105754 0
4.8073249 -4.1437182 -0.46874639 0
3.9413698 -4.2280812 -0.47847173 0
4.3825488 -3.5085726 -0.49767694 0
3.8710496 -3.3366868 -0.46789157 0
3.8858778 -3.6046655 -0.50131017 2
3.8698459 -3.8604023 -0.53258634 2
3.8590405 -4.1397629 -0.56878316 2
3.9736583 -2.9510994 -0.51149565 2
3.8471892 -3.0799754 -0.52423644 2
3.8853285 -3.3489947 -0.5604102 2
3.8682942 -3.334312 -0.64851362 2
3.8771627 -3.3419561 -0.74062514 2
3.8996663 -3.3613534 -0.83699554 2
3.6663916 -3.16028 -0.8586393 0
3.471343 -2.9921563 -0.90794283 1
3.4502664 -2.973989 -0.98318362 13
3.4873495 -3.0059531 -1.0754648 2
3.6290114 -3.1280599 -1.2037927 6
4.570385 -3.9394858 -2.085063 0
0.6613875 -0.57008904 -0.40848634 0
36.476818 -31.664131 6.6897006 1
14.172709 -12.302786 1.6033447 2
15.015068 -13.034006 0.9954055 0
27.787689 -24.121429 1.191099 0
25.081661 -25.195744 0.93964392 0
25.806757 -27.878523 0.89394504 0
27.152908 -23.5704 0.5265547 0
18.939953 -17.692715 0.30399868 2
24.759298 -24.871914 0.30687898 0
26.204741 -28.308456 0.22487363 0
40.827526 -30.542892 0.14505489 1
44.331871 -35.74577 -0.0049696504 0
27.620876 -23.976627 -0.11107649 0
29.957632 -27.984856 -0.24542023 0
24.906 -25.019283 -0.31485921 0
26.192459 -28.295191 -0.45897445 0
40.928894 -30.618727 -0.75746053 1
31.18338 -25.14385 -0.71249694 1
35.615112 -30.916117 -0.97719514 0
29.128613 -27.210428 -0.94494069 0
26.424332 -26.544521 -0.99714071 1
26.114939 -28.211447 -1.1382799 0
32.841461 -24.568554 -1.3333546 0
30.400026 -24.512215 -1.3869066 0
18.726397 -16.255667 -0.95349747 0
17.015001 -15.894526 -0.96449167 0
15.494497 -15.564974 -0.9738782 1
14.219767 -15.361329 -0.9908163 2
7.8277011 -5.8558688 -0.49076772 0
7.2263546 -5.8267698 -0.49412996 0
17.709473 -15.372916 -1.3168657 1
16.381294 -15.30255 -1.3255241 2
15.294084 -15.363648 -1.3445143 1
5.4203315 -5.8554754 -0.51906413 0
6.1706295 -4.616221 -0.52346712 0
5.6995878 -4.5957041 -0.51942444 0
4.8641973 -4.543879 -0.51159537 0
3.9455428 -4.262291 -0.48078158 0
3.9165323 -3.3997917 -0.47482061 0
3.8761818 -3.6209266 -0.50168681 2
3.8788166 -3.8964591 -0.53568953 2
3.8716028 -4.182415 -0.57278299 2
3.9601471 -2.9625688 -0.5110845 2
3.8704746 -3.1208494 -0.52889067 2
3.8586006 -3.3495035 -0.55823809 2
3.8836012 -3.3712056 -0.65304869 2
3.9043374 -3.3892059 -0.74807149 2
3.8908908 -3.3775334 -0.83763742 2
3.7505133 -3.255677 -0.88099605 0
3.4430988 -2.9888225 -0.90327877 1
3.4516749 -2.9962668 -0.98655933 15
3.4680111 -3.0104477 -1.0727352 2
3.6034222 -3.1279929 -1.1989191 6
4.5508962 -3.9504588 -2.0824502 0
0.65939349 -0.57239425 -0.40848634 0
14.26483 -12.470334 2.624079 0
14.147679 -12.367922 1.6053877 1
14.918347 -13.041641 0.99200547 0
16.95188 -14.819357 0.72884291 0
28.058302 -30.52387 0.97562337 1
18.843119 -17.725834 0.30343571 0
25.226009 -27.442696 0.21729547 0
60.961193 -45.937561 0.21715561 0
44.150932 -35.854908 -0.0049633672 2
27.488831 -24.030775 -0.11088213 0
18.899433 -17.778809 -0.15533623 0
29.975687 -30.322981 -0.38028541 1
41.787548 -45.459545 -0.73502564 2
40.856899 -30.787888 -0.75811249 0
31.048851 -25.214729 -0.71142989 0
27.618546 -24.144173 -0.76009589 0
28.911121 -27.196861 -0.94095916 0
26.303408 -26.608154 -0.99607623 0
22.953333 -24.970312 -1.0042671 0
32.678871 -24.625299 -1.3302354 0
30.342203 -24.640862 -1.3881843 0
27.528843 -24.065754 -1.4059631 1
16.874996 -15.874409 -0.95969075 0
15.445693 -15.624644 -0.97423261 1
14.141724 -15.384399 -0.98911417 1
7.8104029 -5.8855615 -0.49096826 0
7.2338777 -5.8746219 -0.49604356 0
17.559486 -15.350529 -1.3096893 1
16.27252 -15.307656 -1.321038 2
15.206684 -15.382866 -1.341543 1
5.399859 -5.874361 -0.51906413 0
6.1130443 -4.6065102 -0.519943 0
5.72997 -4.6533003 -0.52367038 0
5.2077532 -4.5526257 -0.51087761 0
4.8105421 -4.5253057 -0.5076105 0
3.9360361 -4.2819076 -0.48144153 0
4.125977 -3.3506999 -0.47118595 0
3.9076397 -3.4160643 -0.4751853 0
3.8867228 -3.6562631 -0.50469995 2
3.8623939 -3.9071426 -0.53530163 2
3.8354323 -4.1724634 -0.56958312 2
3.9402485 -2.9691908 -0.50985098 2
3.8811705 -3.1518931 -0.53185248 2
3.8708341 -3.3838887 -0.56171346 3
3.8747969 -3.3873529 -0.65355259 2
3.8745999 -3.387181 -0.74463469 2
3.8909671 -3.401489 -0.84020489 2
3.7331951 -3.2635646 -0.8795988 0
3.4090123 -2.9801636 -0.89705998 1
3.4264762 -2.9954305 -0.98233968 20
3.4310882 -2.9994624 -1.0645463 2
3.5807984 -3.1303391 -1.1950201 16
4.5541563 -3.98125 -2.0902886 0
0.61920267 -0.54130787 -0.38475683 0
36.27309 -31.94529 6.6940904 2
14.129173 -12.443399 1.608452 3
14.909423 -13.130556 0.99460548 0
25.757545 -28.2279 0.89921463 0
31.552189 -29.90007 0.50985456 0
24.286531 -24.748686 0.3032065 0
26.246847 -28.764128 0.22699553 0
60.480217 -45.92363 0.2160404 0
44.022316 -36.019024 -0.0049637165 1
27.496626 -24.215961 -0.11127084 0
18.819626 -17.834202 -0.1552165 1
30.105278 -30.67816 -0.38335338 1
41.652996 -45.64785 -0.73559701 1
34.748959 -26.385458 -0.64656782 0
31.185282 -25.515772 -0.716694 0
27.502859 -24.221451 -0.75935012 0
28.767706 -27.261387 -0.93953723 0
27.933708 -28.465267 -1.0617574 1
22.783503 -24.968622 -1.0008339 1
18.355846 -13.937899 -0.74927276 0
30.100088 -24.627867 -1.3812279 0
18.639589 -16.415672 -0.95503438 0
16.697762 -15.823442 -0.95290321 0
15.312752 -15.604142 -0.96944827 1
14.03407 -15.38005 -0.98552084 1
7.8110499 -5.9310594 -0.49237218 0
18.795872 -15.378766 -1.2927325 1
17.431175 -15.351435 -1.304307 2
16.184423 -15.336983 -1.3184408 2
15.186553 -15.475542 -1.344762 1
5.3917441 -5.9088554 -0.52036244 0
6.1724 -4.6868057 -0.52644908 0
5.1910324 -4.5716825 -0.51087761 0
4.8199782 -4.5675969 -0.5103693 0
3.9283764 -4.3051391 -0.48243147 0
3.8891146 -3.4250982 -0.47445592 0
3.8530624 -3.6513102 -0.50206345 2
3.8647778 -3.9383218 -0.53762901 2
3.8362095 -4.2041326 -0.57198304 2
3.9166644 -2.9739881 -0.50820631 2
3.866514 -3.1635785 -0.53142935 2
3.8584056 -3.3980534 -0.56171346 2
3.8653336 -3.4041545 -0.65405649 2
3.8681011 -3.4065921 -0.74578029 2
3.8992145 -3.4339931 -0.84469795 2
3.7241645 -3.2798285 -0.88029742 0
3.3921773 -2.9874513 -0.89550531 1
3.3802636 -2.976959 -0.97221243 30
3.4025328 -2.9965715 -1.0590872 2
3.5693014 -3.1434424 -1.1950201 19
4.5792546 -4.032897 -2.1085787 0
0.65256166 -0.57470351 -0.40679136 0
24.135239 -21.40568 4.4678488 0
14.064778 -12.474132 1.6060686 1
14.977073 -13.283252 1.0022055 0
29.913378 -30.696217 1.1328357 0
25.481646 -28.122053 0.89300406 0
18.220774 -13.935869 0.47129458 0
28.564127 -25.333687 0.55912024 0
26.933611 -25.702368 0.43666968 0
13.636747 -13.993624 0.17085752 0
28.21167 -31.134964 0.24492666 0
18.253138 -13.960624 0.06537541 0
32.511673 -26.791031 -0.0036763614 0
30.661856 -27.194176 -0.124463 0
18.745682 -17.888742 -0.15512072 2
13.675808 -14.033707 -0.1747672 0
41.351074 -45.635872 -0.73307359 1
18.2798 -13.981016 -0.34103504 1
31.148495 -25.667713 -0.71790332 0
30.562668 -27.106205 -0.84643841 1
28.689728 -27.378206 -0.94010597 0
27.591387 -28.313457 -1.0524961 0
3.0820029 -3.4013603 -0.13590695 0
18.294384 -13.992169 -0.74875289 1
29.936811 -24.669233 -1.3776785 0
27.364899 -24.270084 -1.406424 0
13.743806 -14.103483 -0.87322992 0
13.980302 -15.428942 -0.98552084 2
7.8093395 -5.9728494 -0.49357554 0
18.674257 -15.388399 -1.2880548 1
17.374495 -15.409538 -1.3040828 1
16.084568 -15.349278 -1.3146629 2
13.719782 -14.078832 -1.2192243 1
5.3978891 -5.9572182 -0.52295905 0
6.1686835 -4.7180195 -0.52753341 0
3.9133258 -4.3188248 -0.48243147 0
18.069538 -13.820199 -1.9478569 0
3.9665995 -3.2686503 -0.45564461 0
3.9009757 -3.4597976 -0.47737339 0
3.8662217 -3.6894813 -0.50545323 2
3.8593428 -3.9603424 -0.53879273 2
3.8562531 -4.2558379 -0.57718289 2
3.8904576 -2.9755549 -0.50615048 2
3.8677258 -3.1871741 -0.53312182 2
3.8613949 -3.4246933 -0.56388563 3
3.8653021 -3.4281585 -0.65607202 2
3.8739567 -3.4358342 -0.74921709 2
3.8872037 -3.447583 -0.84469795 2
3.745105 -3.3215551 -0.88798255 0
3.3611798 -2.9810495 -0.89006382 2
3.364001 -2.9835515 -0.97052455 32
3.386224 -3.0032613 -1.0572674 2
3.5495996 -3.1481602 -1.1920959 20
3.5780137 -3.1733606 -1.6526345 0
0.62344521 -0.55293715 -0.38984174 0
15.251237 -13.621819 2.832052 0
15.037879 -13.431255 1.0094056 0
15.370858 -13.72866 0.66711384 0
13.69482 -14.151713 0.52049786 0
27.959105 -31.073532 0.98362184 0
18.127665 -13.965219 0.47014427 0
25.312357 -24.324614 0.41175869 0
13.629541 -14.084256 0.17138216 0
24.884264 -27.656178 0.21687575 0
18.19479 -14.016932 0.065341271 1
32.381023 -26.873703 -0.0036721725 0
30.53393 -27.271732 -0.12432938 0
18.749458 -18.017813 -0.15567148 0
13.610049 -14.064115 -0.17455314 1
41.063107 -45.637218 -0.73078823 1
18.199203 -14.020332 -0.34044236 1
32.397446 -26.887331 -0.74884737 0
30.464882 -27.210062 -0.84635556 0
18.735878 -18.004763 -0.61599362 1
13.577963 -14.030957 -0.51980764 1
22.482946 -24.987371 -0.99526978 1
18.337275 -14.126699 -0.75252199 0
29.678257 -24.630619 -1.3697282 0
18.697437 -16.699831 -0.96394843 0
13.666702 -14.122657 -0.87145799 3
13.80877 -15.34696 -0.97719944 2
7.775784 -5.9903212 -0.49277329 0
18.509777 -15.361659 -1.2804004 1
17.195499 -15.358358 -1.2946638 1
16.099989 -15.471731 -1.3203297 1
13.653896 -14.109424 -1.2177387 2
5.3717213 -5.9700894 -0.52243972 0
5.0459323 -4.5068326 -0.49968189 0
4.7390862 -4.5541568 -0.50515831 0
3.8795617 -4.3117146 -0.48012161 0
4.1697869 -3.4605954 -0.48036951 0
3.8621373 -3.4495125 -0.47409123 0
3.9078743 -3.7553804 -0.51260942 2
3.8482637 -3.9766512 -0.53918064 2
3.8706565 -4.3018174 -0.58158278 2
3.8674395 -2.9794042 -0.50450575 2
3.8565769 -3.2006557 -0.53312182 1
3.8731425 -3.459342 -0.56736106 3
3.8829074 -3.4680638 -0.661111 2
3.8796551 -3.4651589 -0.75265384 2
3.8869245 -3.4716516 -0.84726542 2
3.7041137 -3.308372 -0.88099605 0
3.3566062 -2.9979918 -0.89161855 2
3.3593981 -3.0004852 -0.97221243 24
3.3611944 -3.0020897 -1.0527182 2
3.5328023 -3.1553633 -1.1901464 2
3.4879634 -3.1153147 -1.6160545 0
0.61070246 -0.54545593 -0.38306189 0
6.2216611 -5.5961142 1.1589408 0
14.558134 -13.094409 1.6728038 0
15.115653 -13.595874 1.0178056 0
15.370399 -13.825007 0.66918445 0
13.631485 -14.185016 0.5199694 1
27.791847 -31.105333 0.98155165 1
18.11356 -14.05538 0.47104809 0
29.62064 -26.642479 0.58342731 0
25.428492 -24.607523 0.41504261 0
3.7636814 -3.9165123 0.04749734 0
27.855036 -31.176054 0.24371415 1
18.171032 -14.099976 0.06543231 0
54.860317 -45.854069 -0.0062395521 0
30.385014 -27.330002 -0.12411072 0
46.315147 -44.819847 -0.38583824 0
13.59136 -14.143261 -0.17494556 0
40.860912 -45.732555 -0.73002648 1
18.191231 -14.115649 -0.34121287 0
40.162144 -33.568848 -0.9310264 0
30.33106 -27.281473 -0.84527832 1
18.658548 -18.05615 -0.61551964 3
13.528902 -14.078267 -0.51980764 1
22.366283 -25.032906 -0.99396753 1
31.57576 -24.501495 -1.2993026 1
29.420343 -24.590496 -1.3617779 0
18.237837 -16.404142 -0.94320017 0
16.729313 -16.189201 -0.96432608 1
13.592402 -14.144344 -0.86986321 4
13.747127 -15.386129 -0.97663206 1
7.2372065 -5.6157756 -0.45988163 0
18.364101 -15.349323 -1.2740219 1
17.135843 -15.412947 -1.2942152 1
15.799113 -15.289034 -1.3000242 1
13.601795 -14.15412 -1.2174911 3
13.690939 -15.323243 -1.3367394 0
6.1072187 -4.7389517 -0.52509367 0
4.7661505 -4.6122737 -0.50975621 0
13.609677 -14.162322 -1.5661848 0
3.8830791 -4.3460393 -0.48243147 0
4.5844646 -3.5573566 -0.49686047 0
3.8944962 -3.5029302 -0.47956151 0
3.8918803 -3.7662296 -0.51223278 2
3.8647025 -4.0216355 -0.54344749 2
3.8450096 -4.303431 -0.57998282 2
3.8633025 -2.9977643 -0.50532812 2
3.872849 -3.2370551 -0.53692979 2
3.8728688 -3.4834771 -0.56909871 2
3.8707776 -3.4815965 -0.661111 2
3.8763654 -3.4866223 -0.75437224 2
3.8777175 -3.4878385 -0.8479073 2
3.7569642 -3.3792262 -0.89636636 0
3.3140306 -2.9808269 -0.88306773 3
3.3082051 -2.9755869 -0.96039736 9
3.3275261 -2.9929652 -1.0454391 2
3.4611952 -3.1131947 -1.1696771 1
3.4461472 -3.0996599 -1.6016837 0
0.61687601 -0.5548532 -0.38814676 0
15.193947 -13.762537 2.8391855 2
13.951105 -12.636783 1.6081115 3
16.924601 -15.330148 1.1432064 0
15.431684 -13.977879 0.67397261 0
35.192169 -34.294674 1.4463857 0
13.60397 -14.255653 0.5208149 1
27.603485 -31.112419 0.97872865 1
18.039179 -14.098821 0.47039077 0
27.842905 -23.437595 0.64161962 0
27.084877 -24.533232 0.53516465 0
13.599916 -14.251407 0.17225656 0
27.637203 -31.150421 0.24275814 0
23.347055 -18.24728 0.084299572 0
54.97839 -46.279697 -0.0062713171 0
30.25386 -27.403669 -0.12396496 1
47.639446 -46.424507 -0.39821821 0
32.418839 -33.971828 -0.41881341 1
24.237989 -27.319103 -0.43474022 0
31.626116 -24.717918 -0.5948258 0
40.225239 -33.860794 -0.9352234 0
6.4881716 -5.8769259 -0.18138558 0
18.540991 -18.068144 -0.61371851 0
13.570775 -14.220869 -0.52332056 0
22.302649 -25.137743 -0.99503303 1
31.483742 -24.606642 -1.2990427 0
29.172237 -24.556601 -1.3542535 1
27.500292 -24.909512 -1.4267113 0
16.606865 -16.183344 -0.96051848 0
13.57605 -14.226397 -0.87198955 2
13.640303 -15.374247 -0.97284961 1
7.2521839 -5.6680651 -0.46208778 0
18.304298 -15.408189 -1.2735966 1
1.7374977 -1.5738094 -0.13164172 0
15.694172 -15.293927 -1.2957741 2
14.740232 -15.446348 -1.3242104 1
13.539352 -15.260465 -1.3271319 1
5.5310636 -4.6559377 -0.51291394 0
4.7414522 -4.620532 -0.50883663 0
13.543641 -14.192435 -1.5642771 0
3.8916955 -4.3864045 -0.4854013 0
17.977205 -14.050384 -1.9536581 0
4.1973457 -3.5332408 -0.48637411 0
3.8999596 -3.5325475 -0.48174962 0
3.8730056 -3.7742331 -0.5114795 2
3.8616347 -4.0466223 -0.54499912 2
3.8510952 -4.3406434 -0.58318269 2
3.8590848 -3.0161321 -0.50615048 2
3.8736973 -3.2608001 -0.53862226 2
3.8636334 -3.4996436 -0.56953317 3
3.873307 -3.5084059 -0.66363049 2
3.8700404 -3.5054469 -0.75551784 2
3.871372 -3.5066531 -0.84919107 1
3.6546559 -3.3103538 -0.87470824 0
3.2890654 -2.9792051 -0.87918097 3
3.274616 -2.9661169 -0.95364588 4
3.3401546 -3.0254812 -1.0527182 2
3.4474325 -3.1226525 -1.1687024 5
3.4381094 -3.114208 -1.6029902 0
0.63104749 -0.57159698 -0.39831656 0
1.5723689 -1.433758 0.55856454 1
15.180429 -13.842213 2.8452218 1
13.8355 -12.615844 1.5995994 2
14.323137 -13.060494 0.97040534 1
15.296622 -13.948163 0.67009032 0
24.748861 -24.278225 1.0204728 0
13.564874 -14.309394 0.52113193 0
27.452568 -31.149786 0.97703487 0
23.240744 -18.28866 0.60760516 1
48.586559 -44.303455 0.96290982 0
46.940323 -46.047684 0.77125585 0
27.074894 -28.560925 0.34412837 0
27.427963 -31.121868 0.24182543 0
23.28013 -18.319656 0.08427681 1
54.571339 -46.247116 -0.0062423446 0
28.495811 -25.983789 -0.11711378 0
35.158489 -34.489899 -0.2948443 1
43.500282 -45.887833 -0.56393546 1
23.036554 -26.139038 -0.41474339 1
23.24938 -18.295458 -0.43841437 1
36.073082 -30.570555 -0.84103948 0
28.463232 -25.954082 -0.79812968 0
28.206749 -27.670357 -0.93669331 0
27.45422 -28.961069 -1.0623962 0
22.221807 -25.214563 -0.9951514 1
23.277357 -18.317474 -0.96294218 3
29.002207 -24.578259 -1.3501364 0
27.27577 -24.8713 -1.4193342 1
14.771436 -15.582178 -0.95208287 2
13.602452 -15.434384 -0.97379518 1
7.2396269 -5.6970243 -0.46248889 0
18.115974 -15.352593 -1.2640287 1
16.794455 -15.313954 -1.2762743 1
15.617714 -15.32072 -1.2936492 1
14.521385 -15.318404 -1.3091062 1
13.544093 -15.368166 -1.3325847 0
6.0622754 -4.7705402 -0.52400929 0
5.5155935 -4.6742539 -0.51291394 0
5.1584315 -4.7036948 -0.51559156 0
4.7374921 -4.6474018 -0.51006275 0
13.540394 -14.283569 -1.5693642 0
3.9140277 -4.4411554 -0.49002102 0
4.0488214 -3.431221 -0.47047955 0
3.8735068 -3.5320413 -0.4799262 0
3.8746824 -3.8009994 -0.51336271 2
3.8509333 -4.062295 -0.54538703 2
3.8577316 -4.3772774 -0.58638263 2
3.8740759 -3.0485969 -0.50943983 2
3.8719664 -3.281343 -0.5398916 2
3.8608217 -3.5204744 -0.57083642 2
3.8645837 -3.5239048 -0.66413438 2
3.8817966 -3.5396004 -0.76010019 2
3.8888962 -3.5460742 -0.85560971 1
3.7105944 -3.3834903 -0.89077717 0
3.2733696 -2.9848084 -0.8776263 3
3.2792079 -2.9901323 -0.95786554 4
3.3329816 -3.0391657 -1.053628 1
3.4198589 -3.1183844 -1.162854 11
3.4277635 -3.125592 -1.6029902 0
0.59969902 -0.5468331 -0.37967196 0
1.593002 -1.4627891 0.56770474 1
14.787644 -13.578894 2.7804704 2
13.820732 -12.691018 1.6030042 2
14.239205 -13.075285 0.96780533 0
15.144773 -13.906832 0.6655609 0
25.579874 -25.269245 1.0583683 0
29.595066 -31.438492 1.1411849 1
27.225157 -31.110006 0.97280037 1
23.208101 -18.394516 0.60842681 1
18.898346 -17.353584 0.37573397 0
46.813454 -46.244972 0.77181882 0
27.081957 -28.768847 0.34549242 0
24.129158 -27.572227 0.21358798 0
23.212906 -18.398325 0.084265433 1
27.845242 -23.765276 -0.0031946506 0
28.366632 -26.047928 -0.11695586 0
26.580763 -26.257978 -0.22367747 0
43.353546 -46.053963 -0.5641138 0
23.037363 -26.324642 -0.41640979 0
23.160301 -18.356628 -0.43794021 1
33.696781 -28.759434 -0.78797215 0
30.066206 -27.608578 -0.84577554 0
27.533852 -29.248888 -1.069422 0
22.199482 -25.367201 -0.99811107 1
23.166279 -18.361366 -0.96099269 1
28.894949 -24.661179 -1.3491426 0
27.047466 -24.836592 -1.411957 1
16.561724 -16.360605 -0.96432608 1
14.585479 -15.493983 -0.94357741 1
13.443241 -15.361503 -0.96623027 1
7.222827 -5.7247424 -0.46268946 0
17.952896 -15.322387 -1.2563744 2
16.687944 -15.323862 -1.2722375 1
15.487444 -15.299373 -1.2872741 2
14.467825 -15.369001 -1.3091062 3
13.558711 -15.493448 -1.339336 0
5.118475 -4.700088 -0.51323462 0
3.8906255 -4.4457917 -0.48903108 0
17.887396 -14.177377 -1.9543407 0
4.0065131 -3.4194672 -0.46694741 0
3.8758237 -3.5590117 -0.48174962 0
3.8840556 -3.8368897 -0.51637584 2
3.861289 -4.1018019 -0.54887813 2
3.8660176 -4.4176726 -0.58998251 2
3.8727651 -3.0695159 -0.51067334 2
3.8574631 -3.2922566 -0.53946847 2
3.8543668 -3.5393085 -0.57170528 2
3.8697956 -3.5534763 -0.66715777 2
3.869417 -3.5531287 -0.76010019 2
3.8881266 -3.5703089 -0.85817719 1
3.6755531 -3.3751113 -0.88518798 0
3.2398093 -2.9749854 -0.87140751 3
3.2370703 -2.9724703 -0.94858229 9
3.7900064 -3.4802091 -1.2019366 1
3.4203825 -3.1407983 -1.1667529 9
3.4112625 -3.1324241 -1.6003773 0
0.62714207 -0.57587916 -0.39831656 0
14.708155 -13.60084 2.7744341 2
13.922656 -12.874478 1.6200285 1
14.205211 -13.135759 0.96860534 0
15.313349 -14.160471 0.67513734 0
29.173861 -31.208597 1.1291368 0
23.800945 -27.389513 0.85385865 0
4.5494642 -3.9103947 0.10576148 0
18.999163 -17.568796 0.37895539 1
24.84293 -24.71319 0.41100806 0
2.5020187 -2.6765225 0.03203797 0
24.28726 -27.949152 0.21584977 0
23.211061 -18.52915 0.084493019 0
27.771212 -23.87015 -0.0031956977 0
28.237358 -26.111486 -0.11679795 0
25.127769 -24.996542 -0.21218349 0
43.197994 -46.210846 -0.56418514 0
26.571041 -30.577267 -0.48220882 1
23.189854 -18.51222 -0.43971828 0
30.223526 -25.977983 -0.70886904 0
30.057735 -27.794815 -0.84826142 0
25.106989 -24.97587 -0.83952594 0
27.568121 -29.490864 -1.0747446 0
22.147516 -25.486788 -0.99976844 0
23.155159 -18.484524 -0.96320212 0
28.69652 -24.66548 -1.3438896 1
17.85733 -16.512928 -0.93520826 0
16.47051 -16.384495 -0.96233952 1
14.558597 -15.573989 -0.9453494 1
13.334501 -15.344999 -0.9622587 1
19.173122 -15.305705 -1.2316324 1
17.911417 -15.395375 -1.2572248 1
16.622625 -15.371177 -1.2713405 1
15.366003 -15.285755 -1.2816075 2
14.315944 -15.314412 -1.3001924 2
13.289857 -15.293623 -1.3180437 0
5.0756779 -4.6935515 -0.51058298 0
4.6031432 -4.5791035 -0.49902773 0
3.8776977 -4.4623542 -0.48936108 0
4.6502242 -3.7122259 -0.50948673 0
4.1335459 -3.5529008 -0.48319519 0
3.8663015 -3.5752239 -0.48211432 0
3.8536992 -3.8335736 -0.51411599 2
3.8551044 -4.1239796 -0.55004179 2
3.8349102 -4.4131155 -0.58758259 2
3.8620267 -3.0830162 -0.51067334 2
3.873095 -3.329036 -0.54327649 2
3.856586 -3.5662398 -0.57387745 2
3.8661087 -3.5750456 -0.66866946 2
3.8511777 -3.5612388 -0.75895458 2
3.8872356 -3.5945818 -0.86074466 1
3.666641 -3.390595 -0.88588661 0
3.2265244 -2.9836128 -0.87063015 3
3.209451 -2.9678247 -0.9435187 16
3.792134 -3.5066402 -1.2064859 1
3.4008534 -3.1448176 -1.1638287 6
3.3836529 -3.128912 -1.5925387 1
0.5692656 -0.52640796 -0.36272231 0
14.770777 -13.754705 2.7952862 2
13.603461 -12.667689 1.5880229 1
14.273293 -13.291445 0.97640538 0
15.252123 -14.20294 0.67461967 0
24.04833 -25.906269 0.93425399 0
27.096127 -31.40225 0.97599977 0
6.8228478 -6.3535089 0.13652937 0
24.906281 -24.949785 0.41349447 0
26.074972 -28.089485 0.33513954 0
27.084877 -31.389214 0.24168552 0
44.468838 -35.753872 0.16232902 0
48.298515 -41.807987 -0.0055745817 0
24.958414 -25.002008 -0.21148907 0
26.232765 -28.25947 -0.34389788 0
22.346104 -25.897354 -0.40717319 0
31.288538 -25.156637 -0.59494436 0
35.557446 -30.779108 -0.83648682 0
29.925409 -27.866863 -0.84726703 0
25.005531 -25.04921 -0.83905196 0
27.663599 -29.80085 -1.0825156 0
26.480543 -30.688839 -1.2001957 0
30.839252 -24.795403 -1.2864357 0
28.519575 -24.687014 -1.3396306 0
26.820765 -24.975784 -1.4091905 1
14.490552 -15.610071 -0.94446337 1
13.317398 -15.433804 -0.96490639 2
19.057308 -15.322474 -1.2276212 1
17.773008 -15.384607 -1.2512715 1
1.7068651 -1.5894511 -0.13096893 0
15.312553 -15.3393 -1.2816075 2
14.314007 -15.419887 -1.304897 1
13.231174 -15.333877 -1.3175244 0
5.9746642 -4.8037548 -0.5207563 0
4.9512467 -4.6106539 -0.49968189 0
4.7026548 -4.7108693 -0.51159537 0
3.8751185 -4.4909534 -0.49101096 0
3.8742037 -3.6077001 -0.48466712 0
3.8796816 -3.8864584 -0.51938897 2
3.8515198 -4.1490827 -0.55159342 2
3.8688827 -4.483727 -0.59518236 2
3.8512414 -3.0964782 -0.51067334 2
3.8794951 -3.3581545 -0.54581517 2
3.8615739 -3.5959392 -0.57648396 2
3.8710294 -3.6047442 -0.67169279 2
3.8532085 -3.5881493 -0.76181859 1
3.8688855 -3.6027477 -0.85946095 1
3.654783 -3.4033732 -0.88588661 0
3.1959891 -2.9761393 -0.86518872 3
3.2019327 -2.981674 -0.94436264 31
3.3779387 -3.1455729 -1.0781944 1
3.3614643 -3.1302314 -1.1540813 4
3.3505762 -3.1200924 -1.5820873 0
0.59924275 -0.55802131 -0.38306189 0
14.653309 -13.741135 2.7821164 2
13.547531 -12.704192 1.586661 1
14.218068 -13.332988 0.9758054 0
24.891626 -25.1098 1.0407151 0
28.407824 -30.817621 1.1077884 0
26.975948 -31.484491 0.97562337 0
18.8848 -17.709213 0.37913108 0
4.4462509 -4.4852223 0.07407622 0
25.307146 -27.453917 0.32650048 0
23.966633 -27.972223 0.21473055 0
44.172802 -35.770424 0.16170314 1
27.462177 -23.939913 -0.0031792917 0
49.777191 -46.678539 -0.20723587 0
24.879435 -25.0975 -0.2115609 0
26.049917 -28.259697 -0.34279197 0
22.33625 -26.069351 -0.40864912 0
31.312439 -25.356308 -0.59707803 0
31.039291 -27.058229 -0.73241502 0
30.589334 -28.685137 -0.8688941 0
26.424105 -26.65571 -0.88976854 0
26.09593 -28.30961 -1.0250313 1
23.308786 -27.204428 -1.0607371 0
30.677952 -24.84251 -1.2833164 0
28.394054 -24.75227 -1.3377849 1
17.878649 -16.765696 -0.94243169 0
14.39264 -15.613547 -0.94162822 1
13.185458 -15.389169 -0.95923269 1
18.947826 -15.343644 -1.2240112 1
17.628868 -15.367812 -1.2448928 1
16.313898 -15.298351 -1.2558664 1
15.22237 -15.355793 -1.2785381 2
14.097739 -15.293632 -1.2900404 1
13.068495 -15.252658 -1.3066186 1
5.0398774 -4.7261429 -0.51028836 0
4.6665273 -4.7074289 -0.50944966 0
3.8749821 -4.522615 -0.49299085 1
4.0065255 -3.4926538 -0.47118595 0
3.8848321 -3.6429999 -0.48758459 0
3.8913233 -3.9254305 -0.52277875 2
3.8424098 -4.1683559 -0.55236924 2
3.8583882 -4.5032482 -0.59598231 2
3.871331 -3.1349413 -0.51478505 2
3.8707476 -3.3742902 -0.5462383 2
3.8722026 -3.6311564 -0.57995939 3
3.8642123 -3.6236637 -0.67270058 2
3.8724251 -3.6313653 -0.76811934 1
3.8735657 -3.6324348 -0.86331213 1
3.6112785 -3.3864751 -0.87820148 0
3.1741323 -2.9765413 -0.86207932 3
3.1715405 -2.9741111 -0.93845505 44
3.4635422 -3.2479353 -1.10913 6
3.3448577 -3.1366389 -1.1521319 5
3.3506956 -3.1421134 -1.5873131 0
0.57086247 -0.53532606 -0.36611223 0
