# .PCD v0.7 - Point Cloud Data file format
VERSION 0.7
FIELDS x y z intensity
SIZE 4 4 4 4
TYPE F F F F
COUNT 1 1 1 1
WIDTH 1392
HEIGHT 1
VIEWPOINT 0 0 0 1 0 0 0
POINTS 1392
DATA ascii
-12.356503 22.209366 -2.0265656 32
-5.4003992 10.594309 -0.98433179 17
-8.8805609 11.606893 -1.2513649 3
-8.2760715 11.671432 -1.2683874 1
-7.6396184 11.647918 -1.2753054 0
-7.0552058 11.663309 -1.2892447 1
-6.4996314 11.682325 -1.3025672 0
-5.3880944 10.570169 -1.1923647 11
-8.8585892 11.578175 -1.5065274 4
-8.2435093 11.625511 -1.5160122 0
-7.6349125 11.640743 -1.5209272 1
-7.1425529 10.890056 -1.6537853 15
-6.7631264 10.311555 -1.7842593 12
-6.6843696 10.191477 -1.9814458 4
-6.4477067 9.8306427 -2.0854666 3
-5.9587016 9.0850697 -2.1524775 1
-5.4231234 8.2684889 -2.1343102 1
-4.9539623 7.5531716 -2.1099856 0
-4.565886 6.961482 -2.0917726 1
-3.2594657 4.9696188 -2.0537088 1
-2.370573 3.6143482 -2.0220921 3
-6.4896197 9.9664631 3.1218681 0
-8.0812836 12.41087 2.8407037 1
-11.378192 17.474112 1.7814184 11
-27.82235 42.728302 2.5526142 6
-3.3158948 5.092401 0.19670476 0
-5.364058 10.60982 0.27975774 5
-19.421764 25.559418 0.65953302 14
-12.113547 17.203903 0.37094077 1
-17.56192 26.9708 0.47132209 18
-8.9167242 14.851658 0.20318182 0
-34.98637 63.377712 0.6330297 5
-5.3654518 10.612576 0.069322824 8
-19.096657 25.131567 0.08979588 18
-12.106219 17.193495 -0.0018350391 0
-14.525486 22.307583 -0.08084143 3
-13.409738 22.335201 -0.15595882 0
-34.949589 63.311077 -0.64498693 2
-5.363358 10.608436 -0.14150125 17
-16.965214 22.326548 -0.41553643 5
-12.122725 17.216936 -0.3745304 0
-14.539892 22.329706 -0.55211151 4
-14.645355 24.393242 -0.6744836 24
-13.328072 24.143763 -0.73420304 18
-5.3559766 10.593835 -0.35148758 20
-16.97263 22.336308 -0.91199428 3
-15.739446 22.353476 -0.97093403 2
-14.540998 22.331406 -1.0246563 5
-13.375859 22.278774 -1.0764031 0
-12.330914 22.337414 -1.1314069 1
-5.3505287 10.583059 -0.56131756 35
-16.952988 22.310457 -1.4067203 5
-16.614758 23.596611 -1.5361829 23
-14.528855 22.312756 -1.4951539 3
-13.388651 22.300079 -1.5380235 6
-12.309712 22.299009 -1.5797424 11
-5.3560266 10.593935 -0.77223444 24
-16.894264 22.233177 -1.896789 35
-15.611108 22.171207 -1.9237103 31
-14.436032 22.170202 -1.9539448 26
-13.321276 22.18786 -1.9890608 40
-12.251948 22.19437 -2.0214784 33
-5.3472543 10.576583 -0.98103201 31
-8.8251467 11.614062 -1.2489762 14
-8.2120905 11.662975 -1.264502 1
-2.9495239 4.5297451 -0.49487832 0
-7.014442 11.683225 -1.2888681 0
-6.4435368 11.672448 -1.2990762 1
-5.3260794 10.5347 -1.1863649 26
-8.8201475 11.607485 -1.5065274 12
-8.1934643 11.636521 -1.5138967 0
-7.5897565 11.656004 -1.519624 1
-7.1648602 11.003467 -1.6673905 10
-6.7569742 10.377054 -1.7917056 4
-6.6289902 10.180502 -1.9750271 5
-6.3892794 9.8123655 -2.0770826 2
-5.9285393 9.1047812 -2.1524775 1
-5.3892717 8.2765989 -2.1317782 1
-4.9395132 7.5858803 -2.1145349 0
-4.5385399 6.9700837 -2.089823 1
-3.2409036 4.9772325 -2.0524023 1
-2.3605504 3.6252263 -2.023787 1
-6.5345855 10.112536 3.16046 0
-6.6328793 10.26465 2.3441458 1
-11.202488 17.336306 1.7633728 10
-27.590649 42.697647 2.5450141 5
-5.3090692 10.592731 0.27881676 17
-19.34446 25.643021 0.65994388 17
-12.023642 17.203465 0.37002417 12
-17.537136 27.139431 0.47319636 19
-39.733082 66.705811 0.91068244 3
-34.705399 63.390686 0.63194543 5
-5.3212023 10.616939 0.069229558 22
-18.982309 25.162954 0.08967071 19
-6.4847927 9.2784624 -0.0009878563 0
-14.441021 22.348066 -0.080804989 4
-8.5152493 14.295812 -0.099614419 0
-12.243295 22.362827 -0.22738642 0
-5.3137469 10.602064 -0.14116797 25
-16.834179 22.315392 -0.41423252 2
-3.9956503 5.716989 -0.12406097 0
-14.416285 22.309786 -0.55037141 2
-13.365017 22.437836 -0.61912191 2
-12.262487 22.397884 -0.67980576 1
-5.3046293 10.583872 -0.35054049 26
-16.827137 22.306057 -0.90835512 1
-12.040833 17.228062 -0.74647915 19
-14.397884 22.281309 -1.0200455 3
-13.308231 22.342503 -1.0772309 0
-13.093397 23.915571 -1.2090194 10
-5.3063903 10.587386 -0.56056106 32
-16.867781 22.359934 -1.4061186 4
-12.029102 17.211279 -1.1177458 39
-14.407536 22.296246 -1.4906687 3
-13.284159 22.302088 -1.5349541 2
-12.212632 22.306822 -1.5772663 7
-5.3029151 10.580452 -0.76989746 28
-16.766075 22.225113 -1.8910962 34
-12.025075 17.205517 -1.4892054 35
-14.326085 22.170197 -1.9495255 24
-13.209044 22.175982 -1.9838498 42
-12.151428 22.19503 -2.017663 25
-5.3049407 10.584494 -0.98004204 35
-8.8109503 11.679797 -1.25273 10
-8.1576366 11.671973 -1.2623827 1
-7.5363755 11.662847 -1.2712939 0
-4.1715341 7.0033727 -0.77098566 0
-6.3970199 11.684393 -1.2979125 1
-5.3035374 10.581694 -1.1895647 31
-8.8131189 11.682673 -1.5122838 5
-8.1459618 11.655268 -1.5126274 0
-7.5231285 11.642347 -1.5144109 0
-7.1070271 10.998413 -1.6628554 15
-6.5509763 10.137901 -1.7464548 10
-6.6255574 10.253319 -1.9846551 4
-6.3507161 9.8279905 -2.0756855 2
-4.1717882 6.4560113 -1.5228254 0
-5.3667164 8.3052111 -2.1343102 1
-4.8982067 7.5801735 -2.1081657 1
-4.5183949 6.9923997 -2.0917726 1
-3.225563 4.9916897 -2.0537088 1
-2.3518152 3.6395295 -2.0271771 2
-6.5141778 10.162477 3.1685846 10
-6.6100497 10.312043 2.3494203 11
-7.0603404 11.014523 1.8119426 4
-6.8222604 10.643105 1.080019 0
-6.883821 10.739141 0.63860351 3
-6.899621 10.763791 0.41385648 1
-5.2773266 10.626443 0.27919316 20
-19.22159 25.675331 0.6589579 14
-11.96278 17.250706 0.37009466 13
-17.631796 27.506577 0.47846776 17
-7.5062823 12.70761 0.17311035 0
-6.9067721 12.725991 0.12661293 0
-5.2751393 10.62204 0.069136284 33
-18.909138 25.257973 0.089761741 20
-11.964641 17.253387 -0.0018322465 15
-14.330947 22.357071 -0.080647066 6
-13.200743 22.347933 -0.15538412 3
-12.132624 22.354822 -0.22685131 5
-5.2695179 10.610721 -0.14102514 30
-11.971864 17.263805 -0.37367678 17
-15.66383 24.436443 -0.60141462 11
-13.193205 22.335171 -0.61495084 6
-12.11355 22.319677 -0.67607993 6
-5.269361 10.610404 -0.35077727 29
-17.986374 24.025387 -0.97567922 12
-11.984437 17.281935 -0.74690509 22
-15.414038 24.046753 -1.0982741 19
-13.185604 22.322304 -1.0739199 6
-12.128819 22.347813 -1.1275085 3
-5.2728839 10.617497 -0.56112844 32
-16.687557 22.290485 -1.3978957 0
-11.947725 17.228996 -1.1160449 58
-14.29985 22.308558 -1.4879775 1
-13.179993 22.312803 -1.5323569 5
-12.115551 22.323364 -1.5752854 8
-5.2818561 10.635565 -0.77249408 22
-16.631889 22.216127 -1.8851323 33
-11.968749 17.259312 -1.4900546 37
-14.212433 22.172184 -1.945106 23
-13.109425 22.193336 -1.981091 38
-12.052874 22.20788 -2.0148017 22
-5.2820711 10.635998 -0.9830119 24
-8.0989056 11.678877 -1.2599102 0
-7.4785285 11.666919 -1.2687411 1
-6.8334436 11.568541 -1.2707893 7
-6.3389559 11.679769 -1.2948093 0
-5.2647204 10.60106 -1.1895647 24
-8.7153997 11.641637 -1.5028269 1
-8.0646524 11.629482 -1.5054344 0
-7.4610915 11.639716 -1.510501 0
-7.0880795 11.057796 -1.6678944 9
-6.5094991 10.155179 -1.7453092 5
-6.5730157 10.254269 -1.980162 4
-6.293395 9.8180447 -2.0686989 3
-5.8568826 9.1370611 -2.1501455 1
-5.3362379 8.3248262 -2.1343102 1
-4.8808994 7.6144733 -2.1127152 1
-4.4864535 6.9991159 -2.0888484 1
-3.2113252 5.0098453 -2.0563216 1
-2.3208618 3.6206729 -2.0119224 1
-6.3582292 9.9958134 3.1096814 10
-6.5676908 10.325109 2.3471596 10
-6.7858052 10.668009 1.7510322 5
-6.7914867 10.676941 1.0810405 8
-6.8269973 10.732767 0.63680351 10
-6.853426 10.774316 0.41333881 10
-2.5450082 4.3430719 0.1481692 0
-5.2454963 10.655564 0.27947545 14
-19.060276 25.645983 0.65649295 12
-18.040819 26.210325 0.56095886 16
-6.8691602 10.799051 0.1874277 0
-26.636267 45.454952 0.61794299 3
-7.2869406 13.538974 0.13444754 0
-5.2503929 10.665511 0.069299504 20
-18.763584 25.246778 0.089488633 23
-15.222322 22.115515 -0.0023429298 10
-6.8999209 10.84741 -0.039041977 0
-12.027982 22.347725 -0.22635187 0
-5.2501097 10.664936 -0.14150125 19
-18.551655 24.961622 -0.46087739 12
-15.142817 22.000008 -0.47504538 34
-6.8619838 10.787769 -0.26491079 5
-13.032263 22.239635 -0.61106414 0
-12.043152 22.37591 -0.67650574 0
-5.2428842 10.650258 -0.35148758 18
-16.60747 22.345682 -0.90510589 1
-15.171934 22.042309 -0.95034832 28
-6.8669691 10.795607 -0.4919641 8
-13.087393 22.333715 -1.0722644 3
-12.012864 22.319635 -1.1239645 2
-5.2516685 10.668102 -0.56283057 18
-18.213413 24.506512 -1.532872 11
-11.932812 17.336401 -1.1202972 10
-6.8590913 10.783221 -0.71763796 7
-13.079814 22.320782 -1.5297596 5
-12.011069 22.316301 -1.5718189 9
-5.2517476 10.668263 -0.77353275 2
-16.53281 22.245226 -1.8826926 30
-15.127603 21.977903 -1.8928562 22
-6.8854923 10.824727 -0.94751 3
-13.003641 22.190792 -1.9767996 41
-11.948829 22.200659 -2.0103505 24
-5.2519522 10.668678 -0.98433179 2
-8.6605806 11.652985 -1.2431749 1
-8.0309839 11.66769 -1.2556717 1
-6.8712158 10.802283 -1.1720994 8
-6.8050976 11.61294 -1.2730491 12
-6.2717347 11.652744 -1.2893786 0
-5.2382274 10.640798 -1.1919646 1
-8.6414795 11.627283 -1.4970706 0
-8.0172462 11.647732 -1.5041651 1
-6.8676748 10.796716 -1.3979845 10
-6.8577628 10.781134 -1.6225438 15
-6.4633899 10.161137 -1.7424452 12
-6.4545422 10.147227 -1.9551291 5
-6.2464046 9.820013 -2.064507 2
-5.8375902 9.1773129 -2.1548097 1
-5.3008523 8.3335037 -2.1317782 1
-4.8647447 7.6478968 -2.1172645 1
-4.470325 7.0278268 -2.0927472 1
-3.193819 5.0210233 -2.0563216 1
-2.3296003 3.6623797 -2.0305669 1
-6.2258973 9.8598185 3.0609338 2
-6.7207775 10.643549 1.7433499 7
-6.7645569 10.712882 1.0824023 9
-6.7913709 10.755346 0.63680351 24
-6.8176613 10.796982 0.41333881 12
-26.395351 45.388191 1.5454791 35
-19.082001 25.853836 0.66019034 13
-17.980875 26.309635 0.56180495 14
-6.8140945 10.791333 0.18690056 10
-26.404966 45.404724 0.61606646 19
-27.677475 51.835323 0.51383168 1
-18.627508 25.238054 0.089238286 19
-15.072157 22.053595 -0.0023310618 17
-6.810523 10.785677 -0.038738288 7
-12.992017 22.340454 -0.15471365 2
-11.931195 22.345152 -0.22592379 0
-10.896162 22.32066 -0.29566714 4
-16.502199 22.358513 -0.4118025 3
-15.074286 22.056711 -0.47518766 29
-6.8154984 10.793556 -0.26449648 12
-14.148548 24.32917 -0.66718423 21
-12.8955 24.151134 -0.72888041 15
-11.835796 24.245489 -0.7988677 15
-16.490549 22.342728 -0.90276647 5
-15.071682 22.0529 -0.9486447 23
-6.8012567 10.771003 -0.48981243 22
-14.035921 24.135504 -1.1565292 11
-5.9345684 11.114463 -0.55870414 0
-11.838258 24.250532 -1.2773379 9
-16.499861 22.355343 -1.3948873 2
-15.071133 22.052097 -1.4217931 18
-6.8041062 10.775515 -0.71561962 16
-12.965581 22.294996 -1.5250374 0
-11.903146 22.29262 -1.567362 3
-10.868697 22.264399 -1.6117213 11
-16.404449 22.226072 -1.8764576 40
-15.054631 22.027952 -1.8928562 18
-6.8176126 10.796905 -0.94309068 16
-12.895902 22.175179 -1.9715887 40
-11.839453 22.173334 -2.0043094 42
-10.816072 22.156595 -2.0409293 32
-8.6100597 11.665604 -1.2414687 0
-7.9742589 11.667944 -1.252846 0
-6.8077106 10.781223 -1.1673585 16
-6.7865715 11.669866 -1.2768155 2
-6.2236795 11.65592 -1.2874392 0
-5.6865411 11.648812 -1.3027614 1
-8.6028776 11.655873 -1.4970706 0
-7.9628634 11.65127 -1.5012033 1
-6.8169746 10.795895 -1.3949436 19
-6.8240938 10.807169 -1.6230477 19
-6.3451157 10.048621 -1.7195333 9
-6.566308 10.398919 -1.999418 5
-6.1927791 9.8073692 -2.0575206 3
-5.8029366 9.1899843 -2.153255 1
-5.3086782 8.407238 -2.1461253 1
-4.8435168 7.6705723 -2.1190844 1
-4.4469967 7.0426116 -2.0927472 1
-2.0992618 3.3245554 -1.3586876 0
-2.3019679 3.6455765 -2.0170071 2
-6.1750059 9.8552637 3.0528092 2
-2.9263732 4.6704702 1.0571637 0
-6.6983075 10.690449 1.7471911 13
-6.7228861 10.729676 1.0817214 4
-6.7749949 10.812841 0.63880354 5
-6.7862968 10.830879 0.41372705 6
-26.238764 45.483509 1.5455967 61
-18.823814 25.691254 0.65435666 14
-17.877707 26.355684 0.56145245 13
-6.7742581 10.811666 0.18684199 16
-26.226337 45.461967 0.61559731 81
-33.551159 63.367111 0.62697887 5
-25.067812 51.809124 0.33551502 5
-18.529835 25.290022 0.08919277 20
-15.013051 22.132549 -0.0023338543 17
-6.779201 10.819554 -0.038774733 14
-12.883978 22.333694 -0.15435445 4
-11.836283 22.354847 -0.22560272 5
-10.802497 22.326157 -0.29523864 4
-16.362585 22.332102 -0.41026148 5
-14.992717 22.102571 -0.47504538 29
-6.7883945 10.834228 -0.26491079 12
-12.894579 22.35207 -0.61172771 6
-11.832561 22.347818 -0.67320573 7
-10.802012 22.325155 -0.7343474 6
-16.377007 22.351784 -0.90081692 4
-14.972176 22.07229 -0.94722497 20
-6.7954488 10.845486 -0.49211779 13
-12.903126 22.366886 -1.0696156 3
-11.823264 22.330257 -1.1204207 4
-10.798141 22.317156 -1.1735092 7
-16.36269 22.332243 -1.3898734 5
-14.94474 22.031843 -1.4171154 27
-6.7834125 10.826276 -0.71741372 12
-14.094843 24.432663 -1.6678842 20
-11.810317 22.305807 -1.5653812 6
-10.783954 22.287832 -1.6106826 10
-16.277227 22.215601 -1.8707647 44
-14.903738 21.971397 -1.883515 30
-6.7819982 10.824018 -0.9433853 16
-12.788528 22.168238 -1.9669907 31
-11.717206 22.129951 -1.9966789 24
-10.719561 22.154747 -2.0372996 30
-8.5457277 11.663442 -1.2380562 0
-7.9044075 11.652841 -1.2482543 0
-6.7742629 10.811673 -1.1680878 17
-6.7318683 11.669337 -1.274179 1
-6.1773686 11.667019 -1.2862755 0
-5.6389074 11.654263 -1.3011614 1
-3.002979 4.0985475 -0.52506429 0
-7.8864207 11.626324 -1.4944335 1
-6.7834682 10.826365 -1.3958124 19
-6.7842193 10.827563 -1.6225438 19
-6.402483 10.218315 -1.7447364 6
-6.4922333 10.361556 -1.9878645 4
-6.1480489 9.8122406 -2.0540273 3
-5.7916536 9.2434359 -2.1610284 1
-5.2689171 8.409153 -2.1419055 1
-4.8146424 7.6841331 -2.1181743 1
-4.432683 7.0745292 -2.097621 1
-3.1515386 5.0298324 -2.0510957 1
-2.2949986 3.662801 -2.0220921 2
-5.9734273 9.61166 2.9705479 2
-6.925766 11.144039 2.5166976 3
-10.878334 17.503996 1.7606488 6
-26.091722 45.614082 1.5467736 11
-18.701309 25.721254 0.65337074 14
-17.839041 26.507307 0.56328565 15
-6.7493658 10.860199 0.18725199 8
-26.083355 45.599453 0.61616027 29
-33.251751 63.36216 0.62571973 6
-30.361975 63.341946 0.40947801 7
-18.404091 25.312469 0.089033455 23
-14.851428 22.067966 -0.0023212878 19
-6.756393 10.871506 -0.03887191 8
-11.544231 21.997862 -0.22157155 20
-24.885071 51.915886 -0.6853193 12
-16.240646 22.336927 -0.4092539 6
-14.831216 22.037933 -0.4724845 32
-15.198691 24.455751 -0.59660858 14
-12.792706 22.364471 -0.61077976 2
-11.544318 21.998028 -0.66138947 20
-11.644715 24.293509 -0.79768384 21
-16.231501 22.32435 -0.89730775 3
-14.844301 22.057377 -0.94424361 27
-14.927 24.018581 -1.0873621 9
-12.765493 22.316896 -1.0649803 5
-11.542643 21.994835 -1.1014605 23
-10.685192 22.291727 -1.1701051 1
-16.2173 22.304819 -1.3844583 4
-14.817051 22.016886 -1.4126503 32
-6.7668777 10.888376 -0.71988058 4
-12.77597 22.335213 -1.5214957 6
-11.541103 21.991901 -1.5403726 31
-10.679768 22.280411 -1.6073071 11
-16.14172 22.200867 -1.8645297 43
-14.838698 22.049053 -1.8854965 18
-6.7654448 10.886071 -0.94662613 7
-12.699265 22.201115 -1.9657646 36
-11.530398 21.971502 -1.9785562 34
-10.624508 22.165127 -2.0346596 63
-8.472456 11.652779 -1.2336199 0
-7.8527436 11.668514 -1.2468414 0
-6.7724395 10.897326 -1.1746522 9
-6.6890497 11.693933 -1.274179 1
-6.134562 11.689583 -1.2862755 1
-5.5909967 11.664083 -1.2999614 0
-8.4701128 11.649555 -1.488436 1
-7.8437524 11.655154 -1.4944335 1
-6.7689309 10.891681 -1.4010255 7
-6.8178 10.970315 -1.6401801 10
-6.3043909 10.144203 -1.7281253 15
-6.4792233 10.425521 -1.9955668 5
-6.1078882 9.8280163 -2.0526299 3
-5.7473817 9.2479372 -2.1571417 2
-5.2277436 8.4118032 -2.1376858 1
-4.7885036 7.7050352 -2.1190844 1
-4.410821 7.0973177 -2.0995703 1
-3.1350787 5.0445595 -2.0524023 1
-2.2911215 3.6865737 -2.0305669 1
-6.0007586 9.7312489 3.0010152 3
-7.1342516 11.5694 2.6071179 0
-11.327582 18.369596 1.8437272 3
-26.355732 42.740292 2.513814 6
-26.027058 45.871799 1.5524226 1
-18.604383 25.776655 0.65312421 17
-17.810827 26.665857 0.56533039 15
-25.991142 45.808498 0.61775529 7
-32.976845 63.374935 0.62470543 6
-30.087463 63.335556 0.40875518 7
-18.346048 25.418726 0.089181386 24
-14.772088 22.116344 -0.0023209387 23
-13.81681 22.406301 -0.079942517 8
-12.690275 22.366175 -0.15394737 0
-11.450764 22.006088 -0.22125049 28
-10.60985 22.334244 -0.29433402 5
-16.113415 22.32538 -0.40800926 1
-14.76753 22.10952 -0.47291133 25
-13.784522 22.353941 -0.54415673 2
-13.831507 24.377556 -0.66443509 16
-11.449009 22.002716 -0.66032499 30
-10.607669 22.329653 -0.73197967 2
-16.094976 22.299833 -0.89405853 0
-14.780542 22.129 -0.94509542 23
-13.817161 22.40687 -1.0122073 2
-13.527699 23.842108 -1.1355044 9
-11.443666 21.992451 -1.0993341 26
-10.586734 22.285583 -1.1678356 0
-16.09024 22.29327 -1.3802465 2
-14.800013 22.158152 -1.4183911 29
-15.025615 24.366583 -1.607509 13
-12.654581 22.303267 -1.5163013 2
-11.447685 22.000174 -1.5381442 35
-10.57452 22.259872 -1.6031525 8
-16.024416 22.20207 -1.8599213 52
-14.797105 22.153797 -1.8900255 27
-13.67884 22.18256 -1.924777 20
-12.592175 22.193275 -1.9611667 37
-11.468362 22.039911 -1.9810997 21
-10.533382 22.173277 -2.0320199 48
-8.4037371 11.643505 -1.229525 0
-7.7920504 11.666033 -1.2436625 0
-7.1964159 11.67021 -1.2552477 1
-6.6403313 11.703357 -1.2726724 1
-6.0808592 11.686202 -1.2835602 1
-5.5229201 11.626012 -1.2935617 0
-8.4130945 11.656469 -1.4855578 0
-7.7610478 11.619617 -1.4863944 1
-7.1962886 11.670003 -1.4979026 1
-6.7669654 10.973783 -1.6371567 9
-6.349977 10.297565 -1.7504643 6
-6.4158487 10.404387 -1.9872226 4
-6.0549369 9.819108 -2.0463421 3
-5.7212415 9.2779636 -2.1594737 1
-5.2147646 8.4566259 -2.1444373 1
-4.7656655 7.7283359 -2.120904 1
-4.379909 7.1027656 -2.0966461 1
-3.1333244 5.0812173 -2.0628538 2
-2.2763362 3.6914656 -2.028872 1
-5.9808908 9.7752361 3.0081241 5
-7.0815244 11.574124 2.602597 0
-26.177198 42.784313 2.511014 10
-18.574856 25.925959 0.6552605 13
-17.764036 26.797874 0.56681103 14
-3.789917 6.7342629 0.090636641 0
-26.560495 51.48204 0.50655669 15
-29.816801 63.335232 0.40807897 8
-18.240906 25.459846 0.089101732 26
-14.756674 22.261129 -0.0023307127 29
-13.673803 22.348621 -0.079565942 8
-12.572885 22.340624 -0.15346846 4
-11.388554 22.07436 -0.22153588 22
-10.526718 22.360285 -0.29419118 3
-18.059614 25.20681 -0.4595142 16
-14.774227 22.287609 -0.47561449 27
-13.654234 22.316637 -0.54208517 3
-12.55585 22.310354 -0.60689306 4
-11.375806 22.049652 -0.6605379 18
-10.49901 22.301428 -0.72984874 5
-17.514202 24.445545 -0.97762871 7
-14.795966 22.320404 -0.95105821 23
-13.66794 22.339039 -1.0069818 4
-1.8542629 3.2948198 -0.15660988 0
-11.381491 22.060669 -1.1007518 20
-10.507181 22.318785 -1.1676464 8
-15.891339 22.180426 -1.3698175 0
-14.80202 22.329536 -1.4260454 28
-13.669032 22.340822 -1.4707093 3
-13.82021 24.556982 -1.6662314 21
-11.383639 22.064835 -1.5398774 32
-10.486557 22.274977 -1.6015944 8
-15.911959 22.209206 -1.855855 46
-14.708653 22.188688 -1.8886102 32
-13.563856 22.168922 -1.9194738 18
-12.489194 22.191916 -1.9571818 34
-11.358457 22.016024 -1.9753767 22
-10.430454 22.155807 -2.0270703 55
-8.3584023 11.666287 -1.2288425 0
-7.735867 11.669915 -1.24119 0
-7.1286125 11.651086 -1.2505068 1
-6.5779514 11.688291 -1.2685294 0
-6.0272551 11.68259 -1.2808449 1
-5.4823065 11.645219 -1.2935617 0
-8.349184 11.653419 -1.481446 0
-7.720437 11.646639 -1.4863944 0
-7.1285338 11.650957 -1.4922551 1
-6.7120533 10.970257 -1.6331255 12
-6.2871361 10.275767 -1.743018 10
-6.317678 10.325685 -1.9679666 8
-5.9980168 9.8032274 -2.0386569 3
-5.6970139 9.311264 -2.1625831 1
-5.1892967 8.4814463 -2.1461253 1
-4.7528915 7.7681808 -2.1272731 1
-4.3571157 7.1213198 -2.097621 1
-3.1076775 5.0792236 -2.0576279 1
-2.253983 3.6839354 -2.0203972 1
-5.9045687 9.7266035 2.9867971 1
-7.3060861 12.035324 2.7005522 0
-26.011099 42.848114 2.509414 10
-1.8609822 3.6382444 0.1080099 0
-18.426306 25.909161 0.65320641 17
-17.824257 27.093597 0.57174659 10
-30.974266 51.023945 0.87411594 3
-3.1737475 5.6857395 0.07637497 0
-26.327791 51.471172 0.5055424 25
-24.163809 51.795826 0.33318326 2
-18.13802 25.503803 0.089033455 25
-14.740438 22.406067 -0.0023404865 21
-13.581173 22.372284 -0.079480909 8
-12.469486 22.33897 -0.15315716 1
-11.265887 22.024956 -0.22064403 30
-24.174345 51.818405 -0.68065339 14
-15.903858 22.362358 -0.40664607 2
-14.751296 22.422571 -0.47739288 23
-13.545117 22.312887 -0.54084224 0
-12.470105 22.340078 -0.60651386 6
-11.255062 22.003794 -0.65798301 30
-11.475892 24.598907 -0.80372149 18
-15.890255 22.343229 -0.89132917 3
-14.742135 22.408646 -0.95261985 20
-13.562909 22.342197 -1.0049839 0
-12.464869 22.330696 -1.0593516 4
-11.249816 21.993536 -1.0954357 30
-11.349837 24.328705 -1.2707186 7
-15.911068 22.372496 -1.3782409 1
-14.763506 22.44113 -1.4298726 22
-13.553656 22.326954 -1.4666725 3
-12.475214 22.34923 -1.513468 6
-11.241094 21.976484 -1.5309635 31
-10.400307 22.293358 -1.6002961 9
-15.80196 22.21908 -1.8520598 35
-14.585066 22.169895 -1.8826659 36
-13.469823 22.188856 -1.9171169 23
-12.380557 22.179653 -1.9522774 33
-11.250663 21.995192 -1.9699718 27
-10.336204 22.155952 -2.0237703 50
-8.280674 11.643426 -1.2233825 0
-7.6644292 11.650245 -1.236245 0
-7.0796275 11.662279 -1.2490481 0
-6.5215869 11.683363 -1.2655163 1
-5.4117227 10.579988 -1.1578807 0
-5.43153 11.642642 -1.2911618 1
-8.2877026 11.65331 -1.4777455 0
-7.6556911 11.636963 -1.4817401 0
-7.0795641 11.662174 -1.4905174 0
-6.6901894 11.020757 -1.6371567 13
-6.2820406 10.348413 -1.7516099 10
-6.2795444 10.344301 -1.9673247 12
-5.9576263 9.8140049 -2.036561 2
-5.6685467 9.3378038 -2.1641378 1
-5.1515412 8.4861403 -2.1427495 1
-4.7237234 7.7813954 -2.1263633 1
-4.340282 7.1497517 -2.1015198 1
-3.107584 5.1191268 -2.0693858 2
-2.2411089 3.6917813 -2.0203972 2
-5.7727718 9.5847559 2.9370341 1
-5.2088623 8.6484747 1.9365009 0
-25.855196 42.928375 2.5088139 18
-3.888243 7.667459 0.2272224 0
-23.886009 51.67038 1.339506 0
-12.170784 17.240408 0.43358114 1
-17.653055 27.038437 0.56927878 12
-30.752644 51.059799 0.87288594 3
-28.739441 51.911423 0.69595993 9
-5.3819165 10.612924 0.10405345 0
-23.945925 51.799992 0.33267027 1
-16.660147 23.599771 0.082182974 2
-14.640275 22.423889 -0.0023369959 9
-13.449343 22.330463 -0.079165079 12
-12.406924 22.410357 -0.15334873 0
-5.3746724 10.598638 -0.10598762 1
-10.313294 22.309792 -0.29257241 5
-15.758805 22.322985 -0.40492725 6
-15.945428 24.422935 -0.51879394 11
-14.723701 24.446327 -0.59130538 14
-13.455379 24.304157 -0.65855765 21
-5.4181938 10.684461 -0.31893173 0
-10.306151 22.294338 -0.72724426 4
-15.768353 22.33651 -0.88885975 6
-15.784925 24.177101 -1.0254506 12
-14.536572 24.135632 -1.0833662 10
-12.357802 22.321629 -1.0568683 0
-5.3804531 10.610038 -0.52751738 2
-10.32764 22.34082 -1.1649988 1
-15.759144 22.323463 -1.3718231 4
-14.549702 22.28516 -1.4166902 2
-14.732544 24.46101 -1.6034724 13
-12.354569 22.31579 -1.5082736 4
-5.3663836 10.582293 -0.73589253 5
-10.290596 22.260689 -1.5953627 5
-15.685174 22.218683 -1.8474513 38
-14.477057 22.173895 -1.878703 35
-13.367593 22.194729 -1.9135814 25
-12.274078 22.170401 -1.9476795 35
-5.3687 10.586861 -0.94651484 19
-10.235379 22.141243 -2.0191507 54
-8.2307844 11.659239 -1.2220174 0
-7.6128278 11.660246 -1.234479 0
-7.032712 11.676682 -1.247954 0
-6.4653311 11.678186 -1.2625031 1
-5.3495531 10.549104 -1.1524501 16
-5.3691435 11.614568 -1.2859619 1
-8.2079639 11.626912 -1.4707557 0
-7.597631 11.63697 -1.4783552 0
-7.0100927 11.639127 -1.4844354 0
-6.6189241 10.989655 -1.6290944 10
-6.2213717 10.329583 -1.7447364 10
-6.3432121 10.531879 -1.9987762 4
-5.9152064 9.8212452 -2.0337665 3
-5.6318698 9.3508101 -2.1625831 1
-5.1279411 8.5141182 -2.1452813 1
-4.6824665 7.7744799 -2.1199942 0
-4.3092947 7.1548877 -2.0985956 1
-3.0818946 5.1169882 -2.0641601 2
-2.2319479 3.7057891 -2.023787 1
-5.7194324 9.5716391 2.9268785 0
-6.5871496 11.023788 2.4631991 5
-6.0361357 10.10165 1.6297605 0
-4.5915446 7.6840849 0.76472974 0
-25.701082 43.011517 2.5084138 12
-28.237852 51.428219 1.726954 0
-5.3288054 10.599761 0.31356692 4
-12.046274 17.19108 0.43128055 11
-17.656422 27.25094 0.57245165 10
-30.500359 51.043247 0.87077737 3
-34.808701 63.395386 0.84828764 6
-2.8152459 5.5999298 0.054807313 0
-23.736654 51.82143 0.33227387 1
-12.039587 17.181538 0.059685644 12
-14.477079 22.343939 -0.0023233823 4
-13.346686 22.336073 -0.079019308 9
-12.268948 22.344835 -0.15260641 4
-5.3214712 10.585174 -0.10566655 15
-10.197051 22.262014 -0.29147732 0
-12.056675 17.205923 -0.31134117 17
-14.483489 22.353832 -0.47376496 2
-0.16205485 0.27120358 -0.006546122 0
-12.256099 22.321434 -0.60366994 2
-5.3180022 10.578273 -0.3152059 17
-10.219947 22.312 -0.72665232 3
-12.063104 17.215097 -0.68337834 16
-15.652608 24.158251 -1.0223272 11
-13.338943 22.323114 -0.99991208 4
-13.243503 24.119745 -1.1398087 7
-5.3254328 10.593053 -0.52574539 21
-10.219646 22.311344 -1.1615945 6
-12.061172 17.212341 -1.0551405 20
-15.731557 24.280102 -1.5400101 16
-13.323706 22.297613 -1.4585992 1
-13.446992 24.490349 -1.6520648 19
-5.3132701 10.56886 -0.7336641 29
-10.209509 22.289213 -1.5948433 5
-15.568592 22.217735 -1.8428429 30
-14.35617 22.157328 -1.8730416 48
-13.247063 22.169348 -1.9073943 18
-12.181263 22.185139 -1.9452273 32
-5.3191729 10.580601 -0.94428921 31
-10.151393 22.162336 -2.0178306 48
-7.7006025 10.989429 -1.1489899 0
-3.9106143 6.0356464 -0.63754922 0
-6.9612589 11.649871 -1.2424837 0
-6.4130301 11.679738 -1.2602433 1
-5.3055415 10.553487 -1.1508985 30
-5.3318853 11.640475 -1.2867619 1
-8.1536303 11.63594 -1.4682887 1
-7.541821 11.640054 -1.4753934 0
-5.6803727 9.5062704 -1.2098778 0
-6.6273351 11.091041 -1.640684 10
-6.1710601 10.327451 -1.7407268 10
-6.3955159 10.703084 -2.0270183 2
-5.8748255 9.8316927 -2.0316706 3
-5.6052308 9.380518 -2.1649151 1
-5.0861545 8.5118294 -2.1402178 1
-4.665288 7.8074965 -2.1245434 0
-4.2922511 7.1832089 -2.1024945 1
-3.0581954 5.1179795 -2.0602407 1
-2.2097056 3.6980073 -2.0153122 1
-5.6580596 9.5406342 2.9116447 0
-28.059799 47.314503 10.551292 10
-9.064992 15.285413 1.5182234 0
-25.562393 43.103371 2.5088139 7
-5.2083778 8.7823801 0.33051577 0
-5.2829223 10.595901 0.31293282 28
-23.308905 51.336575 1.3267086 0
-11.996047 17.240784 0.43152705 11
-17.691448 27.504429 0.57654107 15
-8.5319138 14.386535 0.24494457 0
-8.2582731 15.15934 0.20247813 0
-5.2792115 10.588459 0.10345886 27
-28.765427 63.354259 0.40560731 6
-11.99853 17.244354 0.059765302 13
-14.366122 22.334629 -0.0023174481 4
-13.254186 22.349241 -0.078909978 8
-12.181381 22.360813 -0.15243879 2
-5.2863421 10.602761 -0.10566655 30
-10.141354 22.335772 -0.29200107 0
-12.004115 17.25238 -0.31145972 17
-14.381159 22.358007 -0.47284019 5
-13.243242 22.33079 -0.53794205 4
-12.160962 22.32333 -0.60262716 5
-5.2793274 10.588692 -0.31499299 34
-10.988906 24.202457 -0.78702909 18
-11.999094 17.245163 -0.68298841 22
-14.380858 22.35754 -0.94410163 3
-13.232226 22.312212 -0.99745297 3
-12.173075 22.345564 -1.054054 5
-5.2902775 10.610654 -0.52574539 33
-10.905442 24.018633 -1.2485912 18
-11.994896 17.23913 -1.0543383 33
-14.3631 22.329931 -1.4132882 1
-13.22525 22.300449 -1.4559081 4
-12.177551 22.353781 -1.5052041 4
-5.2746329 10.579275 -0.73316884 36
-10.115729 22.279335 -1.5917274 7
-12.002904 17.250639 -1.4275391 39
-14.258875 22.167896 -1.8699279 41
-13.149059 22.171978 -1.9038588 23
-12.082819 22.179886 -1.9412425 31
-5.2911754 10.612454 -0.94556099 24
-10.058062 22.152323 -2.013871 44
-11.979873 17.217539 -1.7960005 32
-7.498795 11.658178 -1.2288276 0
-6.8921127 11.621498 -1.2370135 1
-6.3666401 11.686954 -1.2587367 1
-5.2847285 10.599524 -1.1540017 27
-5.2718611 11.610983 -1.281562 0
-8.1104507 11.656384 -1.4674662 1
-7.4924235 11.648273 -1.4732779 0
-6.8637719 11.573709 -1.4700993 3
-6.5662322 11.071998 -1.6346372 12
-6.0277371 10.163985 -1.7097958 11
-6.3620043 10.727628 -2.0276601 2
-5.8180838 9.8104677 -2.0232868 2
-5.5800991 9.4091778 -2.1672471 1
-5.0539131 8.5219212 -2.1385298 1
-4.6413603 7.8262739 -2.1254532 0
-4.24862 7.1640339 -2.0927472 1
-3.0508502 5.144351 -2.0667729 1
-2.2029753 3.7146626 -2.0203972 2
-5.5263066 9.3892965 2.8598506 0
-27.840982 47.302341 10.527934 12
-30.568419 51.936302 5.1484766 0
-25.461882 43.260204 2.5130138 6
-5.0900011 8.6480045 0.32482168 0
-5.2637043 10.645623 0.31388396 17
-18.142359 26.259602 0.65575349 19
-17.849815 27.95396 0.58471996 4
-30.035397 51.030693 0.86714596 3
-34.269569 63.406693 0.84537899 6
-5.2582498 10.634591 0.10373867 24
-23.325134 51.828171 0.33131787 1
-17.793695 25.75494 0.089056216 17
-14.272598 22.351809 -0.0023143066 3
-13.153628 22.348257 -0.078752063 10
-12.076738 22.344782 -0.15205567 0
-5.2671061 10.652503 -0.10598762 20
-9.9884434 22.194204 -0.28971571 7
-15.225119 22.037132 -0.39692593 22
-15.673699 24.546024 -0.51801145 14
-14.47143 24.587225 -0.59113967 17
-13.15543 24.340612 -0.65590334 21
-5.2601328 10.6384 -0.31595108 24
-10.037284 22.302725 -0.72416621 6
-15.211932 22.018047 -0.87001419 18
-6.8973031 10.801621 -0.45515639 1
-14.192169 24.112755 -1.0758352 11
-12.057106 22.308456 -1.0504118 1
-5.2568312 10.631722 -0.5259226 26
-10.056688 22.345842 -1.1598924 4
-11.958104 17.308392 -1.0561433 18
-6.9047928 10.813351 -0.68293697 2
-13.149205 22.34074 -1.4556837 0
-12.055897 22.306221 -1.4993013 4
-5.2501354 10.618181 -0.73465449 30
-10.017226 22.25816 -1.5878325 2
-11.956978 17.306761 -1.4288945 48
-6.8886433 10.78806 -0.90807277 6
-13.051186 22.174204 -1.9003233 23
-11.980761 22.167202 -1.9366444 36
-5.2736244 10.665687 -0.94874042 16
-9.9632826 22.138296 -2.0095811 45
-11.956697 17.306355 -1.8011192 35
-6.8854132 10.783001 -1.1341665 4
-6.8252516 11.596228 -1.2319078 12
-6.3297453 11.711505 -1.2591133 0
-5.2689576 10.656248 -1.1582686 15
-5.2300649 11.621142 -1.2807621 1
-8.0265217 11.617743 -1.4592428 0
-6.8886199 10.788023 -1.3615762 8
-6.8213229 11.589553 -1.4692305 12
-6.6079812 11.227081 -1.6542892 11
-6.0662899 10.306738 -1.7304165 9
-6.2903495 10.687419 -2.0161066 5
-5.7795277 9.8195238 -2.0211909 3
-5.5389175 9.4107227 -2.1633604 1
-5.0434766 8.5689592 -2.1461253 1
-4.6371169 7.8785472 -2.1354618 1
-4.2425513 7.2081728 -2.1015198 1
-3.0280221 5.1446648 -2.0628538 1
-2.1924837 3.72507 -2.0220921 1
-6.3772588 10.926502 3.3209202 0
-7.1921005 12.322615 2.7367203 0
-25.347443 43.429142 2.5174139 6
-26.478319 45.366734 1.7003314 15
-5.2334485 10.682797 0.31441239 10
-18.050505 26.33252 0.65591782 14
-6.8266859 10.777911 0.22491941 9
-26.529669 45.454712 0.77073783 7
-33.940624 63.352051 0.8429864 5
-5.236836 10.689713 0.10408843 10
-28.227995 63.341633 0.40425491 7
-15.15715 22.111622 0.076265618 18
-6.838448 10.796482 -0.0011152654 7
-13.047428 22.354862 -0.078606293 11
-11.977763 22.357159 -0.15184015 4
-5.2385874 10.693288 -0.10620166 4
-15.103536 22.033409 -0.39585906 28
-6.8309469 10.784638 -0.22706573 8
-13.054768 22.367437 -0.53661627 2
-12.992485 24.251192 -0.65220624 13
-5.2422175 10.700698 -0.3172285 8
-9.93431 22.291891 -0.72262716 1
-15.097219 22.024193 -0.86806464 28
-6.8426952 10.803187 -0.45416257 10
-13.035838 22.335007 -0.99437916 1
-12.794376 23.881413 -1.1222603 17
-5.2248626 10.665272 -0.52663136 7
-9.9405594 22.305914 -1.1559209 4
-15.092972 22.017998 -1.3401347 20
-6.8351932 10.791343 -0.67996025 14
-14.116069 24.185823 -1.5725242 22
-12.89239 24.06436 -1.6142871 42
-5.2234797 10.662449 -0.73638779 8
-9.9404478 22.305664 -1.5886114 5
-14.998261 21.879831 -1.8019089 32
-6.8277087 10.779527 -0.90524215 23
-12.939657 22.170214 -1.8959039 28
-11.876837 22.168774 -1.9329661 42
-10.877726 22.204201 -1.9715614 27
-9.8836927 22.178308 -2.0099113 42
-6.8394508 10.798065 -1.1331068 15
-6.8208508 11.686532 -1.2388369 8
-6.2510495 11.66793 -1.2519572 0
-5.1841927 11.632963 -1.2799621 1
-7.9793849 11.640523 -1.4584205 0
-6.8277516 10.779594 -1.357345 17
-6.8068571 11.662556 -1.4753125 5
-6.5527821 11.227236 -1.650762 11
-5.996542 10.274199 -1.7212517 7
-6.2252607 10.666076 -2.0077624 3
-5.7355547 9.8270359 -2.0183961 3
-5.5221863 9.4614601 -2.1703565 1
-5.0218887 8.6042728 -2.1503448 1
-4.6062436 7.8921261 -2.134552 1
-4.2219682 7.233726 -2.104444 1
-3.0091441 5.1557288 -2.0628538 2
-2.1806412 3.7362103 -2.023787 1
-6.3604059 10.985525 3.3320916 0
-7.1766028 12.395239 2.7472694 0
-6.8670902 11.860658 1.8980949 0
-25.273771 43.652191 2.525214 5
-26.303782 45.431198 1.6992962 62
-18.012472 26.474718 0.65788972 15
-6.7890196 10.801677 0.22491941 15
-4.4569325 7.697896 0.13026226 0
-33.677979 63.392445 0.84195435 5
-26.632 60.325783 0.38441172 5
-15.077629 22.161087 0.076254241 18
-6.7900748 10.803355 -0.00111352 17
-12.943265 22.355267 -0.078448378 11
-11.867741 22.338785 -0.15143307 4
-9.8487539 22.309019 -0.29028705 2
-15.022038 22.079382 -0.39574054 23
-6.8081551 10.832122 -0.22756368 15
-12.928525 22.329807 -0.53462756 4
-11.866497 22.336443 -0.59959364 6
-11.820916 24.344202 -0.72047061 12
-10.73648 24.31986 -0.78714746 15
-15.051737 22.123032 -0.86988419 19
-6.802814 10.823625 -0.45402062 18
-12.921751 22.318108 -0.99161273 5
-11.869036 22.341223 -1.0479286 6
-11.766367 24.231863 -1.1944892 9
-10.619444 24.054756 -1.2446196 18
-14.99805 22.044121 -1.3385303 16
-6.7911034 10.804992 -0.67932242 19
-12.918964 22.313295 -1.4478346 3
-11.867867 22.339022 -1.4957597 3
-11.915776 24.539558 -1.6919091 13
-9.8383493 22.285452 -1.5847164 4
-15.02282 22.080528 -1.8141078 18
-6.8027763 10.823564 -0.90694052 19
-12.842208 22.180723 -1.8929577 25
-11.761952 22.139658 -1.9268355 31
-10.768806 22.177469 -1.9658384 29
-9.7869005 22.168911 -2.0059514 57
-14.184263 20.848019 -2.1590908 0
-6.7995944 10.818501 -1.1327536 18
-6.2102795 11.68968 -1.2519572 0
-5.6568794 11.649877 -1.2618378 0
-5.1306982 11.621861 -1.2767621 1
-11.674172 17.158689 -2.1446636 12
-6.7900801 10.803364 -1.357345 16
-6.7302456 11.624303 -1.4674928 1
-6.4698129 11.174491 -1.6396762 13
-5.8991537 10.188863 -1.7034951 7
-5.9268632 10.236722 -1.9230357 9
-5.6913524 9.8299541 -2.0149031 3
-5.4792981 9.4636993 -2.1664698 1
-3.5636303 6.1550083 -1.5351167 0
-4.5884275 7.9250112 -2.1391013 1
-4.1966934 7.2484188 -2.104444 1
-3.0006018 5.1825604 -2.0693858 1
-2.1639559 3.7375278 -2.0203972 1
-6.3046756 10.977468 3.3229513 0
-27.175364 47.316734 10.466147 12
-6.8295903 11.891429 1.8991923 2
-29.821203 51.923573 5.1154494 0
-25.184898 43.851009 2.5316141 4
-26.160954 45.550484 1.7003314 26
-17.949036 26.580523 0.6589579 14
-6.7682066 10.852456 0.22548348 9
-26.143963 45.520897 0.76874644 71
-33.376343 63.357445 0.83993703 6
-30.507616 63.390148 0.61515701 9
-22.679089 51.860996 0.32996544 1
-14.948688 22.137341 0.07599251 13
-6.7586746 10.837173 -0.0011145673 11
-12.835264 22.348286 -0.078266166 12
-11.593946 22.008488 -0.14891876 9
-10.749113 22.335009 -0.22107211 6
-9.7628126 22.324936 -0.29004899 4
-14.873244 22.025618 -0.39384392 30
-6.7745371 10.862607 -0.22770594 10
-12.802692 22.291574 -0.53263891 0
-11.585308 21.992088 -0.58926076 16
-10.749202 22.335194 -0.65989918 4
-9.7512178 22.29842 -0.72061461 6
-14.864785 22.01309 -0.86351573 34
-6.7967238 10.898183 -0.45615017 8
-12.823854 22.328419 -0.99007583 0
-11.586084 21.993561 -1.0297182 26
-10.75805 22.353579 -1.1000429 4
-9.7573881 22.312531 -1.1527057 8
-14.858404 22.003641 -1.3329147 20
-6.7744846 10.862522 -0.68144858 14
-12.805189 22.295919 -1.4437979 2
-11.570216 21.96344 -1.4678986 25
-10.753163 22.343426 -1.5378965 3
-9.720521 22.228226 -1.5782249 0
-14.871945 22.023693 -1.805162 31
-6.7860694 10.881099 -0.90977114 11
-12.72695 22.159693 -1.8873599 24
-11.571215 21.965336 -1.9081373 32
-10.682675 22.196962 -1.9642488 41
-9.6886978 22.155455 -2.0016618 40
-14.847411 21.987362 -2.2717035 1
-6.7786584 10.869215 -1.1355793 12
-6.6895013 11.647511 -1.2297198 0
-6.1508789 11.676053 -1.2481908 0
-5.6127234 11.662378 -1.261062 0
-5.0741549 11.603232 -1.2727623 0
-11.638695 17.235609 -2.1491864 12
-6.7754827 10.864123 -1.3619993 10
-6.6817036 11.633934 -1.4657551 0
-6.4702897 11.265828 -1.6497542 7
-5.7787695 10.061779 -1.6788648 10
-5.9441824 10.34979 -1.9403663 8
-5.6295404 9.8019466 -2.0051219 4
-5.4599066 9.5065861 -2.1719112 1
-4.9500136 8.6187801 -2.1452813 1
-4.554914 7.9308472 -2.1363719 0
-4.1713643 7.2630248 -2.104444 1
-2.9749599 5.1798897 -2.0641601 1
-2.1526999 3.7482014 -2.0220921 1
-26.957537 47.319138 10.445803 15
-6.7762747 11.894539 1.8958999 1
-3.3439453 5.869698 0.57712239 0
-25.191868 44.219818 2.5478141 2
-26.084921 45.787415 1.7057668 3
-22.245703 51.357594 1.3170162 0
-17.893999 26.699486 0.66035467 15
-31.591068 51.050621 1.0583904 39
-26.008673 45.653576 0.76944929 12
-33.108669 63.384937 0.83876419 5
-30.243118 63.405991 0.61428261 8
-26.151375 60.374435 0.383549 15
-14.815656 22.106316 0.075708024 15
-12.747281 22.375572 -0.078205429 10
-11.489268 21.995647 -0.14855957 28
-10.636649 22.300188 -0.22035864 1
-14.807409 22.094009 -0.39414027 21
-15.291458 24.710733 -0.5168733 11
-13.914541 24.42449 -0.58243912 9
-11.491802 22.000498 -0.58840758 29
-10.612647 22.249868 -0.65627974 0
-10.515579 24.276817 -0.78335911 17
-14.794538 22.074806 -0.86390561 18
-14.840396 23.981823 -1.0015996 7
-13.667846 23.991461 -1.0616957 19
-11.494432 22.005533 -1.0283937 33
-10.640392 22.308037 -1.0959674 3
-9.6556158 22.291462 -1.1498688 1
-14.794857 22.075281 -1.334118 18
-15.104106 24.407974 -1.5278907 7
-13.905522 24.408659 -1.5774579 10
-11.48423 21.986 -1.4667181 27
-10.640735 22.308756 -1.5329444 5
-9.6666632 22.316965 -1.5821198 5
-14.790539 22.068838 -1.8046198 24
-13.703946 22.14534 -1.8475658 23
-12.631754 22.172785 -1.8847082 19
-11.509237 22.033876 -1.9105896 15
-10.587967 22.198126 -1.9610693 32
-9.6033735 22.170853 -2.0000117 36
-14.053903 20.969709 -2.1614795 0
-6.6428905 11.660406 -1.2286257 0
-6.0934882 11.665688 -1.244801 0
-5.5685544 11.674712 -1.2602862 0
-5.0177994 11.584354 -1.2687624 0
-11.642703 17.371979 -2.1611104 11
-5.5230589 9.6947422 -1.2190008 0
-6.297359 11.053887 -1.6154892 11
-5.7534127 10.099088 -1.6817288 14
-5.8884768 10.336168 -1.9339476 6
-5.5874949 9.807848 -2.0023272 3
-5.4247489 9.5221767 -2.171134 1
-4.9276414 8.6495934 -2.1486571 1
-4.52142 7.9365444 -2.1336422 1
-4.1575098 7.2977657 -2.1102924 1
-2.9549901 5.1869569 -2.0628538 2
-2.1449842 3.7651362 -2.0271771 1
-5.2416453 9.272131 2.7958696 1
-26.74633 47.312527 10.424705 16
-25.223986 44.619598 2.5660143 3
-17.8386 26.808615 0.66158712 16
-31.335793 51.015377 1.0554996 27
-3.8578036 6.8242049 0.11479947 0
-4.7031755 9.0772209 0.11991058 0
-29.962563 63.357689 0.61284858 9
-22.156746 51.620869 0.32747048 25
-14.797668 22.238573 0.07599251 23
-13.698193 22.300968 -0.0022839378 1
-12.637572 22.355047 -0.077986769 9
-11.42731 22.054932 -0.14870325 21
-10.569474 22.349804 -0.22050133 0
-9.5759182 22.310011 -0.28900155 5
-14.818261 22.269522 -0.39639249 21
-15.140358 24.648844 -0.51452583 18
-12.63295 22.34687 -0.53189313 3
-11.427984 22.056234 -0.58888155 19
-11.51148 24.341734 -0.71685123 14
-9.6023645 22.371626 -0.72085142 2
-14.79213 22.230249 -0.86806464 23
-1.7449327 2.8407898 -0.11840312 0
-12.628298 22.338642 -0.98669463 4
-11.428755 22.05772 -1.029056 37
-11.482045 24.279493 -1.1909453 18
-9.5753422 22.30867 -1.1491123 0
-14.818953 22.270559 -1.3429426 19
-2.3979237 3.9038739 -0.24387568 0
-12.609891 22.30608 -1.4388641 1
-11.429632 22.059414 -1.4690793 29
-11.553212 24.429979 -1.6760621 18
-9.5532494 22.257196 -1.5756283 0
-14.768128 22.19418 -1.8108547 32
-13.611643 22.160061 -1.8450181 27
-12.53263 22.169411 -1.8808781 18
-11.386573 21.976309 -1.9023134 17
-10.493834 22.189859 -1.9572541 33
-9.5077915 22.151289 -1.9953921 41
-13.9865 21.019514 -2.1618209 0
-12.954419 21.090088 -2.1941583 0
-3.9166396 6.9282818 -0.72864175 0
-6.0419483 11.661078 -1.2421645 0
-5.5246992 11.682318 -1.2591225 0
-4.9793587 11.600929 -1.2687624 0
-11.631323 17.480053 -2.169745 9
-7.1302309 11.608176 -1.4491605 0
-4.4028773 7.7884054 -0.97745967 0
-6.2665238 11.085074 -1.6170009 11
-5.6302719 9.9595861 -1.6553802 16
-5.6423826 9.9810095 -1.863984 12
-5.5394316 9.7988958 -1.9967381 3
-5.3873472 9.5298681 -2.1688018 1
-4.9085503 8.6829071 -2.1528766 1
-4.4931574 7.9481049 -2.1327324 1
-4.1237388 7.2946272 -2.1054187 1
-2.9433537 5.2066021 -2.0667729 2
-2.1253538 3.759613 -2.0203972 1
-5.197896 9.2701225 2.7897761 0
-26.542599 47.337063 10.409635 16
-25.208769 44.958263 2.5804143 3
-1.3848499 2.6957848 0.089207515 0
-17.859501 27.044258 0.6658597 13
-31.090931 51.015152 1.0532433 34
-28.793827 51.35199 0.86216742 16
-26.420427 51.430691 0.67817974 26
-29.702196 63.378582 0.61204416 9
-21.94824 51.631645 0.32705078 28
-14.799297 22.410257 0.076402172 24
-13.605697 22.324732 -0.0022814944 0
-12.545772 22.374599 -0.077901736 9
-11.308211 22.012857 -0.1481525 27
-4.3316698 9.2429218 -0.091040187 0
-9.4901533 22.3249 -0.28876349 1
-14.799937 22.411228 -0.39799276 22
-13.62644 22.358768 -0.46572658 3
-12.507931 22.307114 -0.52990443 2
-11.307065 22.010628 -0.58660644 27
-10.471132 22.343313 -0.65691847 5
-9.4741554 22.287266 -0.71706307 4
-14.800356 22.411861 -0.87313342 20
-13.613768 22.337975 -0.92905283 0
-12.522881 22.333775 -0.98454297 2
-11.293245 21.983727 -1.0237584 43
-10.473038 22.347382 -1.0943726 5
-9.4849024 22.312546 -1.1475993 6
-14.78955 22.395498 -1.3473549 20
-14.900208 24.448814 -1.5240635 14
-12.50461 22.301189 -1.4357245 4
-11.295994 21.989075 -1.4617598 32
-10.451365 22.301136 -1.5274971 6
-10.192245 23.976519 -1.6948131 8
-14.659771 22.198977 -1.8070595 42
-13.515523 22.176771 -1.8424706 30
-12.427858 22.164309 -1.8767533 23
-11.289741 21.976902 -1.8989415 21
-10.404474 22.20108 -1.9550284 27
-9.4272861 22.17701 -1.994732 46
-13.92841 21.091492 -2.1642096 1
-6.4776869 10.628829 -1.1034369 0
-6.5088177 11.608069 -1.2184144 0
-5.4261942 10.562771 -1.1231457 0
-5.4669952 11.665482 -1.2552435 0
-4.9232607 11.581614 -1.2647625 0
-7.7091007 11.673726 -1.4456743 0
-7.0855293 11.6262 -1.4483142 0
-6.5284925 11.643158 -1.4583699 0
-6.2355561 11.120725 -1.6190165 10
-5.5916018 9.9722719 -1.6542346 20
-5.6461291 10.069518 -1.8768213 10
-5.5167527 9.8387833 -2.0009301 3
-5.3770785 9.5896835 -2.1781301 1
-4.8896866 8.7204504 -2.1579404 1
-4.4596725 7.9535475 -2.1300027 1
-4.113431 7.3360472 -2.1132166 1
-1.9248381 3.4328284 -1.3599941 0
-2.1299381 3.7986114 -2.0373468 1
-5.1657658 9.292491 2.7907917 0
-26.311668 47.33102 10.38703 15
-3.8025777 6.8403063 0.39180216 0
-5.3982625 10.603834 0.35023955 1
-17.793139 27.159708 0.66709214 12
-30.83753 51.019245 1.0509871 27
-28.817247 51.838207 0.86855167 232
-26.211796 51.487965 0.67766368 24
-1.9030086 4.0996823 0.039522823 0
-21.73094 51.645374 0.32663107 32
-14.774058 22.551338 0.076698042 10
-10.19663 16.869844 -0.0017201965 0
-12.440363 22.378475 -0.077755973 10
-11.211126 22.022072 -0.14793698 26
-10.341908 22.279743 -0.21907437 0
-9.4268856 22.403772 -0.28933483 0
-14.737428 22.495426 -0.39852619 2
-13.50302 22.340113 -0.46430388 3
-13.623039 24.505945 -0.58094758 12
-5.3954554 10.59832 -0.28192753 0
-11.439696 24.644726 -0.72334486 14
-10.260785 24.385603 -0.78335911 20
-14.733454 22.489361 -0.87404323 3
-13.509052 22.350092 -0.92749113 3
-13.293515 23.913177 -1.0520133 10
-5.3923469 10.592214 -0.49234435 5
-10.360769 22.320375 -1.0911831 1
-10.008963 23.787127 -1.2215465 17
-15.887377 24.250725 -1.4554561 8
-13.521188 22.370171 -1.3913883 4
-13.633637 24.525009 -1.5756638 15
-5.3966184 10.600605 -0.70337301 9
-10.352742 22.303082 -1.525021 3
-9.3720627 22.273481 -1.571993 4
-14.563006 22.229187 -1.805162 36
-13.401122 22.171528 -1.8379415 27
-12.329099 22.178326 -1.8741018 21
-5.3792915 10.566569 -0.91130799 19
-10.302882 22.195669 -1.9512131 27
-9.3196621 22.148947 -1.9891224 36
-14.523694 22.16918 -2.2693148 1
-13.39469 22.160885 -2.2955303 2
-6.4720368 11.642291 -1.2195085 0
-5.3675723 10.54355 -1.1190026 17
-5.422523 11.68183 -1.2548556 0
-4.87152 11.577569 -1.2623626 1
-7.6335602 11.651978 -1.4395068 0
-7.0510974 11.665709 -1.4500067 0
-6.4780488 11.653105 -1.4566321 1
-6.1619806 11.084543 -1.6104503 9
-5.5261641 9.9407969 -1.6456428 12
-5.6571445 10.176413 -1.892868 6
-5.4576931 9.8176279 -1.9925462 2
-5.3304582 9.5887499 -2.173466 1
-4.8481941 8.7212248 -2.1537206 1
-4.447526 8.0004787 -2.1381915 1
-4.0714374 7.3239474 -2.1054187 1
-2.8950014 5.2077031 -2.0589345 1
-2.0966375 3.771558 -2.0187023 1
-6.25597 11.346709 3.4011505 0
-26.09507 47.3297 10.366685 15
-5.3603263 9.7222443 1.537572 0
-25.204672 45.714748 2.6134145 3
-5.3558083 10.611907 0.34988648 18
-5.724452 12.445849 0.36207625 0
-4.0112185 9.6268654 0.24541144 0
-17.805031 27.385948 0.6711182 13
-30.595497 51.020245 1.0488013 35
-28.535694 51.756355 0.86550599 6
-5.357759 10.615772 0.13947347 9
-29.159325 63.396912 0.61019039 8
-21.522825 51.654461 0.32621133 28
-17.446785 26.834929 0.091059014 14
-3.7419739 6.2400165 -0.00063495076 0
-12.340922 22.383236 -0.077622347 7
-5.3580313 10.616312 -0.071190782 19
-10.27578 22.341145 -0.21932408 1
-9.3009281 22.32209 -0.28785887 5
-14.512743 22.322073 -0.39455515 3
-14.838005 24.743464 -0.51317424 9
-12.324814 22.354021 -0.5289101 3
-5.3458123 10.592101 -0.28126395 16
-10.267536 22.323223 -0.65415072 1
-9.2898235 22.295439 -0.71516889 3
-14.519747 22.332848 -0.86598516 4
-13.393952 22.335402 -0.9249357 1
-12.320286 22.345808 -0.98116177 4
-5.3409319 10.582431 -0.49101996 26
-10.2661 22.320099 -1.089411 0
-9.2957954 22.309771 -1.144006 3
-14.526567 22.343336 -1.3379287 1
-13.395775 22.33844 -1.3864981 3
-13.542154 24.56196 -1.5749911 11
-5.3397894 10.580167 -0.7007758 25
-11.254103 24.46817 -1.6703671 15
-9.8991289 23.757761 -1.6742998 27
-14.437461 22.206282 -1.799198 56
-13.290819 22.16342 -1.8334125 35
-12.228489 22.179312 -1.8705662 18
-5.3459659 10.592405 -0.91192108 23
-10.210351 22.198893 -1.9483516 29
-9.2407513 22.177668 -1.9887924 43
-14.404939 22.156261 -2.262831 1
-4.0244794 6.7111154 -0.69371009 0
-12.222268 22.168028 -2.3175769 1
-5.3343215 10.569333 -1.119756 30
-5.348444 11.628349 -1.2470976 0
-4.8188276 11.565115 -1.2591627 9
-7.5711493 11.645198 -1.435395 0
-6.9939704 11.66296 -1.4466218 0
-6.4181304 11.640826 -1.4522878 0
-6.1060047 11.074711 -1.6059152 10
-5.5067191 9.9877625 -1.650225 13
-5.6234913 10.199556 -1.8935099 5
-5.4062734 9.8055792 -1.9862584 2
-5.3026352 9.6176071 -2.1757979 1
-4.8177195 8.7380953 -2.1537206 1
-4.413928 8.005722 -2.1354618 1
-4.0608301 7.365294 -2.1132166 1
-2.885931 5.2343311 -2.0654666 2
-2.0799599 3.7725086 -2.0153122 1
-6.3889513 11.684174 3.4955986 0
-25.873169 47.317093 10.34408 13
-28.068886 51.332638 8.1027088 0
-4.5635605 8.3458815 0.47620264 0
-5.3133678 10.619809 0.34953341 33
-17.746193 27.505054 0.67251498 10
-30.359951 51.030502 1.0468271 33
-28.274277 51.70826 0.86304599 5
-5.3099346 10.612947 0.13919199 24
-28.89139 63.3964 0.60921109 8
-21.308836 51.647923 0.32569835 32
-17.366026 26.915831 0.091127291 14
-13.287483 22.334255 -0.0022678808 0
-12.220501 22.348965 -0.077355102 7
-5.3137841 10.620641 -0.071094997 26
-10.164553 22.304087 -0.2186106 5
-14.413058 22.338985 -0.39396244 3
-3.5007808 5.884285 -0.12178463 0
-12.202585 22.316202 -0.52700424 3
-5.3034406 10.599967 -0.28097954 29
-10.17628 22.329821 -0.65329909 6
-9.1997471 22.298159 -0.71422178 0
-14.402695 22.322924 -0.86364567 3
-14.513616 24.395201 -1.0081302 13
-12.217285 22.343084 -0.97916383 3
-5.300385 10.59386 -0.49068886 32
-10.181492 22.341257 -1.0887023 7
-9.2026291 22.305145 -1.1421148 3
-14.413836 22.340193 -1.3347197 4
-14.585969 24.516815 -1.5185354 11
-12.228159 22.36297 -1.4312392 4
-5.3064008 10.605883 -0.70124805 34
-10.171951 22.320322 -1.5213068 5
-9.1995897 22.297777 -1.5691367 7
-14.338226 22.223005 -1.7964872 42
-13.197048 22.182249 -1.831148 31
-12.124206 22.172859 -1.8664415 19
-5.3107452 10.614567 -0.91222757 23
-10.11626 22.198116 -1.9451722 21
-9.1496019 22.17662 -1.9858226 47
-14.284304 22.139427 -2.256006 1
-6.895864 11.590908 -1.1956255 0
-11.579142 21.176043 -2.2096298 0
-5.3063068 10.605696 -1.1216391 29
-5.3127704 11.657817 -1.2482613 0
-4.8011999 11.637051 -1.2651625 5
-7.5002575 11.624746 -1.4296386 1
-6.9023714 11.601847 -1.436044 2
-6.3660135 11.642225 -1.4496813 0
-6.0654082 11.092475 -1.6054113 8
-5.4737234 10.010396 -1.6507978 17
-5.468523 10.000885 -1.8530722 6
-5.3606772 9.8036566 -1.9820665 3
-5.2822113 9.6601562 -2.1812394 1
-4.7984462 8.7754431 -2.1587842 1
-4.3934326 8.03475 -2.1391013 1
-4.033236 7.3760195 -2.112242 1
-2.8712709 5.2510071 -2.0680795 1
