# .PCD v0.7 - Point Cloud Data file format
VERSION 0.7
FIELDS x y z intensity
SIZE 4 4 4 4
TYPE F F F F
COUNT 1 1 1 1
WIDTH 1396
HEIGHT 1
VIEWPOINT 0 0 0 1 0 0 0
POINTS 1396
DATA ascii
-29.244661 27.404987 0.35045901 8
-21.99057 22.160103 0.18199281 13
-25.051762 17.417917 0.086803064 11
-29.493038 22.135942 -0.003218038 3
-27.084005 21.908726 -0.10579234 26
-25.422152 22.145929 -0.20183893 2
-23.67588 22.186518 -0.28938794 2
-22.003471 22.173103 -0.37184548 14
-25.0721 17.432056 -0.45252043 13
-31.564302 23.690525 -0.70196885 11
-26.975714 21.821127 -0.71891332 27
-4.4354196 3.8638151 -0.139447 0
-22.017921 22.187666 -0.92554051 12
-25.01894 17.395096 -0.99062568 38
-29.295416 21.987617 -1.3008727 8
-21.321278 17.247154 -1.0544723 15
-19.846935 17.289207 -1.0903093 35
-18.594536 17.424822 -1.1299893 8
-18.347038 18.488482 -1.2328939 33
-24.961311 17.355028 -1.5262535 28
-21.250687 17.190052 -1.5348482 15
-19.805233 17.252878 -1.5531346 20
-18.533417 17.367546 -1.5752854 65
-18.497536 18.640139 -1.7083155 1
-22.988956 15.983696 -1.9019396 1
-21.77313 16.34178 -1.9313531 1
-20.494408 16.578285 -1.9468738 0
-6.4053764 5.5798984 -0.65290481 0
-18.114582 16.97506 -1.9795099 0
-17.310961 17.444418 -2.0343297 0
-18.504431 12.865706 -1.9297706 0
-17.705088 13.288519 -1.9624506 0
-6.3332615 5.123086 -0.74578196 0
-16.094404 14.020275 -2.0187998 0
-15.24826 14.289048 -2.0360856 0
-18.323175 18.464434 -2.6143224 2
-7.7390518 5.3807855 -0.97406209 0
-14.986682 11.248224 -1.9932832 0
-3.5088589 2.8383775 -0.49307409 0
-9.5453815 7.7214255 -1.5590529 0
-10.849423 8.776288 -2.0191057 1
-9.6170597 7.7794075 -2.0109718 0
-8.6167421 6.970233 -1.9659976 1
-7.8339677 6.3370337 -1.9962305 1
-7.1711154 5.8008404 -1.9908413 1
-6.6018639 5.340363 -1.9835138 1
-6.1107268 4.9430737 -1.9748049 1
-3.2097752 2.5964432 -1.426622 0
-0.65633702 0.53092247 -0.39492664 0
-32.663757 26.620918 5.8358598 12
-7.7667699 6.3299065 0.85597974 0
-33.395702 27.217453 2.156812 11
-33.38903 27.212015 1.3942744 9
-4.7090497 4.1326342 0.18441711 0
-29.931658 28.255533 1.0879197 12
-30.415157 30.875137 1.0198501 4
-39.966244 28.005453 1.0026512 6
-36.577892 27.663649 0.80851126 3
-27.121672 22.104124 0.51238048 5
-29.614389 25.989414 0.46214366 16
-29.667561 28.006226 0.35675469 7
-21.912012 22.243397 0.18201613 11
-31.526243 22.091312 0.10951661 3
-29.27771 22.142561 -0.0032033771 3
-26.870203 21.899179 -0.10526999 25
-25.217554 22.130777 -0.20085715 5
-23.498417 22.182543 -0.28821069 3
-21.910831 22.242199 -0.37165502 14
-31.460676 22.045368 -0.5692808 3
-29.279459 22.143885 -0.65295625 3
-26.926561 21.94511 -0.71974194 32
-5.3559685 4.7003665 -0.168929 0
-19.019039 17.954002 -0.69630593 0
-21.908398 22.239727 -0.9243567 10
-31.339472 21.960438 -1.2440656 6
-29.090279 22.000811 -1.2953359 8
-21.164974 17.249424 -1.0498616 14
-19.723362 17.309107 -1.0869983 38
-18.4608 17.427025 -1.1257366 1
-18.338037 18.615372 -1.2368655 22
-24.969517 17.496832 -1.5306658 8
-21.094671 17.192127 -1.5281204 16
-19.66984 17.262136 -1.5474678 20
-18.44931 17.416178 -1.5735523 74
-6.5604105 6.659626 -0.60812813 0
-22.891005 16.040361 -1.8986866 1
-21.754456 16.452768 -1.9350328 1
-9.3045454 7.5831919 -0.88652289 0
-19.163645 16.817902 -1.9596341 0
-18.234907 17.213781 -1.9995403 0
-8.4010506 8.5281038 -0.99093139 0
-18.444099 12.924291 -1.9284056 0
-17.70393 13.38938 -1.9677489 0
-16.822048 13.709946 -1.986807 0
-16.048901 14.08442 -2.0195532 0
-15.137883 14.290186 -2.0283277 0
-14.317178 14.533703 -2.0503392 0
-15.614515 10.941524 -1.9703274 0
-9.460207 7.1546998 -1.2617216 0
-9.2531242 7.5412836 -1.3041484 0
-12.506851 10.193067 -2.0488393 0
-10.850942 8.843502 -2.0254064 1
-5.2058764 4.2427821 -1.091817 0
-8.5972443 7.0067425 -1.9673948 1
-7.8228564 6.375617 -1.9993399 1
-7.1467767 5.8246131 -1.9899974 1
-6.6033826 5.3817477 -1.9898828 1
-6.1045985 4.9752393 -1.9787037 1
-4.4281678 3.6089506 -1.9740164 1
-0.6600039 0.5379023 -0.39831656 0
-3.806917 3.1248121 1.2928231 0
-32.665565 26.81271 5.8528705 10
-29.955744 24.588421 3.310878 7
-33.331364 27.359213 2.158812 1
-33.377266 27.396891 1.3977685 6
-6.2884192 5.5576591 0.24702714 0
-29.731419 28.263414 1.0842208 10
-29.991196 30.658108 1.0092169 14
-39.760422 28.068689 0.99993986 5
-7.4412947 5.6687455 0.16491739 0
-27.062893 22.213896 0.51273191 5
-29.661343 26.214479 0.46430168 13
-29.673988 28.208818 0.35801381 2
-21.817448 22.302599 0.18187623 13
-30.798649 21.742167 0.10725208 17
-29.060242 22.137964 -0.0031880182 2
-26.864702 22.051216 -0.10554939 26
-25.113169 22.194836 -0.20064163 3
-5.4297862 5.1616879 -0.066817507 0
-21.83585 22.321411 -0.37170264 15
-30.788857 21.735254 -0.55849379 26
-29.046101 22.127192 -0.64947057 2
-26.902338 22.082109 -0.72115064 36
-10.400393 9.1917906 -0.32904184 0
-21.84181 22.327505 -0.9248302 12
-30.811903 21.751524 -1.2261299 14
-28.898834 22.015005 -1.2902249 4
-21.033569 17.264877 -1.0463266 14
-19.599928 17.322273 -1.0835217 37
-18.425926 17.516136 -1.1273314 8
-18.39588 18.804947 -1.2451869 16
-24.963766 17.623058 -1.5340753 6
-5.5636201 4.2383413 -0.37229845 0
-20.941917 17.189646 -1.5213925 16
-19.582531 17.306898 -1.5453429 15
-18.362366 17.455713 -1.5713238 64
-18.422291 18.831945 -1.7137685 1
-22.860952 16.138586 -1.9008553 1
-21.709593 16.538273 -1.9361651 1
-20.378334 16.727045 -1.9471685 0
-19.212399 16.979778 -1.9706692 0
-18.180492 17.28282 -2.0001762 0
-17.210777 17.593491 -2.0372996 1
-8.64431 6.1024117 -0.90601963 0
-17.622223 13.424532 -1.9638635 0
-16.829506 13.814076 -1.9933712 0
-15.898183 14.050697 -2.0067472 0
-18.371531 17.464426 -2.4697576 10
-9.7047949 9.9205999 -1.3947587 0
-15.637984 11.039564 -1.9781396 0
-5.9515653 4.5338759 -0.79587471 0
-6.2577105 5.1364846 -0.8844924 0
-12.550939 10.302122 -2.0619407 0
-10.856723 8.9114685 -2.03228 1
-9.5794563 7.8630557 -2.014823 1
-8.5909977 7.0517049 -1.9715868 1
-7.8157163 6.4153347 -2.0032268 1
-7.1233773 5.8470454 -1.9891534 1
-6.5604687 5.3849959 -1.9826039 1
-6.0781975 4.9891357 -1.9757795 1
-4.4184642 3.6267855 -1.9753228 2
-0.67772573 0.55629414 -0.41018131 0
-4.8992982 4.0501709 1.6685847 0
-8.0780354 6.6779819 2.0103443 0
-32.696983 27.030069 5.8753691 2
-29.713076 24.563322 3.2935133 9
-33.340355 27.561934 2.165612 1
-30.68696 25.368416 1.2888044 5
-30.514624 27.158892 1.2024184 1
-29.381277 28.126467 1.0750262 17
-30.3967 31.290373 1.0265312 4
-39.52533 28.109953 0.99648893 4
-33.502861 25.707659 0.74449033 1
-26.901962 22.239418 0.51115048 10
-29.486008 26.243393 0.46298808 12
-23.059862 22.075026 0.27914307 24
-21.742256 22.381485 0.18189955 13
-30.634558 21.78694 0.10694484 22
-5.9596696 4.5730166 -0.00065554568 0
-26.880058 22.221312 -0.10591381 29
-5.7427282 5.1111932 -0.046023775 0
-23.071384 22.086056 -0.28485733 27
-21.743872 22.383146 -0.37146458 14
-30.621542 21.777683 -0.55683422 25
-28.876665 22.15785 -0.64740765 3
-26.874413 22.216644 -0.72247642 28
-19.70594 17.538853 -0.62537855 3
-8.3504562 7.9938269 -0.30775422 0
-21.735886 22.374928 -0.92364633 11
-30.608734 21.768576 -1.2210611 12
-28.729836 22.045185 -1.2861078 4
-20.886919 17.26688 -1.0420233 16
-19.4468 17.30821 -1.0783898 42
-3.1204348 2.9871678 -0.19155064 0
-21.748934 22.388357 -1.4774302 16
-24.784901 17.626732 -1.5268551 0
-22.413818 17.198732 -1.5038645 1
-20.810993 17.204113 -1.5162345 15
-19.414627 17.279575 -1.5368429 5
-18.330156 17.547316 -1.5737998 169
-21.732922 22.371876 -2.0289979 6
-22.778465 16.199778 -1.8986866 1
-21.680216 16.635818 -1.9387127 1
-10.342851 8.5502682 -0.99111432 0
-19.257286 17.139538 -1.9813976 1
-18.189177 17.412355 -2.0078068 0
-17.11871 17.622005 -2.0336697 0
-18.408634 13.092006 -1.9342068 0
-17.591057 13.498096 -1.9656296 0
-16.741276 13.839743 -1.9886304 0
-4.8635859 4.3287311 -0.61580926 0
-18.324831 17.542219 -2.4716971 8
-14.223685 14.641866 -2.0515392 0
-9.8343058 6.9940438 -1.2470791 0
-3.6447291 2.7966998 -0.488695 0
-14.336699 11.851918 -2.0322473 0
-12.545487 10.371153 -2.0669796 0
-10.819449 8.9442644 -2.0311344 1
-9.5610809 7.9039917 -2.0167484 0
-8.5754395 7.0891776 -1.9736828 1
-7.784204 6.4350762 -2.0008945 1
-7.1089525 5.8768563 -1.9908413 1
-6.5416327 5.4078627 -1.9826039 1
-6.0846663 5.0300956 -1.9835774 1
-4.4174342 3.6518216 -1.9805486 1
-0.6478551 0.53557134 -0.39323166 0
-4.9126029 4.0886717 1.6777248 0
-32.579754 27.115545 5.8704305 1
-29.466034 24.524054 3.2751269 3
-31.191444 25.960081 2.0316112 2
-7.4701338 6.2172585 0.3145982 0
-31.761442 28.457901 1.2552603 7
-29.316645 28.251486 1.0760831 14
-48.919941 50.693501 1.6577505 36
-39.366859 28.194309 0.99484563 10
-33.458576 25.850395 0.74540693 6
-26.840353 22.338747 0.51138479 14
-29.419676 26.359703 0.46331647 21
-22.917412 22.084755 0.27830362 21
-21.670689 22.456345 0.18192287 14
-30.467829 21.820875 0.10661483 33
-28.684141 22.161625 -0.0031632346 3
-26.830812 22.330805 -0.10601099 19
-24.752989 22.178406 -0.19896543 2
-22.940418 22.106926 -0.28414384 28
-21.666742 22.452257 -0.37141699 12
-30.487368 21.834869 -0.55570811 31
-28.666943 22.148336 -0.6443488 2
-26.643822 22.175177 -0.71825045 6
-19.591087 17.553398 -0.62357742 11
-6.7028875 6.4593515 -0.24782147 0
-21.653234 22.438257 -0.92329121 12
-30.481115 21.830391 -1.2188517 21
-28.568003 22.071896 -1.2821326 4
-20.755808 17.274687 -1.0383347 18
-19.344652 17.332596 -1.0759065 33
-18.312027 17.646696 -1.1276858 3
-21.65237 22.437363 -1.4759172 16
-28.467896 20.388536 -1.757899 0
-22.249197 17.189928 -1.4966354 10
-20.680153 17.211721 -1.5108522 14
-19.294769 17.287899 -1.5318846 7
-18.274746 17.610769 -1.5740474 37
-21.644751 22.429466 -2.0276997 7
-22.818705 16.342619 -1.9065481 2
-21.707024 16.771042 -1.9460725 1
-20.294668 16.890888 -1.9501147 0
-5.4951491 4.9235926 -0.56707698 0
-5.8600259 5.6471138 -0.64892066 0
-17.129379 17.750393 -2.0419192 0
-18.391033 13.171548 -1.9369369 0
-17.574579 13.578277 -1.9688085 0
-16.621805 13.834031 -1.9798779 0
-18.312429 17.647085 -2.4779034 7
-14.252433 14.769145 -2.0627389 0
-7.3105788 5.2357931 -0.92924458 0
-14.900563 11.512309 -2.0030148 0
-14.285089 11.889225 -2.0305095 0
-5.7156653 4.7570457 -0.94430029 0
-10.801899 8.9902267 -2.0334256 1
-9.5560589 7.9533367 -2.0212417 0
-8.5579357 7.1226168 -1.97508 1
-7.7718678 6.4683867 -2.0032268 1
-7.1074548 5.9154077 -1.9959049 2
-6.5655766 5.4644122 -1.9953421 0
-6.0560241 5.0403204 -1.9796785 1
-4.4052992 3.6664517 -1.9805486 2
-0.65442979 0.54467022 -0.39831656 0
-32.368183 27.121639 5.8484807 12
-29.412046 24.644661 3.2781913 3
-31.083755 26.045404 2.0302112 10
-30.38933 25.463537 1.2833692 5
-31.675795 28.571112 1.2556134 6
-6.2710495 6.0834379 0.23092137 0
-48.602139 50.699551 1.6526691 37
-30.723103 22.158199 0.77826047 1
-7.8949137 6.1416001 0.17633964 0
-30.264032 25.358549 0.57821447 11
-29.403376 26.521421 0.4644424 16
-22.763668 22.082645 0.27732432 25
-21.568426 22.499207 0.18168969 13
-30.46019 21.96858 0.10684242 40
-4.6000309 3.5784495 -0.00050858891 0
-26.407099 22.126785 -0.10462618 1
-24.575342 22.166605 -0.19812733 3
-22.780859 22.099321 -0.28307363 26
-21.578335 22.509542 -0.37117893 16
-30.495897 21.994333 -0.55718988 34
-28.44813 22.130329 -0.64107656 3
-4.7972174 4.0196385 -0.1296795 0
-19.470409 17.562029 -0.62158668 16
-19.300957 18.72353 -0.71589315 1
-21.584246 22.515709 -0.92352796 13
-30.476656 21.980455 -1.221581 15
-28.403149 22.095337 -1.2780155 3
-20.615692 17.274105 -1.0341851 16
-19.224743 17.340441 -1.07243 34
-18.316511 17.768536 -1.131584 8
-21.59444 22.526342 -1.477052 17
-28.332087 20.433744 -1.7536873 0
-22.053347 17.155708 -1.4872801 2
-20.5495 17.218639 -1.5054699 17
-19.228436 17.343771 -1.5311762 7
-18.27356 17.726868 -1.5789996 28
-21.573019 22.503998 -2.0279593 9
-22.715837 16.383179 -1.9024818 1
-21.85284 16.999731 -1.9641886 1
-5.2041106 4.3605785 -0.50144964 0
-19.113573 17.24017 -1.9783323 1
-10.480512 10.166965 -1.1643054 0
-5.0538168 5.2719131 -0.60452425 0
-6.3420229 4.5740108 -0.66953313 0
-17.532597 13.638932 -1.9691617 0
-20.50226 17.179058 -2.4488635 1
-15.855679 14.301594 -2.0195532 0
-18.299532 17.752064 -2.4841099 1
-14.206136 14.819198 -2.063139 0
-15.415712 11.118162 -1.9641598 0
-11.430849 8.8922701 -1.5405527 0
-14.23035 11.923759 -2.0283375 0
-12.44297 10.426095 -2.0614369 0
-10.772028 9.0259953 -2.0334256 1
-9.5538425 8.0052652 -2.0263765 0
-8.5372896 7.1534839 -1.9757787 1
-4.7037597 3.9413295 -1.2157727 0
-7.087801 5.9389424 -1.9959049 1
-6.5414505 5.4811497 -1.9935224 1
-6.0422506 5.0628648 -1.9806532 1
-4.3960147 3.6834667 -1.981855 2
-0.64984298 0.54451025 -0.39662158 0
-4.606039 3.888274 1.5822611 0
-32.08992 27.089308 5.8161049 15
-29.199696 24.649469 3.2645719 8
-31.073555 26.231323 2.0358112 3
-30.347723 25.618599 1.2855692 7
-31.328222 28.466528 1.245963 12
-29.087236 28.424723 1.0749205 17
-24.600832 25.851469 0.83974373 1
-30.609339 22.247139 0.77743882 6
-31.099096 24.37604 0.69661564 1
-30.039459 25.358372 0.57569587 10
-29.593117 26.889915 0.46899301 12
-22.619637 22.104433 0.27655482 29
-21.505125 22.598385 0.18185291 16
-30.466835 22.143566 0.10714967 36
-28.264278 22.154057 -0.003133913 4
-26.283026 22.187307 -0.10445611 4
-2.0840867 1.8937144 -0.016857823 0
-22.622461 22.107195 -0.28211042 26
-21.487421 22.579782 -0.37103608 19
-30.495964 22.164738 -0.55867159 31
-28.278694 22.165358 -0.63908476 2
-20.709692 17.482473 -0.56155783 5
-19.402954 17.630579 -0.62149185 4
-19.212179 18.774588 -0.71514803 4
-21.493311 22.585972 -0.92317283 14
-30.418531 22.108458 -1.2224908 10
-5.0622153 3.9678569 -0.22843 0
-20.47588 17.285097 -1.0303428 19
-19.119652 17.373156 -1.0701122 36
-18.305561 17.888618 -1.1349509 5
-21.486946 22.579283 -1.4753498 15
-28.324873 20.586769 -1.757899 0
-4.813036 3.7725456 -0.32552195 0
-20.38859 17.211409 -1.4982935 20
-19.058352 17.317455 -1.5226762 4
-18.228447 17.813261 -1.5807328 16
-21.479391 22.571344 -2.0269206 10
-22.733118 16.522633 -1.9089879 2
-10.39118 8.1447973 -0.93666238 0
-20.261602 17.10421 -1.9583641 0
-19.059116 17.31815 -1.9792519 1
-18.000359 17.590368 -2.0068531 0
-17.018787 17.883976 -2.0435691 0
-18.314758 13.311329 -1.9386431 0
-9.5455971 7.4820137 -1.0751799 0
-16.643528 14.049945 -1.9941007 0
-15.77663 14.335505 -2.0161633 0
-18.328302 17.910843 -2.4969106 1
-14.127035 14.845215 -2.0595388 0
-30.534082 22.192442 -3.9007711 1
-14.926267 11.699481 -2.0174005 0
-14.186547 11.97584 -2.0283375 0
-12.413766 10.479313 -2.0629485 0
-10.744921 9.0705261 -2.0345712 1
-9.5184011 8.0351362 -2.0250928 0
-8.5080013 7.1821885 -1.97508 1
-5.0820532 4.2901101 -1.3176054 0
-7.0659838 5.9648824 -1.9959049 1
-6.5242915 5.5076027 -1.9944322 1
-6.0295811 5.0899835 -1.9826027 1
-4.3882613 3.7044327 -1.9844679 2
-0.63676852 0.53754002 -0.38984174 0
-32.149128 27.332037 5.8440909 15
-29.092224 24.733168 3.2621887 8
-30.960503 26.32151 2.0344112 3
-32.801456 27.886625 1.3936274 4
-31.231606 28.578415 1.2460808 11
-28.879545 28.4195 1.0709045 13
-24.406065 25.826746 0.83616793 0
-38.885536 28.470337 0.99016225 12
-34.19368 26.994837 0.76803988 6
-29.804502 25.33872 0.5728845 18
-3.5793104 3.2752407 0.056905922 0
-22.493879 22.135557 0.27596024 25
-21.40962 22.655876 0.18171301 19
-30.473257 22.311224 0.10744554 17
-28.083174 22.170784 -0.003122394 3
-26.126186 22.21155 -0.10414028 2
-24.247887 22.187979 -0.19676241 4
-22.462484 22.104664 -0.28107587 23
-21.408466 22.654655 -0.37103608 17
-30.408722 22.263973 -0.55849379 9
-28.085012 22.172235 -0.63645273 3
-20.581516 17.497667 -0.55973488 5
-19.332438 17.690107 -0.62120748 0
-19.10948 18.805073 -0.71376413 0
-21.403349 22.649242 -0.92269927 12
-30.254068 22.150743 -1.2189816 7
-28.040379 22.136999 -1.2687874 5
-20.3332 17.28656 -1.0261931 22
-18.970432 17.358854 -1.0651457 32
-18.285736 17.99445 -1.1376088 6
-21.402504 22.648348 -1.4749715 18
-5.8858724 4.3093853 -0.36622059 0
-2.2823532 1.8018463 -0.1547877 0
-20.261452 17.225561 -1.4933598 17
-18.894676 17.289536 -1.5144124 18
-18.237299 17.946785 -1.586923 12
-21.392239 22.637486 -2.0261416 11
-4.5369916 3.3217926 -0.38196021 0
-21.708721 17.138353 -1.9622072 1
-20.186581 17.161909 -1.9568911 0
-19.1486 17.521887 -1.9948848 2
-19.143869 18.838913 -2.1416607 0
-5.2103586 5.5136542 -0.62795287 0
-7.3381414 5.3726754 -0.77873325 0
-17.415792 13.749222 -1.9670424 0
-16.59742 14.110533 -1.9944654 0
-18.872963 17.269667 -2.4195466 0
-9.287487 9.1395397 -1.2695959 0
-14.168067 14.992792 -2.0731385 0
-15.483433 11.336311 -1.9830737 0
-6.4686294 5.1067801 -0.8766892 0
-14.153749 12.03301 -2.0296407 0
-12.371067 10.517438 -2.0619407 0
-10.722245 9.1156683 -2.0362895 0
-9.5113544 8.0862131 -2.0295858 0
-5.3951964 4.5868025 -1.2561705 0
-7.706696 6.5519571 -2.004004 1
-7.062995 6.0047054 -2.0009685 1
-6.4931569 5.5202498 -1.9907928 1
-6.0265565 5.1235628 -1.9874763 1
-4.369544 3.7148299 -1.981855 1
-0.62660724 0.53271908 -0.38475683 0
-31.981283 27.382254 5.8309212 8
-28.95121 24.787916 3.2560599 6
-6.2028179 5.3108292 0.40880227 0
-4.5158057 3.8664157 0.19243419 0
-30.996414 28.562624 1.2406671 7
-28.865366 28.604584 1.074075 11
-47.613598 50.738796 1.6373309 37
-36.784031 27.129427 0.93905604 2
-32.064487 25.496111 0.72220987 4
-29.764477 25.484232 0.5738216 13
-29.334076 27.030809 0.46786708 21
-22.200542 21.999973 0.27330208 15
-21.316725 22.715885 0.18159643 13
-6.3642559 4.6938472 0.022497334 0
-27.867847 22.159147 -0.0031070351 3
-25.939104 22.208961 -0.10370297 1
-24.090876 22.199297 -0.19611588 4
-22.211874 22.0112 -0.27889976 10
-21.315577 22.714661 -0.37079802 17
-29.931696 22.075605 -0.55114442 4
-27.85405 22.148176 -0.63296705 4
-20.453476 17.512188 -0.55791187 6
-19.408789 17.88484 -0.62566298 0
-22.199209 21.99865 -0.83203286 10
-21.315956 22.715065 -0.92234409 14
-23.304073 17.187517 -0.94136733 0
-21.752073 17.296185 -0.98697662 4
-20.205933 17.300243 -1.022812 21
-18.862703 17.381632 -1.062497 48
-18.285252 18.120054 -1.1415071 7
-21.326057 22.725828 -1.4751607 16
-5.2502785 3.8722522 -0.32751274 0
-21.584948 17.163294 -1.4679317 6
-20.13142 17.236446 -1.4882017 20
-18.790169 17.314793 -1.5108708 31
-18.217075 18.052492 -1.5906372 29
-21.296707 22.694553 -2.0245838 11
-9.8472567 7.2626739 -0.83114982 0
-21.483238 17.08242 -1.9472047 0
-3.5422966 3.032901 -0.34441519 0
-3.4226966 3.1539516 -0.35771829 0
-18.03289 17.869972 -2.0243399 0
-5.739378 6.1160917 -0.69427896 0
-18.240625 13.453058 -1.9406906 0
-21.502998 17.098133 -2.4354026 0
-3.8155248 3.2668378 -0.45986849 0
-15.82259 14.580225 -2.0349953 0
-8.2912302 8.2163239 -1.1373219 0
-14.186459 15.117611 -2.0835383 0
-15.453378 11.397372 -1.9843072 0
-2.8704646 2.2824531 -0.39010978 0
-14.156962 12.121138 -2.0361571 0
-12.352362 10.576045 -2.0649641 0
-7.1840405 6.150948 -1.3684095 0
-9.4860668 8.1219339 -2.0302277 0
-8.457653 7.2414103 -1.97508 1
-7.6956992 6.5890284 -2.0071135 1
-7.0538697 6.0394964 -2.0043442 1
-6.4679294 5.5378165 -1.988973 0
-5.9997931 5.1370001 -1.9845521 1
-4.3479338 3.7226844 -1.9779357 1
-0.62199157 0.53254682 -0.38306189 0
-4.3853183 3.7812998 1.1106625 0
-31.870508 27.480776 5.8281775 0
-29.290104 25.255787 3.3040683 6
-30.630762 26.411787 2.0248113 11
-30.425985 26.235216 1.3004514 1
-30.480339 28.284462 1.2239554 20
-28.595524 28.535692 1.0677339 9
-24.244249 26.016983 0.83682662 2
-23.241673 17.26709 0.59486973 21
-31.894136 25.542873 0.72037667 15
-29.548124 25.47827 0.5713616 12
-29.283514 27.173861 0.46857077 10
-22.132113 22.085804 0.27340701 14
-21.229115 22.781382 0.18152647 14
-23.240063 17.265892 0.082365051 33
-27.281422 21.848715 -0.0030501373 16
-25.719049 22.176598 -0.10313204 2
-23.928204 22.204359 -0.19542146 3
-22.120752 22.074469 -0.27872139 10
-21.227972 22.780155 -0.37065518 16
-23.215132 17.24737 -0.42857566 40
-27.305202 21.86776 -0.62222552 22
-20.328623 17.528629 -0.55617177 6
-10.438173 9.686183 -0.33757362 0
-22.125118 22.078825 -0.83213931 10
-21.239256 22.792263 -0.92246252 11
-23.218258 17.249693 -0.94032753 40
-21.607325 17.304533 -0.98314345 10
-20.084883 17.318462 -1.0197382 16
-18.737459 17.387568 -1.0588549 54
-18.286953 18.24869 -1.1455827 7
-21.227526 22.779676 -1.4738369 16
-23.210926 17.244246 -1.4516455 43
-21.440731 17.171114 -1.462191 17
-19.995522 17.241409 -1.4825952 16
-18.682777 17.336824 -1.507093 38
-18.21895 18.18083 -1.5963322 24
-21.217352 22.768759 -2.0245838 11
-22.587675 16.78121 -1.9114276 2
-21.258423 17.02511 -1.9322022 0
-20.205248 17.422249 -1.9704437 0
-19.063814 17.690411 -1.9988697 1
-17.97323 17.935623 -2.0246577 0
-11.329995 12.158442 -1.3756887 0
-18.113571 13.457234 -1.9321594 0
-17.403349 13.937719 -1.9765792 0
-16.537724 14.259876 -1.9992063 0
-6.8801866 6.3845215 -0.88774461 0
-5.3880982 5.3768244 -0.74166429 0
-14.117319 15.149573 -2.0811384 0
-23.398108 17.38331 -3.0122325 0
-14.712901 11.783036 -2.0051303 0
-14.129626 12.183461 -2.0383291 0
-12.318377 10.621688 -2.0654681 0
-10.709312 9.2342491 -2.0460269 1
-9.4726105 8.1678867 -2.033437 0
-8.4412746 7.2786031 -1.977176 1
-7.6785965 6.6209736 -2.0086682 1
-7.0149798 6.0487609 -1.9992807 1
-6.4633107 5.5730772 -1.9935224 0
-5.9965167 5.1705775 -1.9894258 1
-4.3463664 3.7477131 -1.9831614 2
-0.63659257 0.54891056 -0.39323166 0
-14.362132 12.467213 2.6339564 0
-28.854061 25.047098 3.2642314 4
-30.60335 26.565588 2.0288112 9
-29.895018 25.950712 1.281428 1
-30.430208 28.426317 1.2257206 14
-28.385067 28.514179 1.0634009 3
-4.400732 4.7540216 0.15244116 0
-23.197098 17.353643 0.59519839 4
-6.7684555 5.4575567 0.15328364 0
-30.09775 26.126696 0.58366156 14
-29.731045 27.773195 0.47720283 6
-22.044634 22.144907 0.27323213 14
-21.158892 22.857521 0.18157311 15
-23.173073 17.33567 0.082330912 2
-27.146536 21.888857 -0.0030431561 22
-3.9661219 3.4428375 -0.015949631 0
-23.775524 22.209856 -0.19477491 4
-22.05871 22.159046 -0.27886409 11
-21.155033 22.853354 -0.3707028 17
-29.476492 22.051229 -0.54551381 1
-27.154697 21.895437 -0.62044716 33
-20.219048 17.551376 -0.55476314 6
-22.043312 22.143578 -0.83181995 10
-5.0763216 5.4838471 -0.22126314 0
-23.20895 17.362511 -0.94227707 3
-21.462685 17.305841 -0.9791683 9
-19.954905 17.322083 -1.0160496 19
-18.630051 17.403223 -1.0560405 38
-18.305269 18.388533 -1.1505443 7
-21.151873 22.849939 -1.4738369 15
-21.324587 17.194489 -1.4581512 18
-19.868874 17.247404 -1.4774371 18
-18.59309 17.368696 -1.5044957 47
-18.22052 18.303398 -1.6017796 14
-6.0494051 6.5350499 -0.57930565 0
-22.528709 16.853624 -1.9111565 1
-21.192526 17.088005 -1.9313531 0
-9.1669312 7.9574594 -0.89654011 0
-3.5410416 3.3078568 -0.37243164 0
-8.3801441 8.4182625 -0.94715071 0
-16.808502 18.157885 -2.0481889 0
-18.14863 13.576907 -1.9406906 0
-17.434572 14.057884 -1.9854095 0
-16.490349 14.314636 -1.9992063 0
-15.641498 14.611473 -2.0244493 0
-18.326775 18.410135 -2.5310457 0
-14.110264 15.243032 -2.0875382 0
-15.467833 11.571415 -1.9962311 0
-6.6912756 5.3953247 -0.91434622 0
-14.050112 12.196361 -2.0326817 0
-6.4037471 5.558846 -1.0768249 0
-10.669664 9.2619247 -2.0443087 1
-9.451438 8.2044287 -2.0347209 0
-8.4408865 7.327208 -1.9827652 1
-7.6506739 6.6412549 -2.0071135 0
-5.4565411 4.7366128 -1.5595908 0
-6.4359703 5.5868177 -1.9907928 1
-5.9793382 5.190433 -1.9894258 1
-4.3253503 3.7546697 -1.9792421 4
-0.62929678 0.54626828 -0.38984174 0
-7.6838021 6.7171917 1.957599 0
-56.662575 49.534512 10.423334 12
-28.550409 24.958811 3.2397165 4
-30.603668 26.753773 2.0350113 4
-29.707926 25.970715 1.2772869 7
-30.068705 28.285799 1.2151288 16
-10.870554 10.9965 0.40868327 0
-24.007057 26.116634 0.83475643 4
-36.585754 27.569353 0.94119233 4
-6.5103126 5.2870135 0.14785455 0
-29.903982 26.142107 0.58167017 13
-29.348425 27.608227 0.47260532 16
-21.955957 22.210339 0.27309221 12
-21.070848 22.922413 0.18150315 14
-29.319386 22.09375 0.10444134 3
-26.917818 21.859915 -0.0030260517 26
-25.404884 22.208988 -0.10247608 3
-23.639589 22.237894 -0.194296 1
-21.969982 22.224527 -0.27872139 9
-21.085953 22.938845 -0.37089324 16
-29.354614 22.120296 -0.54468405 3
-26.898041 21.843853 -0.61632127 27
-20.076361 17.550785 -0.55252582 7
-19.319715 18.174164 -0.62879127 0
-21.957453 22.211853 -0.83150059 12
-21.037624 22.886267 -0.92044991 36
-29.316793 22.091797 -1.1933777 6
-21.14459 17.171486 -0.96738476 0
-19.804035 17.312717 -1.0114388 18
-18.311207 18.523361 -1.1549742 7
-21.050346 22.900108 -1.4723239 18
-5.5897975 4.2122159 -0.35137925 0
-21.183823 17.203346 -1.452623 23
-19.736383 17.253576 -1.4720548 17
-18.474186 17.378769 -1.4997736 49
-18.277208 18.488968 -1.6124268 6
-3.9654787 4.3139381 -0.38118365 0
-4.8604755 3.6626322 -0.41340619 0
-21.22567 17.237331 -1.939845 0
-20.038137 17.51737 -1.9657297 6
-19.024303 17.896269 -2.0074525 1
-17.856335 18.063219 -2.0252938 0
-16.761198 18.234058 -2.0501688 0
-3.6189516 2.7270765 -0.38800162 0
-17.326632 14.070929 -1.9786985 0
-16.440277 14.372116 -1.9992063 0
-15.694822 14.764207 -2.0380085 0
-6.7843781 6.8629818 -0.94026893 0
-2.8757458 2.1670306 -0.372109 0
-14.669407 11.913 -2.0102077 0
-14.073313 12.302911 -2.042239 0
-7.9945693 6.9888644 -1.3484246 0
-10.658131 9.3173542 -2.0483181 1
-9.4197664 8.2347746 -2.0340788 0
-8.4152565 7.3566303 -1.9827652 1
-6.5226164 5.7020812 -1.7163851 0
-6.9736447 6.0963707 -1.9992807 1
-6.4281588 5.6195059 -1.9944322 1
-5.9611826 5.2112751 -1.9894258 1
-4.3179092 3.7747231 -1.981855 2
-0.62193048 0.54369253 -0.38645181 0
-56.251694 49.540199 10.381081 12
-28.360041 24.976353 3.2284806 12
-30.733265 27.066422 2.0502114 10
-32.300777 28.446911 1.3932391 7
-29.883564 28.318821 1.2118335 16
-30.331226 30.9084 1.1445668 7
-7.8517942 8.6048412 0.27411178 0
-33.809044 25.671761 0.87217432 0
-27.093349 22.167761 0.61715347 2
-29.789963 26.235666 0.58131874 13
-29.229612 27.69911 0.47232386 1
-21.866007 22.282095 0.27298728 14
-20.97052 22.981752 0.18136324 16
-29.145828 22.130905 0.10411134 3
-26.865376 21.981232 -0.0030291933 31
-8.5791893 7.5555902 -0.034717474 0
-23.273388 22.054762 -0.19194932 15
-21.865973 22.282061 -0.27843601 10
-20.98287 22.995287 -0.37055996 15
-4.2428832 3.2216907 -0.07894659 0
-26.89208 22.003082 -0.61802852 30
-19.915865 17.539665 -0.54987425 8
-8.5104332 8.0648155 -0.27794603 0
-21.853495 22.269346 -0.83064902 12
-20.934738 22.942539 -0.91962123 50
-29.111452 22.104801 -1.1883088 5
-7.5706558 6.1943054 -0.34740102 0
-19.689459 17.340273 -1.0088261 17
-18.447021 17.481112 -1.0527296 10
-18.374744 18.724398 -1.1633024 8
-20.947422 22.95644 -1.471 45
-28.441132 21.595816 -1.7927963 1
-21.02788 17.204998 -1.4462444 22
-19.583103 17.246607 -1.465327 14
-18.413258 17.449116 -1.5000097 88
-18.262455 18.609972 -1.6171314 3
-15.968067 17.499527 -1.5410932 1
-22.556915 17.127834 -1.9238976 1
-8.1431637 6.6627312 -0.74644262 0
-20.096544 17.698788 -1.9778093 1
-18.967262 17.974112 -2.0083721 1
-6.1022263 6.2183456 -0.69470435 0
-16.731876 18.33659 -2.0547886 0
-18.108145 13.74981 -1.9468331 0
-9.1956205 7.5238509 -1.0532807 0
-16.504078 14.534945 -2.0134289 0
-18.412607 17.448498 -2.3992081 8
-14.820561 15.102582 -2.061687 0
-6.2962136 6.9000688 -0.9387722 0
-15.406814 11.698646 -1.9991093 0
-6.4246922 5.2566791 -0.8830359 0
-13.977398 12.309729 -2.0348537 0
-6.8611169 6.0425043 -1.1609755 0
-10.644708 9.3746681 -2.0523279 1
-9.4043379 8.2822886 -2.0372882 1
-8.4089279 7.4056435 -1.9876556 1
-7.6147327 6.7062049 -2.0102229 1
-6.9805975 6.1477294 -2.00772 1
-6.3987508 5.635304 -1.9917027 0
-5.9478664 5.2382154 -1.9913752 1
-4.3125577 3.7980187 -1.9857743 1
-0.60633862 0.53399521 -0.37797698 0
-5.2246122 4.633739 1.8331074 0
-55.867947 49.54961 10.34212 16
-28.242859 25.048758 3.2250757 1
-6.8593855 6.0836291 0.45900252 0
-3.1944044 2.8331361 0.13821098 0
-29.648584 28.293221 1.2063022 15
-29.860352 30.641808 1.1308278 9
-7.6364355 8.4277287 0.26761892 0
-33.725574 25.794489 0.87233865 0
-26.966425 22.221498 0.61602539 9
-29.590471 26.243961 0.57921016 14
-23.108278 22.051899 0.37465021 8
-21.785295 22.355425 0.27295232 17
-20.898224 23.063711 0.1814332 18
-28.925421 22.123165 0.10359926 3
-26.862572 22.13592 -0.003037571 38
-25.02984 22.199112 -0.10160146 2
-23.121029 22.064066 -0.19132672 27
-21.788054 22.358255 -0.27843601 11
-20.894411 23.059504 -0.37041712 15
-31.638599 24.198298 -0.59026206 12
-26.895361 22.162939 -0.61987805 26
-19.818609 17.577242 -0.54887992 4
-19.472681 18.582502 -0.63808143 0
-21.778412 22.348362 -0.83075547 11
-20.85989 23.021406 -0.91985798 40
-28.907087 22.109144 -1.1831101 4
-8.1104574 6.6833677 -0.37323958 0
-19.568995 17.355856 -1.0057523 15
-18.432154 17.58954 -1.0553783 8
-18.401302 18.882872 -1.16915 2
-20.867157 23.029427 -1.471 54
-22.444309 17.166187 -1.4185534 0
-20.887552 17.212244 -1.4407163 22
-19.534727 17.325462 -1.4662241 3
-18.363794 17.524307 -1.5009542 58
-18.350624 18.830868 -1.6307498 8
-15.914923 17.564037 -1.5418723 1
-4.2889142 3.2803102 -0.36677942 0
-21.237265 17.500423 -1.9522998 1
-19.828707 17.586197 -1.9574803 1
-18.921721 18.056726 -2.0102112 2
-7.8280983 8.0329628 -0.89437222 0
-15.789808 17.425959 -1.9465549 1
-18.079029 13.827469 -1.9488807 0
-17.1763 14.154013 -1.973047 0
-16.378733 14.526394 -2.0043118 0
-18.383282 17.542902 -2.4033511 5
-14.753858 15.139972 -2.0597475 0
-13.973902 15.421886 -2.091538 0
-3.6218224 2.7700953 -0.471201 0
-7.084692 5.8380923 -0.97654372 0
-13.961115 12.382195 -2.0387635 0
-12.183717 10.80581 -2.0679874 0
-10.603031 9.4038897 -2.0506094 1
-9.3901358 8.328167 -2.0404975 0
-8.388917 7.4401798 -1.989053 1
-7.5854039 6.7275391 -2.0086682 1
-6.9444671 6.1590881 -2.0035002 1
-6.4169226 5.691206 -2.003531 0
-5.9295435 5.2589469 -1.9913752 1
-4.3162436 3.8281019 -1.9936129 2
-0.61802393 0.54812902 -0.38645181 0
-55.48484 49.556915 10.30316 13
-30.785894 27.496771 3.5264051 18
-30.400534 27.152582 2.0406113 19
-3.13977 2.8043213 0.13626981 0
-29.509274 28.357761 1.2046546 18
-49.215157 50.857082 1.8705159 29
-45.692654 50.782471 1.6075014 36
-34.864544 26.859009 0.90421838 2
-26.928696 22.348705 0.61694199 4
-22.985014 22.088091 0.37389958 24
-2.928961 3.0266776 0.036829676 0
-20.812241 23.130568 0.18138656 17
-28.74029 22.140993 0.10321235 4
-26.855932 22.288317 -0.0030455994 29
-5.9337559 5.2998013 -0.024161322 0
-22.980413 22.08367 -0.19079992 30
-21.709881 22.43417 -0.27843601 10
-20.795069 23.111481 -0.37008384 27
-28.734081 22.136211 -0.53751248 3
-26.879383 22.307779 -0.62130076 21
-4.512764 4.0306263 -0.12537067 0
-19.462475 18.703011 -0.63988256 0
-21.694712 22.418495 -0.83054256 10
-20.811501 23.129744 -0.92127866 15
-28.712561 22.119631 -1.1783012 4
-11.058595 9.1777658 -0.51038277 0
-19.445694 17.368141 -1.0025249 18
-18.367756 17.651009 -1.0552129 1
-21.681093 22.404423 -1.382496 13
-20.791992 23.108063 -1.4713782 57
-22.286148 17.168842 -1.412336 12
-20.753571 17.223833 -1.4356134 24
-19.340097 17.273827 -1.4561323 4
-18.325541 17.610439 -1.502843 55
-21.685764 22.409248 -1.9340702 10
-6.0845685 6.7623434 -0.59176946 0
-8.368351 6.4468246 -0.71756476 0
-21.243591 17.630512 -1.9585273 1
-11.36525 10.151001 -1.1254628 0
-18.847067 18.111616 -2.008985 1
-8.7316875 9.0229959 -1.0012009 0
-6.0206523 6.6913075 -0.74509597 0
-6.0270572 4.6431346 -0.65144688 0
-3.8325248 3.1806948 -0.44151607 0
-16.387346 14.636544 -2.0116055 0
-18.342028 17.626284 -2.4059875 4
-8.4108095 8.6914129 -1.1784394 0
-15.698253 17.446918 -2.3587301 1
-9.6544142 7.4375844 -1.2594142 0
-14.630505 12.142171 -2.0224779 0
-7.4052358 6.6140704 -1.0847631 0
-9.2248659 8.2392931 -1.5706425 0
-10.605573 9.4724874 -2.057483 1
-9.3610096 8.3608923 -2.0404975 1
-8.3717089 7.4772863 -1.9911489 1
-7.5735817 6.7644305 -2.0117774 1
-6.940424 6.1989183 -2.008564 1
-6.3999238 5.7161646 -2.0044408 1
-5.9227247 5.2899485 -1.9952742 1
-4.2774782 3.8204782 -1.981855 3
-0.59989357 0.53580177 -0.37628201 0
-5.920826 5.323658 2.0900471 0
-55.108047 49.549911 10.26365 14
-30.98201 27.857197 3.559432 8
-6.8267288 6.1381922 0.45960253 0
-31.77424 28.569525 1.3831451 9
-29.348986 28.39152 1.2019477 15
-48.871643 50.838409 1.8638579 29
-45.388103 50.781647 1.6027023 44
-33.685104 26.128836 0.87587172 3
-31.316883 26.16641 0.71946007 16
-29.378431 26.415356 0.5785659 11
-22.839775 22.094664 0.37272677 29
-21.610447 22.480127 0.2726725 12
-20.743423 23.208399 0.18145652 17
-28.546608 22.143009 0.10277993 3
-26.567007 22.197714 -0.0030211648 3
-24.693743 22.203157 -0.10084832 2
-22.840937 22.095787 -0.19024916 26
-21.624273 22.494509 -0.27829328 12
-20.71032 23.171362 -0.36994103 56
-28.527788 22.12841 -0.53502315 2
-26.516769 22.155741 -0.61461401 2
-4.4488173 4.0001144 -0.12396201 0
-19.394602 18.761883 -0.63969296 2
-21.614702 22.484554 -0.83032966 9
-20.740017 23.204588 -0.92151541 12
-28.506378 22.111803 -1.1728425 3
-20.709517 17.303566 -0.95844066 0
-19.33746 17.387104 -0.99991208 20
-18.369448 17.770172 -1.0586894 11
-21.612213 22.481964 -1.3828503 15
-20.736553 23.200712 -1.4728912 26
-22.165962 17.193676 -1.4083248 3
-20.60132 17.213163 -1.4290222 26
-19.214399 17.276455 -1.4509742 4
-18.315834 17.718307 -1.5068569 55
-21.603029 22.47241 -1.9333274 9
-8.6875191 9.7198715 -0.84805572 0
-22.385658 17.364088 -1.9244398 1
-21.26462 17.767376 -1.965887 2
-19.162731 17.23 -1.9032695 0
-18.824171 18.210062 -2.01297 2
-17.699108 18.411381 -2.0364218 0
-15.5752 17.426027 -1.9346756 9
-18.066372 14.013709 -1.9577532 0
-17.171286 14.347243 -1.9836434 0
-16.276512 14.634881 -2.0039473 0
-15.492872 14.987441 -2.0387619 0
-6.2905936 6.5437489 -0.88441139 0
-13.847392 15.492901 -2.0883381 0
-15.228945 11.812776 -1.9917083 0
-14.632895 12.226323 -2.0284016 0
-9.2667742 8.3321381 -1.3614928 0
-12.095128 10.875226 -2.0654681 0
-10.5741 9.5076075 -2.057483 1
-9.3537817 8.4103699 -2.0449908 1
-8.3527231 7.5102758 -1.9925462 1
-5.2198334 4.6933665 -1.3906761 0
-6.9198279 6.2219014 -2.008564 1
-6.363553 5.7217317 -1.9989816 1
-5.8993788 5.3043737 -1.9933248 1
-4.2704072 3.8396983 -1.9844679 3
-0.62505537 0.56201297 -0.39323166 0
-54.729172 49.555801 10.225239 15
-30.822548 27.908993 3.5522819 10
-30.727329 27.822777 2.0752115 11
-31.594316 28.607809 1.379651 9
-29.201008 28.446371 1.199947 13
-24.664469 25.836958 0.94408268 3
-45.088448 50.802204 1.5983738 38
-33.631504 26.275812 0.8768577 4
-31.353884 26.383711 0.72242141 4
-29.609217 26.810354 0.58495015 11
-22.705204 22.118439 0.3717885 34
-21.515278 22.538061 0.27246264 12
-20.641039 23.256739 0.18126997 16
-28.330446 22.134172 0.10227923 3
-1.7506548 1.4731436 -0.00019966566 0
-24.533072 22.214041 -0.10050818 4
-22.671978 22.086071 -0.1894829 29
-21.537338 22.561172 -0.27818626 12
-20.616032 23.228563 -0.36970297 73
-28.358969 22.156456 -0.53330439 3
-6.9372501 5.8375669 -0.16126503 0
-22.666018 22.080263 -0.75013196 28
-21.536089 22.559862 -0.83032966 11
-20.61377 23.226013 -0.91950285 49
-12.009243 9.3826494 -0.49544281 0
-20.560291 17.301102 -0.95432347 0
-19.208508 17.39279 -0.99637717 22
-18.333065 17.859287 -1.0601794 0
-21.52257 22.5457 -1.3821416 11
-20.636869 23.252043 -1.4715674 28
-21.973585 17.167648 -1.3999014 3
-20.470819 17.225815 -1.4241319 26
-19.106615 17.300529 -1.447386 2
-18.282471 17.810001 -1.509218 51
-21.518944 22.541903 -1.9328321 11
-5.675405 6.3946109 -0.55619574 0
-22.004137 17.191519 -1.896789 4
-6.0295014 5.0737133 -0.55905354 0
-7.9899211 7.2346601 -0.79607338 0
-18.691923 18.208872 -2.0056133 7
-4.7025962 4.926146 -0.54304582 0
-3.5272944 3.9742846 -0.43986401 0
-18.055029 14.106135 -1.9618481 0
-17.04184 14.340391 -1.9744599 0
-7.6623726 6.9380736 -0.94635904 0
-15.50036 15.099788 -2.0466714 0
-6.2457223 6.5426288 -0.8813082 0
-13.761521 15.505427 -2.0835383 0
-15.197021 11.873215 -1.9929417 0
-14.553609 12.246592 -2.0233243 0
-13.888878 12.576007 -2.0470178 0
-12.060037 10.920041 -2.0659719 0
-10.561392 9.5630579 -2.0614924 1
-7.1176605 6.4448514 -1.5610224 0
-8.3410559 7.5526028 -1.9960395 1
-7.5360885 6.8237267 -2.0141096 1
-6.8980689 6.246017 -2.008564 1
-6.3608675 5.7595954 -2.0044408 1
-3.6205199 3.2782841 -1.2271862 0
-4.2737942 3.8698065 -1.9923065 2
-0.61771852 0.5593276 -0.38984174 0
-54.348129 49.574478 10.187924 13
-30.622885 27.933132 3.5410459 11
-31.457485 28.694426 2.1316118 7
-31.415413 28.65605 1.3764157 11
-29.03948 28.497192 1.1975932 9
-24.50359 25.857533 0.94154626 15
-44.753922 50.79908 1.5931041 36
-7.0859609 5.5781026 0.18528055 0
-31.092232 26.358803 0.71861398 7
-29.487116 26.897125 0.58448154 13
-22.546911 22.125866 0.37052184 34
-21.44903 22.634193 0.2726725 14
-20.555664 23.332232 0.18126997 19
-28.135986 22.148783 0.10186957 4
-26.142036 22.162218 -0.0029907962 3
-24.383522 22.241804 -0.10022879 2
-22.516653 22.096174 -0.18886031 22
-21.446245 22.631256 -0.27807924 11
-20.554556 23.330975 -0.37013146 22
-28.126726 22.141495 -0.53045946 2
-26.147057 22.166473 -0.60970563 3
-22.510733 22.090364 -0.74766725 27
-21.436752 22.621237 -0.82969093 12
-20.525864 23.298405 -0.91938448 50
-28.105537 22.124815 -1.1628349 4
-20.423557 17.31431 -0.95091623 1
-19.070807 17.395729 -0.99253488 24
-18.29031 17.948753 -1.0615036 1
-21.442535 22.62734 -1.3823187 11
-20.540947 23.315527 -1.4708109 35
-21.800652 17.161579 -1.3928818 3
-20.337467 17.241325 -1.4192417 28
-18.913254 17.252014 -1.4375186 20
-18.313974 17.971975 -1.5172458 54
-21.449903 22.635117 -1.9340702 11
-15.346232 17.419132 -1.5101935 2
-21.828094 17.183182 -1.8870299 4
-21.118675 17.903605 -1.9641886 2
-9.3249607 8.5059061 -0.93218958 0
-18.724695 18.375027 -2.0163417 4
-17.536736 18.505726 -2.0329244 0
-4.6669168 5.2973032 -0.58439547 0
-17.953104 14.13277 -1.9563881 0
-20.274542 17.187981 -2.3562829 0
-16.121349 14.705335 -1.9977475 0
-3.3794637 3.316355 -0.44782704 0
-13.807209 15.672225 -2.0991378 0
-15.172163 11.9436 -1.9954088 0
-14.52076 12.310143 -2.0250165 0
-7.4442663 6.7904019 -1.1008368 0
-12.028728 10.972188 -2.0674837 0
-5.793983 5.2850704 -1.1347088 0
-9.2933636 8.4770842 -2.0449908 1
-8.2696724 7.5433083 -1.9855597 1
-7.5313206 6.8698092 -2.019551 1
-6.872242 6.268621 -2.00772 1
-6.319571 5.7644935 -1.9980717 1
-5.8612733 5.3464503 -1.9933248 1
-4.2567892 3.8828955 -1.9910001 2
-0.60763401 0.5542627 -0.38475683 0
-53.96756 49.573593 10.148963 13
-30.466484 27.985943 3.5342362 11
-6.2461228 5.7375717 0.42460236 0
-31.30341 28.754726 1.375898 10
-28.891478 28.550615 1.1955925 2
-24.374821 25.902136 0.94006664 12
-5.400238 6.1729898 0.19299802 0
-32.471176 25.745573 0.85138673 1
-30.802332 26.298372 0.71403098 19
-29.298786 26.913317 0.58260727 12
-22.290302 22.027323 0.36756629 15
-21.345224 22.682707 0.27235773 16
-20.479357 23.40987 0.18131661 26
-27.945662 22.157408 0.10145991 3
-26.012804 22.209175 -0.0029848621 3
-24.208519 22.237494 -0.09982793 2
-22.248758 21.986269 -0.18725595 11
-21.36438 22.703062 -0.27804357 14
-20.478252 23.408607 -0.37022668 19
-6.9919443 5.5437355 -0.13222961 0
-25.993483 22.192678 -0.6079272 3
-22.254288 21.991732 -0.74169499 12
-21.34944 22.687185 -0.82937157 12
-20.47863 23.409039 -0.92092347 17
-27.915354 22.133377 -1.158156 3
-20.314354 17.343962 -0.9486447 3
-18.983471 17.437862 -0.99115169 22
-18.295767 18.079914 -1.0654769 1
-21.35247 22.690405 -1.3816099 14
-20.45417 23.381079 -1.4704326 26
-21.634176 17.153191 -1.3860627 6
-20.195141 17.24218 -1.4135009 29
-18.835266 17.301723 -1.436173 28
-18.273846 18.05825 -1.5191346 188
-21.359823 22.698219 -1.9330797 12
-15.224883 17.403502 -1.5042213 2
-21.736704 17.234482 -1.8843191 3
-11.743324 10.026199 -1.0954618 0
-19.489391 17.90259 -1.9545341 0
-18.617884 18.39823 -2.0117438 2
-15.262803 17.446848 -1.9188366 2
-17.950502 14.232499 -1.9615068 0
-17.081203 14.583567 -1.9910609 0
-18.803972 17.272978 -2.3376346 2
-8.299283 8.2013683 -1.1035603 0
-13.768138 15.738303 -2.1015377 0
-15.20832 12.058291 -2.005688 0
-14.474676 12.358169 -2.0245936 0
-13.737033 12.618582 -2.0378947 0
-11.940673 10.968479 -2.0589173 0
-10.510182 9.6544571 -2.0649292 1
-9.2898827 8.5335121 -2.0507674 0
-8.2925978 7.6174254 -1.9974368 0
-7.5015135 6.8907499 -2.0179963 1
-6.8675938 6.3084435 -2.0127835 1
-6.3166203 5.8023295 -2.003531 2
-5.854002 5.3773766 -1.9972236 1
-4.2487774 3.9028475 -1.9936129 2
-0.61636847 0.56618458 -0.39153668 0
-5.4359999 5.0285048 1.9438047 0
-53.634224 49.613682 10.118783 14
-30.412498 28.132708 3.5393436 10
-31.361971 29.011005 2.1388118 7
-30.803717 28.494598 1.3582982 8
-31.240309 31.088011 1.2972749 14
-24.278791 25.981226 0.93985528 4
-24.189539 27.8465 0.86797357 6
-10.212458 8.1554146 0.26851302 0
-30.50716 26.231041 0.70930701 14
-29.715536 27.487991 0.59279865 7
-22.182095 22.073956 0.36705023 14
-21.26318 22.75416 0.27232274 15
-20.387028 23.469128 0.18122335 17
-27.336796 21.830486 0.099525385 12
-25.831997 22.211184 -0.0029729938 2
-24.048534 22.245802 -0.099487796 1
-22.154869 22.046864 -0.18711227 12
-21.279533 22.771658 -0.27797222 11
-20.391176 23.473904 -0.37013146 25
-27.312027 21.810707 -0.51795363 16
-25.815781 22.197241 -0.60557973 2
-4.6413612 4.2934341 -0.1310053 0
-22.154713 22.046707 -0.74093664 11
-21.272842 22.764498 -0.82947803 11
-20.365334 23.444155 -0.91950285 29
-27.341213 21.834013 -1.1374909 8
-20.177908 17.349615 -0.94509542 1
-18.85207 17.438875 -0.98746312 20
-18.306202 18.216959 -1.0697812 3
-21.259489 22.750208 -1.380724 11
-20.364574 23.443279 -1.4698653 5
-21.489887 17.161291 -1.3806477 17
-20.077282 17.263094 -1.409461 31
-18.721989 17.318546 -1.4321363 25
-18.267309 18.178257 -1.5238569 138
-21.275003 22.766811 -1.9325845 13
-15.114309 17.399282 -1.4992877 2
-21.822985 17.427294 -1.89706 3
-21.011322 18.066214 -1.965887 2
-19.696194 18.219721 -1.9816394 1
-18.465914 18.375893 -2.0022416 0
-4.6553278 4.98176 -0.54368168 0
-15.173057 17.466911 -1.9152068 1
-9.5950079 7.6623354 -1.0513923 0
-9.2548189 8.5610561 -1.1542298 0
-15.347196 15.272378 -2.0478013 0
-14.506942 15.524172 -2.0702209 0
-13.66353 15.729176 -2.0939379 0
-15.175466 12.11875 -2.0069215 0
-11.780404 10.129171 -1.6526775 0
-13.727932 12.698855 -2.043108 0
-11.992617 11.093623 -2.074538 0
-10.517105 9.7287188 -2.0729485 0
-5.984971 5.536324 -1.325457 0
-8.2601767 7.6409745 -1.9960395 1
-7.4860568 6.9248848 -2.0203283 1
-6.8512731 6.3376861 -2.0144715 1
-6.3077669 5.8349223 -2.0071704 2
-5.8351965 5.3977766 -1.9972236 1
-4.2268028 3.9099519 -1.9896936 2
-0.57981247 0.5363484 -0.36950216 0
-53.243221 49.580666 10.075981 15
-4.9350462 4.5955687 0.57610095 0
-29.754055 27.7073 2.0354114 5
-30.940186 28.811838 1.3685216 6
-30.179466 30.232176 1.2573787 5
-24.189787 26.058661 0.9397496 10
-24.068317 27.893267 0.86693847 11
-8.0971699 6.5102944 0.21346292 0
-30.43211 26.342527 0.709589 14
-6.9545627 6.4761648 0.13916507 0
-22.08617 22.124744 0.36667493 14
-21.190334 22.827475 0.27235773 16
-20.306469 23.533583 0.18120003 17
-27.173841 21.848339 0.099195376 24
-25.600939 22.160587 -0.0029548423 2
-23.834118 22.19459 -0.098904721 1
-22.078815 22.117376 -0.18708833 12
-21.209349 22.84796 -0.27804357 11
-20.3106 23.538372 -0.37008384 28
-27.1772 21.85104 -0.51676828 22
-25.58177 22.143995 -0.60180956 2
-23.861305 22.219908 -0.67557633 0
-22.081486 22.12005 -0.74093664 13
-21.189079 22.826122 -0.82915866 10
-20.295305 23.520645 -0.91985798 23
-21.264688 17.097256 -0.88704014 1
-20.087021 17.38765 -0.94353378 2
-18.726852 17.43865 -0.9839282 20
-18.293695 18.325645 -1.0725955 1
-21.189371 22.826437 -1.3810784 12
-14.977504 17.357737 -1.0851887 1
-21.358133 17.172386 -1.3758342 18
-19.932348 17.253763 -1.403295 28
-18.611841 17.331551 -1.4280995 25
-18.294384 18.326336 -1.5311762 93
-21.191244 22.828455 -1.9318417 13
-15.006976 17.391893 -1.4943541 1
-12.957026 10.417721 -1.1293445 0
-20.978453 18.159288 -1.9684346 2
-19.699888 18.344749 -1.9881212 1
-18.45278 18.485006 -2.0074525 0
-17.426632 18.772993 -2.0424626 0
-13.010814 15.0785 -1.6485826 0
-12.402203 9.9716311 -1.3626126 0
-17.005642 14.72036 -1.9938866 0
-18.62183 17.340851 -2.3296113 1
-4.5295782 4.5374889 -0.60639322 0
-7.3428049 7.9101014 -1.0515962 0
-13.647691 15.816588 -2.0995378 0
-9.4172449 7.5716629 -1.2487237 0
-14.471421 12.526697 -2.0360177 0
-13.642093 12.703666 -2.0365915 0
-11.984799 11.160376 -2.079577 0
-10.493475 9.7716379 -2.0746667 0
-9.2229137 8.5884781 -2.048842 1
-8.2636137 7.6951671 -2.003026 1
-7.483151 6.9683919 -2.0257697 1
-6.8216329 6.3523788 -2.0119398 1
-6.2883816 5.8558092 -2.0071704 1
-5.814424 5.4144549 -1.996249 1
-4.1999788 3.9110658 -1.9831614 1
-0.59659123 0.55555224 -0.38136691 0
-52.890656 49.615532 10.043605 12
-30.540909 28.649738 3.5774779 11
-29.238571 27.428043 2.0070112 0
-30.3941 28.51202 1.3489805 11
-30.445574 30.723152 1.2731489 6
-24.064312 26.11479 0.93858707 7
-43.540836 50.835865 1.575037 36
-32.028885 25.945734 0.84686768 11
-30.314247 26.435497 0.70909548 16
-10.661617 10.001423 0.21407758 0
-21.996481 22.197027 0.3665342 14
-21.10924 22.907923 0.27239269 19
-20.225288 23.613924 0.18124665 22
-26.969261 21.847069 0.098740198 27
-25.429098 22.175409 -0.0029443703 3
-23.668013 22.202429 -0.098552443 1
-21.975075 22.175426 -0.18689676 12
-21.101074 22.899061 -0.27772251 12
-20.216393 23.603539 -0.36994103 26
-26.96641 21.844759 -0.51427895 22
-25.446177 22.190302 -0.60052907 2
-23.473457 22.019922 -0.66687584 3
-21.991816 22.19232 -0.7406522 12
-21.113409 22.912445 -0.82947803 8
-20.172556 23.552357 -0.91820061 86
-21.124222 17.112162 -0.88379091 1
-19.929756 17.379715 -0.93913269 1
-18.619087 17.466146 -0.98162287 18
-18.336115 18.50329 -1.079052 1
-21.097446 22.895124 -1.3805468 10
-14.799427 17.27899 -1.0768673 0
-21.208134 17.180138 -1.3702186 23
-19.790699 17.258451 -1.3977669 26
-18.521984 17.375055 -1.4260812 29
-18.311409 18.478357 -1.5382596 48
-21.096617 22.894222 -1.9308513 11
-14.898995 17.395239 -1.4899399 1
-22.023291 17.840473 -1.925253 6
-2.3094943 2.0139911 -0.21739398 0
-19.655796 18.43866 -1.9904782 1
-18.435432 18.603512 -2.01297 0
-17.506323 18.998007 -2.0599494 0
-7.2141924 8.4228907 -0.9180057 0
-17.958418 14.547629 -1.9789107 0
-16.963583 14.793069 -1.9952995 0
-18.508762 17.362654 -2.3234117 0
-15.268232 15.407435 -2.0515676 0
-14.43059 15.660195 -2.0748756 0
-13.587043 15.863478 -2.0991378 0
-15.14305 12.266975 -2.0139115 0
-19.722519 17.198996 -2.7836573 2
-5.3969965 5.0628009 -0.80846775 0
-11.978545 11.236803 -2.0856237 0
-10.500899 9.8506575 -2.0832589 0
-9.22017 8.6492338 -2.0552607 0
-8.2296114 7.7200127 -2.0016286 1
-7.460423 6.998455 -2.0265472 1
-6.8154159 6.3933878 -2.0170033 1
-6.2839227 5.8948064 -2.0126295 1
-5.8030291 5.4436908 -1.999173 1
-4.1966457 3.9367785 -1.9883871 1
-0.58662373 0.55029851 -0.37628201 0
-5.910264 5.5832009 1.1260164 0
-30.597157 28.903967 3.5958641 7
-30.603407 28.909872 2.1076117 16
-30.085135 28.42028 1.3396629 13
-5.2779074 5.3633409 0.22148885 0
-23.959505 26.183889 0.93805861 12
-43.238754 50.841331 1.5705203 37
-27.116566 22.123623 0.71902001 2
-30.302927 26.6124 0.71099919 14
-29.242884 27.624638 0.58910871 7
-21.913258 22.267969 0.36644036 16
-21.018341 22.969669 0.2722528 17
-20.134954 23.675243 0.18117671 24
-26.90213 21.948671 0.098774336 35
-25.270391 22.192764 -0.0029349455 5
-23.543839 22.240967 -0.09835808 3
-21.90876 22.263399 -0.18699254 12
-21.015608 22.966684 -0.27765116 12
-20.157192 23.701389 -0.37036952 24
-26.917877 21.961519 -0.51481235 33
-25.28142 22.202452 -0.59846616 3
-23.317953 22.027582 -0.66463852 17
-21.919828 22.274647 -0.74084181 14
-20.984707 22.932915 -0.82756186 30
-20.110935 23.646999 -0.91914767 51
-21.191362 17.289421 -0.88911968 0
-19.787872 17.377951 -0.93529952 2
-18.511513 17.48712 -0.97916383 21
-18.397564 18.695366 -1.0865017 2
-20.982325 22.930309 -1.3782432 48
-8.2340736 9.6818533 -0.60160083 0
-21.083029 17.201035 -1.3660069 23
-19.670315 17.27471 -1.3935145 26
-18.429281 17.409439 -1.4236143 53
-18.316816 18.613312 -1.5441624 32
-21.00309 22.953005 -1.9296132 8
-14.783874 17.383291 -1.4844869 1
-22.035091 17.977795 -1.9317591 3
-20.886944 18.343168 -1.9721144 6
-19.565212 18.48251 -1.9878265 1
-10.067765 10.230733 -1.1031946 0
-17.421055 19.038414 -2.0577238 0
-5.4182582 6.3709393 -0.69229907 0
-9.3629274 7.6389418 -1.0346709 0
-16.983696 14.915289 -2.0037766 0
-3.4979174 3.3043492 -0.44054016 0
-15.21436 15.460636 -2.0515676 0
-14.249518 15.572435 -2.0566444 0
-13.523847 15.901716 -2.0979378 0
-15.00148 12.239275 -2.0007539 0
