# .PCD v0.7 - Point Cloud Data file format
VERSION 0.7
FIELDS x y z intensity
SIZE 4 4 4 4
TYPE F F F F
COUNT 1 1 1 1
WIDTH 1404
HEIGHT 1
VIEWPOINT 0 0 0 1 0 0 0
POINTS 1404
DATA ascii
-18.715048 2.663547 -1.7879183 0
-18.393316 3.3028479 -1.8208013 0
-17.944696 3.8994548 -1.8455453 0
-8.9516363 0.28913596 -0.92554402 0
-16.753767 1.1509733 -1.7863811 0
-16.363655 1.7227751 -1.7976569 0
-14.333049 1.5089916 -1.8301487 0
-12.716565 1.3388073 -1.8501308 1
-11.410306 1.2012837 -1.8652678 0
-10.364029 1.091131 -1.8486246 1
-9.4705734 0.99706751 -1.8866245 1
-8.7296104 0.9190585 -1.8946328 1
-8.0767355 0.85032338 -1.8970762 0
-7.5271482 0.79246253 -1.9017 1
-86.115845 9.0663261 -29.922483 11
-4.3266087 0.47078484 0.37180981 0
-103.35548 11.246267 3.3653338 2
-94.660576 13.809471 2.8158035 4
-92.704674 16.981049 2.4909916 9
-97.274055 21.493879 2.3442061 4
-14.492892 1.5769936 0.21349186 0
-118.60036 17.301905 1.4058062 13
-100.61015 18.429123 0.89440501 40
-13.59191 3.0032969 0.08114478 0
-9.7936888 0.35055807 0.027879853 0
-5.5694995 0.40215775 -0.00048729591 0
-9.6191778 1.0466774 -0.029384736 0
-20.29283 2.9604008 -0.12276998 0
-81.107269 14.856709 -0.73542064 41
-16.598421 3.6676219 -0.20234869 0
-7.1562338 0.51673132 -0.12761776 0
-118.65435 17.30978 -2.8425953 4
-48.420937 8.8694372 -1.310537 6
-45.408314 10.033516 -1.3769457 13
-12.350565 1.8017508 -0.51701123 0
-38.265121 7.00916 -1.725019 0
-36.778683 8.1266947 -1.7828641 0
-31.843481 1.1398146 -1.599658 0
-31.031162 2.2406721 -1.6561009 0
-30.047031 3.2694628 -1.6972138 0
-29.00182 4.2309036 -1.7330507 0
-9.6407652 1.7659338 -0.60787892 0
-27.220486 6.0146956 -1.8134786 0
-24.806911 0.88794565 -1.6861552 1
-14.131597 1.0204024 -1.0051641 0
-23.544519 2.5619149 -1.7491813 0
-22.873707 3.3369098 -1.7766368 0
-22.21471 4.0691485 -1.8008263 0
-21.525385 4.7562943 -1.8247921 0
-8.7822208 0.31435332 -0.75245696 0
-19.846296 1.4330446 -1.763945 0
-6.4943461 0.70665962 -0.59808433 0
-8.1095848 1.1830592 -0.77512872 0
-18.38559 3.3677545 -1.8211892 0
-17.997042 3.9766641 -1.8523451 0
-17.177465 0.61485505 -1.776255 0
-16.805187 1.2134547 -1.7923048 0
-16.3694 1.7811792 -1.7989602 0
-14.363197 1.5628812 -1.8346838 0
-12.711814 1.3831918 -1.8501308 0
-11.433517 1.2440983 -1.8697608 0
-8.4651012 0.9211005 -1.5104786 0
-9.4748373 1.0309714 -1.8881791 0
-8.7263489 0.94952726 -1.8946328 1
-8.1008244 0.88146299 -1.9034454 1
-7.5474753 0.82125223 -1.9075484 1
-5.4695425 0.61447382 0.47021005 0
-3.7874007 0.42549419 0.19080105 0
-103.29573 11.604723 3.3646867 10
-11.467617 1.7138484 0.34129524 0
-4.7796402 0.89275783 0.12851277 0
-95.196877 21.38372 2.2959332 1
-94.614426 7.1639376 1.6727941 15
-3.0604169 0.34382147 0.045099791 0
-3.6867974 0.55099607 0.043723267 0
-99.401047 18.566473 0.88422698 2
-85.059021 19.106491 0.50820416 7
-131.59393 5.1703434 0.37465969 7
-94.633118 7.1653528 -0.0082819359 12
-13.491066 1.5156491 -0.041228522 0
-92.807579 13.870198 -0.56176782 15
-81.133553 15.154408 -0.73613411 37
-18.087971 4.0630336 -0.2206791 0
-10.582672 0.41579461 -0.15694487 0
-92.822723 13.872461 -2.2248955 2
-47.599632 8.8908253 -1.28914 23
-45.39642 10.197229 -1.3776561 10
-4.1545978 0.16323471 -0.13516803 0
-43.097385 3.2632124 -1.5349815 0
-14.450975 2.1597147 -0.60524917 0
-38.216854 7.1382771 -1.7239558 0
-31.82733 1.2505001 -1.5990564 0
-11.247835 0.85165435 -0.6004402 0
-11.418069 1.282759 -0.64520139 0
-28.872347 4.3150048 -1.7262034 1
-27.31616 6.1359277 -1.8212684 1
-9.4070473 0.36960417 -0.63949198 0
-24.098276 1.8246536 -1.7145252 1
-23.527506 2.6431892 -1.748592 0
-8.5870247 1.2833406 -0.66731167 0
-12.154547 2.2702687 -0.98593968 0
-21.625334 4.8576183 -1.8346915 0
-91.064262 3.5779274 -7.8033714 255
-19.825279 1.5011142 -1.7625322 0
-19.293432 2.1675138 -1.7774775 0
-18.566025 2.7747135 -1.7754892 0
-18.405029 3.4377553 -1.8242924 0
-18.018 4.0473166 -1.855945 0
-11.708565 0.46003109 -1.2108961 0
-16.824646 1.2739148 -1.7948434 0
-16.319616 1.8334215 -1.7941815 0
-14.357654 1.6130055 -1.8346838 1
-12.702973 1.427111 -1.849558 0
-11.413411 1.2822356 -1.8671933 1
-10.356158 1.1634589 -1.8486246 0
-9.4828777 1.0653505 -1.8905112 1
-8.71521 0.9791072 -1.8929449 1
-8.1131802 0.91147244 -1.9070848 1
-7.5329971 0.8462919 -1.9046242 1
-3.3205345 0.38478696 0.87745416 0
-6.6555114 0.77124757 0.92792088 0
-6.6273484 0.76798397 0.56997222 0
-112.42989 13.028492 5.6662312 3
-8.5383606 0.98943406 0.27823371 0
-18.08556 2.7674778 0.53854036 0
-104.95326 19.982952 2.8237932 8
-102.56406 23.41494 2.475569 4
-126.38567 5.4075961 2.5990219 7
-90.892998 7.201323 1.6074334 22
-12.642036 1.4649723 0.18637341 0
-6.2508054 0.95650709 0.074170046 0
-97.040939 18.476456 0.863801 35
-84.785133 19.356085 0.50696832 7
-5.9785061 0.25579914 0.017023779 0
-89.36396 7.0801797 -0.007822915 1
-140.12962 16.238367 -0.4284049 9
-90.552322 13.856444 -0.54840606 11
-8.3992891 1.917522 -0.10255507 1
-8.8707218 1.0279484 -0.18503152 0
-4.5774179 0.70044297 -0.10977541 0
-46.884827 8.9268045 -1.2706172 12
-45.430714 10.371638 -1.379787 12
-6.5712519 0.52063096 -0.23410882 0
-7.4128795 0.85901213 -0.28694063 0
-9.0784512 1.3891973 -0.38043284 0
-36.923607 8.4295025 -1.7926985 0
-31.826763 1.3617548 -1.5992569 0
-30.947073 2.4518926 -1.6524863 0
-30.190094 3.4984593 -1.7066327 0
-29.287344 4.4815907 -1.7519395 1
-28.159058 5.3614445 -1.7778292 0
-27.263445 6.2241282 -1.8191911 1
-24.867889 1.0640092 -1.6907636 1
-24.091763 1.908756 -1.7145252 0
-23.625126 2.737704 -1.7565469 0
-22.845913 3.4959137 -1.7763302 0
-22.221014 4.2308493 -1.8036878 0
-21.790907 4.974771 -1.8502007 0
-91.051224 3.8957601 -7.8033714 255
-19.780201 1.5671573 -1.7590001 0
-19.285748 2.2348523 -1.7774775 0
-18.89476 2.8913028 -1.8078804 0
-18.373362 3.4982619 -1.8223529 0
-17.984364 4.1057534 -1.853945 0
-17.152878 0.73391104 -1.7741992 0
-14.215004 1.1262345 -1.5168585 0
-16.321018 1.8912964 -1.7950504 0
-14.332227 1.6608332 -1.8321643 0
-9.2609444 1.0731678 -1.3489344 0
-11.428475 1.3243436 -1.8704027 0
-10.355946 1.2000577 -1.8493233 1
-9.4829988 1.0988997 -1.8912885 1
-8.7156229 1.0099754 -1.8937888 1
-8.0519114 0.93306375 -1.8934368 1
-7.5030217 0.8694579 -1.897801 1
-21.144197 2.5250359 1.8192123 0
-92.525879 11.049422 4.6650257 8
-93.875465 11.210589 3.060312 10
-86.62632 13.565335 2.5808983 19
-104.87109 20.346876 2.8234761 7
-13.766546 3.1934474 0.33254755 0
-5.1573892 0.23870623 0.10607415 0
-113.13195 13.510195 1.6685165 2
-8.203454 1.2846282 0.097392164 0
-97.015121 18.822678 0.86415076 19
-84.475464 19.595905 0.50552267 7
-12.326753 0.57053536 0.035105854 0
-89.25499 7.3851295 -0.0078155845 5
-136.5849 16.310942 -0.41773942 16
-90.527115 14.176184 -0.54854977 3
-84.494293 19.600273 -1.0325021 10
-8.914731 1.0645955 -0.18602587 0
-111.37107 17.440264 -2.6723392 1
-46.158592 8.955596 -1.2517751 13
-45.846031 10.634975 -1.3935198 5
-45.027981 2.0840895 -1.4654033 0
-5.8381729 0.69719344 -0.22607911 0
-40.001781 6.2641187 -1.6771824 0
-38.499538 7.4696026 -1.7390176 0
-9.5008068 2.203917 -0.46164966 0
-9.9567881 0.46084315 -0.50039452 0
-31.085613 2.5720835 -1.6603532 0
-30.185631 3.6047618 -1.7070813 0
-27.354311 6.3454227 -1.8267213 0
-4.8117485 0.22270849 -0.32720086 0
-24.172434 2.0000737 -1.7207526 1
-23.635233 2.8225145 -1.75802 0
-22.280485 4.3228145 -1.8097287 0
-9.3081608 2.1592286 -0.79096323 0
-19.770639 1.6358608 -1.7586468 0
-19.309471 2.3059332 -1.7803949 0
-18.782259 2.9412267 -1.7980877 0
-13.194311 2.5599334 -1.3095495 0
-18.000937 4.1757054 -1.857145 0
-17.134312 0.79304987 -1.7725545 0
-11.681946 0.96658671 -1.2469127 0
-16.34985 1.9524958 -1.7989602 0
-14.334224 1.7117901 -1.8331721 1
-12.673047 1.5134127 -1.8466941 1
-11.431623 1.3651623 -1.8716863 0
-10.367337 1.2380652 -1.8521179 1
-9.4868975 1.1329235 -1.8928432 1
-8.7042799 1.0394634 -1.8921009 1
-8.0563402 0.9620865 -1.8952565 1
-7.5230541 0.89840162 -1.9036494 1
-91.410194 11.223742 4.6106253 4
-92.143394 11.313767 3.0050535 2
-86.572968 13.851244 2.5806627 14
-104.68928 20.672096 2.8204112 1
-94.010193 22.136454 2.2726905 7
-13.420661 0.66577035 0.27607214 0
-86.618156 7.4562612 1.5326954 11
-4.3468862 0.53372961 0.064135417 0
-111.43893 17.829674 1.3237078 15
-7.0790348 1.3978364 0.063096613 0
-12.198181 2.8722892 0.073053621 0
-117.55496 5.8316512 0.33484271 8
-86.611694 7.4557047 -0.0075862478 23
-108.05602 13.267589 -0.33061776 8
-110.80869 17.72884 -0.67179865 4
-75.067474 14.822932 -0.68244463 6
-72.25856 17.014624 -0.8836686 1
-111.34026 17.813889 -2.6730027 1
-45.791275 9.0420122 -1.2426202 14
-84.172096 19.819889 -2.5604491 3
-4.8834114 0.24225563 -0.1589524 0
-6.5994177 0.56809086 -0.23524457 0
-10.386269 1.2752712 -0.40236241 0
-38.572563 7.6165943 -1.7434475 0
-2.824964 0.14014044 -0.14199573 0
-31.120687 2.67893 -1.6626921 0
-6.6516361 1.0642287 -0.39831832 0
-28.290331 5.5862498 -1.7884763 0
-27.340889 6.437922 -1.8272407 1
-24.872028 1.2338483 -1.6915768 1
-6.0702376 0.52253801 -0.43224037 0
-23.64554 2.9033022 -1.7594931 0
-22.971237 3.6752837 -1.7879784 0
-22.301231 4.4036336 -1.8125902 0
-21.814741 5.1366873 -1.8551503 0
-20.396194 1.0118117 -1.7485667 0
-12.834021 1.1047777 -1.1419371 0
-6.7014365 0.82283151 -0.61814201 0
-18.792065 3.0066369 -1.7999709 0
-10.275979 2.0291097 -1.0205642 0
-18.010235 4.2408452 -1.8595449 0
-8.7545547 0.43429482 -0.90580785 0
-12.154225 1.0462595 -1.2976862 0
-16.331446 2.0052459 -1.7976569 0
-14.340283 1.7607625 -1.8346838 0
-12.711182 1.5607342 -1.8529948 1
-11.430953 1.4035422 -1.8723283 0
-10.363174 1.2724357 -1.8521179 1
-9.4558268 1.1610276 -1.8874018 1
-8.7124281 1.0697498 -1.8946328 1
-8.0608377 0.98974478 -1.8970762 1
-7.5238838 0.92381519 -1.9046242 1
-91.774727 11.59385 4.6310258 9
-94.284851 11.910953 3.0762296 2
-86.216316 14.102993 2.5714831 10
-93.702888 22.409622 2.2671387 8
-6.8608813 0.36436775 0.14115831 0
-129.24608 11.580365 2.2876914 2
-164.39165 20.767504 2.4265444 10
-87.885834 14.376087 1.0445262 9
-93.41436 18.784742 0.83319706 36
-83.947205 20.076492 0.50316757 8
-110.49583 5.8682137 0.31479198 6
-165.34961 14.815217 -0.01448728 15
-6.2185464 0.78558546 -0.01903509 0
-87.819252 14.365196 -0.53272164 19
-74.897636 15.061205 -0.68137443 23
-55.417183 13.253361 -0.67827278 0
-5.9749231 0.31731626 -0.088666745 0
-11.442579 1.4455346 -0.23897488 0
-8.8163176 1.4421453 -0.21177743 0
-45.441906 9.1379366 -1.2339976 17
-83.853523 20.054087 -2.5528724 1
-45.048683 2.3924458 -1.4665731 0
-42.260639 5.3387628 -1.6378824 0
-38.737705 7.7897854 -1.7521303 0
-31.930733 1.6957775 -1.6052737 0
-31.154911 2.7914598 -1.6650308 0
-30.334732 3.8321695 -1.7169489 0
-6.6281776 1.0842164 -0.39713776 0
-28.27066 5.6849613 -1.7884763 1
-27.392008 6.5509672 -1.8321743 0
-24.831703 1.3187623 -1.6891371 1
-5.9968443 0.53731334 -0.42714521 0
-23.631304 2.9853294 -1.7591984 0
-22.981884 3.7593038 -1.7898176 0
-22.363907 4.4971695 -1.818949 0
-21.78117 5.2091007 -1.8538305 0
-20.388559 1.0827957 -1.7482255 0
-19.814606 1.7753757 -1.7635919 0
-19.245905 2.4313242 -1.7760187 0
-19.017256 3.1107826 -1.8225695 0
-18.344172 3.688839 -1.8231287 0
-17.983707 4.3009143 -1.8583449 0
-17.164276 0.91156054 -1.776255 0
-16.829254 1.5078901 -1.7973821 0
-16.355907 2.0662324 -1.8011323 0
-14.306492 1.8073311 -1.8311565 0
-7.540915 0.95263952 -1.0997682 1
-4.3831592 0.55372202 -0.71825004 0
-10.350855 1.3076177 -1.8507205 1
-9.4828596 1.1979643 -1.8936206 1
-8.7125206 1.1006478 -1.8954767 1
-8.0766563 1.0203195 -1.9016256 1
-7.5321598 0.9515335 -1.9075484 1
-0.68656176 0.086732961 -0.32373813 0
-91.846504 11.945065 4.6368256 7
-90.450485 11.763506 2.9525125 5
-86.680641 14.505366 2.5869002 16
-102.96003 21.097233 2.7778203 3
-93.188805 22.648064 2.2566936 8
-129.20276 12.05403 2.2876914 2
-102.45805 13.325147 1.5130687 5
-86.025803 14.395784 1.0230399 15
-48.137932 9.8638 0.42967954 11
-83.577667 20.312227 0.50139546 18
-12.639587 0.71772683 0.036016218 0
-128.494 11.987906 -0.011261911 8
-102.69466 13.355919 -0.31449807 19
-8.2885962 1.3870355 -0.050310068 0
-48.083 9.8525438 -0.43775633 36
-55.259418 13.429926 -0.67693967 2
-20.241167 1.1493753 -0.30043563 0
-3.3918695 0.56760436 -0.08152578 0
-45.290592 9.2803593 -1.230804 18
-56.016151 13.613838 -1.7068871 1
-45.275108 2.5709035 -1.4742413 0
-7.7295389 0.72113085 -0.27570608 0
-36.969261 8.9847927 -1.8008308 0
-10.142866 0.57595295 -0.51002139 0
-31.363209 2.9260447 -1.676725 0
-18.352289 2.3868005 -1.0392295 0
-29.34794 4.9111614 -1.759495 0
-28.351318 5.8093839 -1.7949142 1
-14.269586 3.4679966 -0.95529604 0
-24.870531 1.4122493 -1.692119 1
-7.3495312 0.68567783 -0.52367038 0
-23.639982 3.0744896 -1.7606716 0
-22.971884 3.8441753 -1.7901241 0
-22.265244 4.5623045 -1.8122723 0
-21.858772 5.3124285 -1.86208 0
-9.3068972 0.52848327 -0.79818451 0
-19.768291 1.8442917 -1.7600597 0
-19.276365 2.5069809 -1.7796656 0
-18.927174 3.1673229 -1.8150365 0
-18.373428 3.7648444 -1.8273956 0
-17.975559 4.3686748 -1.8591449 0
-5.6209631 0.319181 -0.58180577 0
-16.827572 1.569936 -1.7978052 0
-16.328508 2.1235983 -1.7989602 0
-14.315512 1.8617989 -1.8331721 0
-12.691836 1.6506323 -1.8518492 0
-11.408871 1.4837767 -1.8704027 0
-10.353804 1.3465604 -1.8521179 1
-9.470623 1.2316986 -1.8920659 0
-8.7123041 1.1330756 -1.8963206 1
-8.0805874 1.050918 -1.9034454 1
-7.4939985 0.97462934 -1.8987758 1
-91.590416 12.237051 4.6260257 5
-8.5633821 1.1441213 0.27965721 0
-86.653122 14.811873 2.5876064 19
-48.103912 10.031908 1.298761 17
-93.295532 23.019222 2.2612104 6
-167.91377 22.43433 2.48084 3
-113.52553 19.405252 1.3508706 8
-48.095379 10.030128 0.4296096 12
-83.304306 20.554043 0.50018293 24
-11.271489 0.67952353 0.032124419 0
-158.09676 15.306524 -0.013861055 9
-8.7343473 1.1669633 -0.026760882 0
-83.649246 14.298411 -0.50803351 3
-74.83493 15.606572 -0.68180251 255
-4.9433904 1.2197046 -0.060609385 0
-13.094785 0.78944439 -0.19440302 0
-10.107135 0.97854692 -0.18061399 0
-8.9437323 1.5287786 -0.21509534 0
-45.242264 9.4351215 -1.2303782 20
-9.0873737 2.2421682 -0.27714127 0
-40.280731 6.885304 -1.6927441 0
-38.759212 8.0831022 -1.7556741 0
-32.017471 1.9302351 -1.6102877 0
-2.4093077 0.233263 -0.128848 0
-30.41341 4.0634217 -1.7230039 0
-28.264429 5.8944511 -1.7907048 1
-27.449064 6.7726297 -1.8391851 1
-24.9013 1.5012231 -1.6945589 1
-24.340723 2.3566065 -1.7349058 1
-23.66469 3.1617503 -1.7633232 0
-23.060535 3.9418054 -1.7980938 0
-12.709357 2.6504936 -1.0352207 0
-21.762688 5.3696046 -1.8554803 0
-20.392221 1.2293845 -1.7492492 0
-19.888641 1.9255674 -1.7713625 0
-19.354357 2.5858629 -1.7876886 0
-18.864973 3.2246454 -1.8101403 0
-18.422533 3.8419571 -1.833602 0
-18.006569 4.4428406 -1.8639448 0
-6.7318625 0.40584335 -0.69693339 0
-16.802195 1.6267456 -1.7956896 0
-12.348147 1.6497896 -1.3610582 0
-14.312859 1.9122872 -1.833676 1
-12.697768 1.6965011 -1.8535676 0
-11.427102 1.5267322 -1.8742539 0
-10.356848 1.3837396 -1.8535151 1
-9.4934893 1.2683895 -1.8975073 1
-8.6927938 1.1614115 -1.8929449 1
-8.0691481 1.0780885 -1.9016256 1
-7.5136218 1.0038668 -1.9046242 1
-1.1804127 0.15771051 -0.41152561 0
-91.400703 12.536581 4.6186256 8
-90.279015 12.38273 2.9496655 3
-87.069595 15.196084 2.6016114 14
-45.991589 9.7590256 1.2426423 0
-93.082733 23.311693 2.2580111 6
-148.85397 9.4955168 3.0644829 5
-141.42458 19.397888 2.0904632 3
-104.2371 18.192295 1.2410933 13
-45.911987 9.742136 0.41040778 2
-83.096252 20.810675 0.49936685 8
-103.49323 6.6019182 0.29502574 7
-11.247519 1.1286018 -0.00098646001 0
-124.66819 17.099571 -0.38214734 2
-82.519157 14.401905 -0.50147235 4
-74.815216 15.875155 -0.6821236 79
-54.916 13.753195 -0.67389256 5
-8.7492533 1.5269899 -0.21054506 0
-45.240349 9.5996199 -1.2312298 14
-83.146591 20.82328 -2.5379558 1
-9.4198666 0.60090107 -0.30685741 0
-5.9264841 0.59467697 -0.21153556 0
-42.65284 5.8502917 -1.6554031 0
-38.691669 8.2100449 -1.7539022 0
-37.738937 9.4513617 -1.8414923 0
-32.146095 2.0506258 -1.6171067 1
-31.365864 3.1473227 -1.6780007 0
-30.359478 4.1641259 -1.7207613 0
-28.259306 5.9963856 -1.7916954 1
-27.463978 6.8780942 -1.8417817 0
-24.848116 1.5850818 -1.6913058 1
-24.268827 2.4351897 -1.7303768 1
-23.764172 3.2595096 -1.7715727 0
-23.007349 4.0154271 -1.7950284 1
-22.423977 4.7581782 -1.8278514 0
-3.7006633 0.92679626 -0.31579134 1
-13.288268 0.8476696 -1.1401174 0
-19.802509 1.9870292 -1.7642982 0
-19.412304 2.6626046 -1.7938883 0
-18.884985 3.2959592 -1.8131534 0
-18.389538 3.9021046 -1.8316625 0
-18.029558 4.5153327 -1.8679446 0
-17.197277 1.0970284 -1.7807779 0
-16.808287 1.6865821 -1.7969589 0
-16.317225 2.2380812 -1.7993946 0
-14.310028 1.962773 -1.8341799 1
-12.676082 1.7386597 -1.8512764 1
-11.398234 1.5633894 -1.8704027 0
-10.359758 1.4209514 -1.8549124 1
-9.4501314 1.2961863 -1.8897338 1
-5.3844295 0.73853189 -1.1730689 0
-8.0769129 1.1078347 -1.9043552 1
-7.5023856 1.0290322 -1.9026747 1
-10.452272 1.4708332 1.4618459 0
-87.645638 12.333405 4.4310246 12
-92.214684 12.976357 3.0143712 6
-87.323059 15.554594 2.610791 20
-45.851711 9.8967419 1.2397889 29
-8.014904 2.0370138 0.19459772 0
-148.17749 9.9717922 3.0512543 6
-97.821632 13.765361 1.446649 3
-104.23597 18.56724 1.2418439 2
-45.85033 9.8964434 0.41016296 32
-82.786629 21.040489 0.49794447 7
-15.01398 1.0103848 0.042809799 0
-150.93597 15.677589 -0.013242511 13
-13.53855 1.905131 -0.041520059 0
-8.2499886 1.4695457 -0.050166395 0
-45.865898 9.8998041 -0.41849232 27
-54.794003 13.926072 -0.67298794 5
-4.7487369 0.31957224 -0.070530362 0
-49.187714 8.7616596 -1.1843989 12
-45.2691 9.7709894 -1.232933 255
-82.728516 21.025719 -2.5274193 1
-6.2810593 1.5963514 -0.30675778 0
-32.142727 2.1630855 -1.6173072 0
-31.406336 3.2621489 -1.6807648 0
-29.243797 5.2091093 -1.7564256 1
-28.378689 6.1253233 -1.8006092 0
-27.501699 6.9896455 -1.8459363 0
-11.296359 0.76020277 -0.7690711 0
-24.315739 2.5256548 -1.7343397 1
-23.689444 3.3335545 -1.7668587 0
-11.716476 2.0870206 -0.91467983 0
-4.8836765 1.0541043 -0.39838195 0
-2.6156151 0.66476697 -0.22339679 0
-20.383142 1.3717093 -1.7492492 1
-19.831121 2.0598414 -1.7674772 0
-19.414722 2.7320201 -1.7949823 0
-11.334212 2.0189292 -1.0888712 0
-18.278517 3.9452784 -1.821965 0
-17.982828 4.5703936 -1.8647448 0
-17.229073 1.1594522 -1.7844784 0
-16.861643 1.7514042 -1.8033056 0
-16.329 2.2978003 -1.8015667 0
-14.307017 2.0132689 -1.8346838 0
-12.693455 1.7862101 -1.8547132 0
-11.412255 1.605921 -1.8736119 1
-10.335235 1.4543637 -1.8514192 1
-9.4572058 1.3308084 -1.8920659 1
-8.6922178 1.22316 -1.8946328 1
-8.0652819 1.1349382 -1.9025354 1
-7.510272 1.0568379 -1.9055989 1
-87.032669 12.5571 4.4022245 16
-88.635292 12.788327 2.898807 9
-92.854271 16.874496 2.7779078 8
-8.4752054 1.8602924 0.2293361 0
-92.801552 23.931009 2.255188 5
-10.613307 1.1398587 0.18818493 0
-8.2100973 1.1845553 0.12147658 0
-100.66025 18.293083 1.1999972 7
-87.384285 19.180693 0.78230709 3
-82.534508 21.283417 0.49687186 7
-5.5859933 0.39550975 0.015931344 0
-118.1048 12.68434 -0.01036586 14
-9.6203384 1.3880254 -0.029518358 0
-81.184799 14.75379 -0.49397734 18
-54.667595 14.097294 -0.67203569 12
-12.0647 1.2957369 -0.21582626 0
-7.5482035 1.0890571 -0.15801841 0
-48.393543 8.7946053 -1.1660082 12
-45.336262 9.9512281 -1.2357008 25
-18.084208 4.6634274 -0.5529803 0
-43.999073 4.7254572 -1.5716099 0
-42.488319 6.1302276 -1.6506387 0
-40.56031 7.3710642 -1.7076436 0
-37.443768 9.6557341 -1.8303341 0
-32.162876 2.2772551 -1.6187111 0
-31.4583 3.3785903 -1.6841667 0
-30.551023 4.4079108 -1.73332 0
-29.335436 5.3311567 -1.7630367 0
-28.372734 6.2277641 -1.8015996 0
-27.450077 7.0786319 -1.8441187 0
-24.840427 1.7587976 -1.6915768 1
-24.338511 2.6139321 -1.7366042 1
-23.705303 3.4202082 -1.768921 0
-10.743822 1.9524851 -0.83927393 0
-15.329252 3.3647435 -1.2514217 0
-21.720707 5.6011825 -1.8568002 0
-11.799179 0.83542711 -1.012831 0
-19.811924 2.1277812 -1.7664175 0
-19.330162 2.7889616 -1.7880533 0
-18.943792 3.4426734 -1.8210628 0
-18.381292 4.0346608 -1.833602 0
-17.986034 4.6381111 -1.8667446 0
-17.248734 1.2212765 -1.7869455 0
-16.796103 1.8038849 -1.7969589 0
-8.4772549 1.2231009 -0.93575472 0
-4.072782 0.58762228 -0.52253973 0
-12.655798 1.8259825 -1.8501308 0
-11.410488 1.6463088 -1.8742539 0
-10.34179 1.4921167 -1.8535151 1
-9.4369678 1.3615687 -1.8889564 1
-8.7033749 1.2557255 -1.8980085 1
-8.0766926 1.1653076 -1.906175 1
-7.495019 1.0813836 -1.9026747 1
-9.261467 1.3676165 0.79979968 0
-86.856171 12.825824 4.3954244 15
-88.798058 13.112576 2.9055364 8
-104.95383 19.433088 3.1417992 5
-94.528755 21.077732 2.5597925 4
-87.266556 22.812561 2.1225078 7
-94.668159 7.0184307 1.9503345 16
-12.036175 1.7773504 0.17817345 0
-100.61085 18.628948 1.200138 6
-16.314707 3.6378033 0.14616449 0
-82.281593 21.50943 0.49577594 6
-94.643883 7.0166306 0.26999077 21
-143.75302 15.921279 -0.012621523 22
-118.59341 17.512379 -0.36405975 13
-81.159035 15.027281 -0.49412102 14
-85.368073 19.03511 -0.78008455 4
-54.728901 14.306813 -0.67336881 2
-9.4964228 1.0517706 -0.16994362 0
-11.105165 1.6398708 -0.23259449 0
-47.707466 8.8334408 -1.1501771 15
-45.24057 10.087603 -1.2339976 22
-56.124584 14.671663 -1.7176602 0
-5.9604845 0.44189355 -0.19430403 0
-44.13414 4.8880506 -1.5770047 0
-42.70105 6.305552 -1.6597065 0
-40.649612 7.5266194 -1.7124445 0
-39.256428 8.7532768 -1.7834942 0
-37.527512 9.8101568 -1.8360077 0
-32.214909 2.3883226 -1.6217195 0
-30.45722 4.4975381 -1.7288347 0
-29.400049 5.4436679 -1.767995 0
-28.468824 6.3478909 -1.8090279 0
-27.472794 7.1817293 -1.8472346 1
-24.906096 1.8464677 -1.6964564 1
-24.365402 2.6985755 -1.7391518 1
-23.011839 4.2608366 -1.7987069 1
-22.467192 5.009665 -1.835482 0
-21.810003 5.7014055 -1.8660396 0
-20.33359 1.507475 -1.7458367 0
-19.824562 2.1956575 -1.7681836 0
-19.348391 2.857126 -1.7906061 0
-18.912695 3.5018454 -1.8191797 0
-18.457182 4.1155257 -1.8425237 0
-17.905096 4.680614 -1.8599448 0
-5.3130469 0.39389434 -0.55055684 0
-16.77817 1.858256 -1.7956896 0
-16.348385 2.4141233 -1.8054765 0
-14.277281 2.1082888 -1.8326682 1
-12.649673 1.867944 -1.8501308 1
-11.404965 1.6841414 -1.8742539 0
-10.348474 1.528132 -1.8556111 1
-9.4556904 1.3962971 -1.8936206 1
-8.6682177 1.2800131 -1.891257 1
-8.061223 1.1903797 -1.9034454 1
-7.5029044 1.1079342 -1.9055989 1
-0.81721258 0.12067565 -0.38645181 0
-5.3288217 0.80590856 1.4146917 0
-86.159111 13.030342 4.3624239 14
-3.3086231 0.50038224 0.10831703 0
-105.00715 19.822348 3.1454475 5
-12.611628 2.8583469 0.34178478 0
-8.1558466 2.1624846 0.1985499 0
-90.899147 7.0581565 1.8731823 13
-112.83184 12.895443 2.0021353 4
-92.767036 14.029697 1.3739622 2
-97.314484 18.370193 1.1615752 1
-84.946259 19.252541 0.76163626 8
-9.4183912 2.4972422 0.056801345 0
-90.898018 7.0580692 0.25937366 25
-92.788422 14.032931 -0.28499186 18
-81.161102 15.320897 -0.49445626 8
-84.961731 19.256048 -0.77698088 6
-54.995647 14.581839 -0.67727298 2
-11.519179 1.316516 -0.20622291 0
-5.0099421 0.75768262 -0.10498654 0
-46.925812 8.8582516 -1.1320708 14
-45.306473 10.268431 -1.2367654 14
-55.072067 14.6021 -1.6869982 0
-45.825779 3.55829 -1.4942565 0
-44.398796 5.074296 -1.5870845 0
-7.9476833 1.2019742 -0.30907211 0
-39.14769 8.8725805 -1.7799503 0
-37.176346 9.8571339 -1.8204997 0
-32.278069 2.5063345 -1.6253296 0
-25.465935 2.9104774 -1.3643855 0
-30.650621 4.6354713 -1.7407206 0
-29.463266 5.5618224 -1.7729534 1
-28.497108 6.4586926 -1.8122468 1
-27.459131 7.2806602 -1.8480136 1
-24.899498 1.9334016 -1.6964564 1
-24.395475 2.7881355 -1.7419825 1
-23.803745 3.5999782 -1.7780544 0
-23.032095 4.3478012 -1.8014656 0
-22.5429 5.1092076 -1.8431127 0
-21.782261 5.7754645 -1.8653797 0
-20.336151 1.5790658 -1.7465192 0
-19.848444 2.2684598 -1.7710093 1
-19.377684 2.9305997 -1.794253 0
-18.931662 3.5737565 -1.8221928 0
-18.532005 4.2001638 -1.8514454 0
-17.896341 4.745131 -1.8607448 0
-12.745555 0.98966962 -1.3210897 0
-16.783436 1.9181628 -1.7969589 0
-16.347721 2.4723606 -1.8063455 0
-14.285528 2.1604834 -1.8346838 1
-12.686131 1.9185972 -1.8564316 0
-11.402922 1.72453 -1.8748957 0
-10.339182 1.5636544 -1.8549124 1
-9.4391203 1.4275329 -1.8912885 1
-8.6984911 1.3155233 -1.8988525 1
-8.0608702 1.2190921 -1.9043552 1
-7.4798121 1.1312153 -1.9007252 1
-86.010468 13.315106 4.357224 17
-86.547195 13.398196 2.834878 19
-104.50543 20.105658 3.1325018 4
-10.462344 2.4096551 0.2837638 0
-86.877327 23.35998 2.116956 12
-93.02243 7.5497637 1.9174689 2
-110.49434 13.019216 1.9614524 3
-122.17937 18.914341 1.8105515 3
-97.049454 18.671213 1.1591825 12
-84.671944 19.501385 0.75978255 9
-81.662033 21.957666 0.49295455 19
-93.001823 7.5480909 0.26545033 6
-10.662242 1.2562999 -0.0009368927 0
-90.620132 14.028719 -0.2784808 5
-84.625038 19.490582 -0.77451938 6
-53.063362 14.267923 -0.65408617 4
-85.565224 6.9445314 -1.2721543 0
-12.364498 1.4568715 -0.22144599 0
-46.250603 8.8980904 -1.116524 16
-45.340488 10.442683 -1.2386814 10
-54.951263 14.775551 -1.6848674 1
-10.770875 0.8741715 -0.35130689 0
-44.376842 5.2287898 -1.5869426 0
-42.778442 6.6224442 -1.6644709 0
-39.167099 9.0208473 -1.7822539 0
-5.193512 1.3964556 -0.25455979 0
-32.277084 2.6196301 -1.6257306 0
-31.620188 3.7257116 -1.6947978 0
-30.697403 4.752203 -1.7443088 0
-29.349566 5.646523 -1.7672867 1
-28.443264 6.5509658 -1.8102659 0
-27.549189 7.4075537 -1.8558035 1
-24.928396 2.0232055 -1.6988962 1
-24.429182 2.878417 -1.7450962 0
-7.9040637 1.2236121 -0.59072065 0
-22.96195 4.4176183 -1.7971742 0
-22.497725 5.1816072 -1.8408871 0
-10.240021 2.7533844 -0.87774813 0
-20.334486 1.6503607 -1.7468604 0
-19.860189 2.3400664 -1.7727754 1
-19.497242 3.0183287 -1.8062876 0
-18.895609 3.6353004 -1.8199329 0
-18.50947 4.2630448 -1.8506696 0
-17.941164 4.8241034 -1.8671447 0
-17.22731 1.3981802 -1.7861232 0
-16.784538 1.9776716 -1.7978052 0
-5.7096095 0.88389313 -0.63122171 0
-14.293587 2.2127614 -1.8366994 1
-12.679358 1.9628658 -1.8564316 0
-11.416342 1.7673408 -1.878105 0
-10.337554 1.6003358 -1.8556111 1
-9.445713 1.4622718 -1.8936206 1
-8.6706638 1.3422879 -1.8937888 1
-8.0604153 1.2478166 -1.9052651 1
-7.4949875 1.1602839 -1.9055989 1
-48.16597 7.6287436 4.1661768 0
-86.212036 13.654652 4.3698239 15
-86.570969 13.711502 2.8372073 17
-104.19528 20.423391 3.1253228 5
-7.5571547 1.7683403 0.20513427 0
-7.60042 2.0721138 0.18537597 0
-86.659531 7.3379478 1.7868276 4
-8.3057518 1.0080472 0.14750201 0
-11.704826 1.8538632 0.17354633 0
-4.710042 0.92321879 0.056296051 0
-6.2431149 1.460861 0.056066446 0
-81.411232 22.195265 0.49190524 25
-5.4963093 0.46540329 0.015692374 0
-10.641909 1.2915804 -0.00093549647 0
-9.224966 1.4610919 -0.028364347 0
-8.7218714 1.7095803 -0.053207509 0
-84.381233 19.744831 -0.77291405 7
-52.68523 14.363653 -0.6500392 15
-14.211577 1.2033739 -0.21135402 0
-5.4311199 0.86020535 -0.11393566 0
-8.1544933 1.5983682 -0.19698903 0
-45.80212 10.717491 -1.2523074 4
-11.711244 3.1928537 -0.35941944 0
-44.326576 5.3797998 -1.5858068 0
-5.6256661 0.89101839 -0.21900932 0
-13.451083 3.1474931 -0.61257225 0
-32.442898 2.747122 -1.6345553 0
-31.559406 3.8302822 -1.6922463 0
-30.59779 4.8462162 -1.7395992 0
-10.497557 2.0576336 -0.63253987 0
-28.326929 6.6283746 -1.8043233 1
-14.514454 3.9570971 -0.97866565 0
-14.928055 1.264042 -1.017657 0
-24.478399 2.9708788 -1.7493422 1
-23.837132 3.7754326 -1.7824738 0
-22.938564 4.4962044 -1.7965611 0
-22.526091 5.2710047 -1.8447024 0
-21.860636 5.9598975 -1.8756092 0
-20.265062 1.7159563 -1.7414005 0
-19.812346 2.4045722 -1.7692432 0
-19.533796 3.0938509 -1.8106638 0
-10.340211 2.0267923 -0.99659407 0
-18.502232 4.3294392 -1.8514454 0
-18.085487 4.9306731 -1.8839442 0
-17.218361 1.4579751 -1.785712 0
-16.749895 2.0328906 -1.7948434 0
-8.2592888 1.3081434 -0.91359895 0
-14.281856 2.2620246 -1.8361955 1
-12.660698 2.0052586 -1.8547132 0
-11.410102 1.8071835 -1.878105 0
-10.324123 1.6351813 -1.8542138 1
-7.3943229 1.1711463 -1.4831806 0
-8.6890955 1.3762182 -1.8988525 1
-8.0329266 1.2722912 -1.8998059 1
-7.4947228 1.1870481 -1.9065737 1
-0.95188814 0.15076435 -0.45086044 0
-47.661655 7.728034 4.1249781 0
-86.196907 13.976279 4.371624 13
-8.9266806 1.4474044 0.29272774 0
-104.0217 20.785591 3.1223807 6
-101.02895 24.031254 2.744741 3
-86.364922 23.886189 2.1085811 3
-86.65197 7.6572628 1.7872384 2
-107.99744 13.509236 1.9187952 1
-87.965607 14.263062 1.3050239 1
-21.19943 4.2360654 0.2535668 0
-6.7085633 1.5957325 0.060298536 0
-81.159706 22.446568 0.4908793 25
-165.35895 14.612442 0.47226194 23
-132.96776 16.632734 -0.011694055 21
-87.93911 14.258766 -0.27054849 6
-74.94899 14.97629 -0.45755583 15
-84.016449 19.984573 -0.77023852 26
-52.478031 14.513997 -0.64813477 76
-17.183146 1.5184406 -0.25562811 0
-12.945053 1.6192771 -0.23204523 0
-87.691681 14.218647 -1.8407032 0
-45.468136 9.0854321 -1.099176 27
-18.508736 5.1190133 -0.56860721 0
-23.874771 2.9864588 -0.85451847 0
-42.84832 6.9475822 -1.6690816 0
-41.21323 8.235218 -1.740919 0
-37.820236 10.46005 -1.8573786 0
-32.559956 2.8772585 -1.6409732 0
-31.588753 3.9513891 -1.6945851 0
-29.468948 5.8884783 -1.7769673 0
-28.508293 6.7811255 -1.8174466 1
-27.649364 7.6470628 -1.86619 0
-24.889429 2.1994295 -1.6972697 1
-24.49506 3.06405 -1.7513237 0
-23.819197 3.8621309 -1.7821791 0
-22.545412 5.3627644 -1.8478818 0
-21.950068 6.0707917 -1.8851786 0
-9.0713282 0.8016153 -0.77975702 0
-19.842936 2.4821227 -1.7727754 0
-19.522327 3.1654208 -1.8106638 0
-18.927687 3.7821257 -1.8255826 0
-18.470745 4.3935437 -1.8498938 0
-18.013592 4.98207 -1.8783443 0
-17.248571 1.524222 -1.7894125 0
-16.777851 2.0987158 -1.7986515 0
-16.359724 2.6526248 -1.8106897 0
-14.261718 2.3124466 -1.8346838 1
-12.661079 2.0529134 -1.8558588 0
-11.387814 1.8464613 -1.8755376 0
-10.337501 1.6761599 -1.857707 1
-9.4466267 1.5317103 -1.8959526 1
-8.6878529 1.40868 -1.8996964 1
-8.0359001 1.3029699 -1.9016256 1
-7.4673452 1.2107824 -1.9007252 1
-47.536091 7.8780794 4.116466 2
-85.88353 14.233338 4.3582239 17
-86.65995 14.362013 2.8434191 10
-100.8768 20.523598 3.0301132 5
-94.161972 22.745392 2.5603209 5
-71.114059 19.93572 1.7379233 9
-6.2421784 1.0345061 0.09265957 0
-48.185467 9.8034353 0.57675302 0
-83.78302 20.238291 0.75369674 8
-80.903687 22.680088 0.48980668 10
-128.45433 11.803322 0.36697853 2
-102.68989 13.209524 -0.0090352204 10
-86.022263 14.25633 -0.26480275 8
-48.121281 9.7903767 -0.29398227 28
-83.833435 20.250469 -0.76920396 10
-52.438599 14.700345 -0.64827758 43
-85.462547 7.8529224 -1.2717987 1
-8.579937 1.1036812 -0.1538669 0
-45.338181 9.2241488 -1.0968062 23
-55.919319 13.507648 -1.5315324 0
-53.936176 15.120167 -1.6585857 1
-9.5785666 0.88014859 -0.31270602 0
-44.719109 5.7524476 -1.6012815 0
-42.953938 7.1186862 -1.6741534 0
-39.37571 9.5114393 -1.7962524 0
-32.494015 2.9857874 -1.6381654 0
-31.693621 4.0769124 -1.7009637 0
-30.782965 5.1016107 -1.7521579 0
-29.463867 5.9944863 -1.7779117 0
-28.538782 6.8937144 -1.8209131 0
-24.881599 2.286303 -1.6972697 0
-7.712904 0.99215025 -0.55169386 0
-23.872473 3.956346 -1.7871877 0
-23.16765 4.7135077 -1.8170985 0
-22.530432 5.4423614 -1.8481997 0
-11.94508 3.3486171 -1.0268993 0
-17.390833 1.5979967 -1.4953589 0
-19.885525 2.5579765 -1.7773671 0
-19.507227 3.2329009 -1.8102992 0
-18.875347 3.8402293 -1.8218162 0
-18.490126 4.4664011 -1.8533849 0
-12.734456 3.5699065 -1.3291606 0
-17.219374 1.5822417 -1.7869455 0
-16.766479 2.1567578 -1.7982283 0
-16.346441 2.7090693 -1.8102553 0
-14.249644 2.3615704 -1.8341799 1
-12.634309 2.0938635 -1.8529948 0
-11.385193 1.8868495 -1.8761795 0
-10.327701 1.711593 -1.8570083 1
-9.4373512 1.5640368 -1.8951752 1
-8.6983118 1.4415572 -1.9030721 1
-8.0620441 1.3361095 -1.9089046 1
-7.4898634 1.2412829 -1.9075484 1
-47.252884 8.0007067 4.0943341 1
-86.156319 14.587711 4.3746243 14
-86.475273 14.641716 2.8390191 11
-48.12558 9.9663334 1.4466211 17
-93.72084 22.985342 2.5504923 4
-8.4395819 2.3977094 0.20645425 0
-124.30915 11.860133 2.5655811 2
-102.54393 13.554812 1.8235394 2
-107.97152 18.281389 1.6036782 2
-48.111782 9.9634762 0.57628387 25
-83.540939 20.488689 0.75215781 8
-80.597015 22.897844 0.48843095 18
-158.17308 15.091035 0.45202914 25
-8.8708353 1.172595 -0.00078086031 0
-107.72625 18.239862 -0.33180821 8
-48.122063 9.9656048 -0.29419777 13
-83.533043 20.486752 -0.7670992 5
-52.39851 14.886567 -0.64842045 52
-85.566002 8.1637115 -1.2737546 2
-6.7402935 0.89096844 -0.12093099 0
-50.766399 8.5956039 -1.0668521 13
-45.246967 9.3702011 -1.0953841 19
-55.965034 13.725608 -1.5340872 2
-14.034213 3.9871602 -0.43198994 0
-43.374153 7.3439722 -1.6915205 0
-37.281235 10.591705 -1.8344947 0
-8.4787712 0.80894566 -0.42759165 0
-31.679195 4.1875272 -1.7009637 0
-30.670467 5.1930251 -1.7467756 0
-29.517054 6.1126909 -1.7823977 0
-27.622181 7.8475409 -1.8680075 1
-8.4063663 0.80203766 -0.57361805 0
-24.528448 3.2423031 -1.7552866 0
-13.006944 2.2022939 -0.97432077 0
-23.115906 4.787076 -1.8143398 0
-8.3028078 2.0362906 -0.6816687 0
-21.899481 6.2217054 -1.8845186 0
-20.348799 1.9414456 -1.750273 0
-19.955475 2.6378226 -1.7844313 0
-4.7404232 0.80263323 -0.44017547 0
-18.955414 3.9254792 -1.8308556 0
-13.683756 3.3559859 -1.3727771 0
-18.035797 5.1240215 -1.8843441 0
-17.221666 1.6430911 -1.7877679 0
-16.778564 2.2178814 -1.8003439 0
-16.372169 2.7720833 -1.8141651 0
-10.868783 1.8402674 -1.3998219 0
-12.646439 2.1412544 -1.8558588 0
-11.378538 1.9265774 -1.8761795 1
-10.310013 1.7456583 -1.8549124 0
-9.4511786 1.6002431 -1.899062 1
-8.6778069 1.4692984 -1.8996964 1
-8.0611725 1.3648918 -1.9098145 1
-7.4816608 1.2667707 -1.9065737 1
-4.2596622 0.73577225 0.59867632 0
-48.910915 8.4483919 4.2404027 1
-86.540504 14.948158 4.3966241 12
-86.709892 14.977417 2.8483367 16
-45.932579 9.6711359 1.3816572 9
-2.3359611 0.58112174 0.063622274 0
-70.177383 20.18932 1.7183505 16
-125.27602 12.371702 2.5863686 4
-112.88411 19.498493 1.677595 4
-89.886879 18.925741 1.0774126 12
-83.278458 20.71735 0.75040901 9
-80.382263 23.12516 0.48759153 11
-11.312922 1.1172138 0.032340627 0
-12.715695 1.7237494 -0.0011198032 0
-104.40152 18.033295 -0.3217501 3
-74.845604 15.758792 -0.45789108 13
-52.36808 15.065764 -0.64865845 50
-85.689705 8.4623337 -1.2760068 0
-50.087387 8.6516037 -1.0531799 20
-45.223473 9.5218325 -1.0955738 20
-10.232388 2.545532 -0.28071529 0
-52.306583 15.048073 -1.6115865 10
-5.9956512 0.59210378 -0.19586366 0
-10.877587 1.474574 -0.38985008 0
-43.306236 7.4802947 -1.6898298 0
-41.341347 8.7044477 -1.7500242 0
-37.852592 10.889807 -1.8643762 0
-4.3970461 0.43423268 -0.22181818 0
-31.823463 4.314013 -1.7094686 0
-30.763269 5.3137455 -1.753055 0
-29.64901 6.2426186 -1.7916061 0
-28.52219 7.0955229 -1.822894 0
-27.615185 7.9446082 -1.8693058 0
-25.052122 2.474036 -1.7100108 1
-12.569157 1.7038844 -0.8998639 0
-23.872507 4.1235027 -1.7892501 0
-23.298941 4.9056077 -1.8299727 0
-22.512213 5.6004086 -1.8497895 0
-21.897884 6.299799 -1.8861685 1
-11.91027 1.1762052 -1.0247748 0
-19.887394 2.6959503 -1.7791332 0
-19.500471 3.36832 -1.8117579 0
-19.008539 4.0022602 -1.8372585 0
-18.494068 4.6008067 -1.856876 0
-18.076078 5.2003045 -1.890344 0
-17.208204 1.6994056 -1.7869455 0
-16.763235 2.2724369 -1.7994976 0
-16.425581 2.8371937 -1.821116 0
-14.256701 2.4625628 -1.8372033 1
-12.631467 2.1818357 -1.8547132 0
-11.39154 1.9676627 -1.8793888 0
-10.327454 1.7838631 -1.8591043 1
-9.4419527 1.6309103 -1.8982847 1
-8.6960039 1.5020623 -1.90476 1
-8.0335722 1.3876404 -1.9043552 1
-7.5080013 1.2968584 -1.9143715 1
-9.0252962 1.591403 1.2692378 0
-46.950058 8.2785606 4.0728836 0
-87.353348 15.402749 4.4406247 6
-87.074425 15.353567 2.8620543 16
-45.882904 9.8280745 1.3811866 20
-8.3276691 2.1025841 0.22701104 0
-69.872284 20.365919 1.7126105 19
-113.09501 19.941698 1.6817536 5
-45.880062 9.8274651 0.55034077 35
-83.003967 20.956984 0.74859023 9
-71.983315 20.98123 0.4370859 3
-150.95583 15.440024 0.43169391 26
-97.790245 13.604289 -0.008615992 11
-45.874569 9.8262892 -0.28085998 35
-52.357407 15.260798 -0.6491822 52
-49.407047 8.7117939 -1.0395076 13
-45.287712 9.7005844 -1.0979437 240
-10.925164 2.7584043 -0.2999832 0
-52.318985 15.249599 -1.6135991 6
-4.2551641 0.75030011 -0.16613971 0
-41.396679 8.8671293 -1.7536664 0
-37.829689 11.026352 -1.8651327 0
-2.3447983 0.23983008 -0.11832977 0
-31.875465 4.4344201 -1.7130831 0
-31.015913 5.4689417 -1.7685291 0
-29.654367 6.3519373 -1.7932589 0
-9.0771589 2.2918167 -0.58064198 0
-27.510641 8.0186234 -1.8641126 0
-25.079063 2.5651305 -1.7124505 1
-24.557188 3.4163234 -1.7589664 1
-23.897253 4.2137299 -1.7921964 0
-4.9410186 1.0583614 -0.38837108 0
-22.492527 5.6789517 -1.8497895 0
-21.92551 6.3907056 -1.8904582 0
-20.402512 2.0868046 -1.7560742 0
-19.846292 2.7609575 -1.7763075 0
-19.492517 3.4370561 -1.8121226 0
-18.982771 4.0660911 -1.8361285 0
-18.470175 4.6633816 -1.8561002 0
-4.1457319 1.208371 -0.43398714 0
-13.976267 1.4295169 -1.4518418 0
-16.763081 2.3320301 -1.8003439 0
-16.446903 2.9000325 -1.8245914 0
-14.267557 2.5157549 -1.8397228 1
-12.647165 2.2300363 -1.85815 0
-11.384602 2.0074122 -1.8793888 0
-10.309528 1.8178477 -1.8570083 1
-9.4284744 1.6624942 -1.8967299 1
-8.6868563 1.531727 -1.903916 1
-8.0325146 1.4163488 -1.9052651 1
-7.4805055 1.3190148 -1.9085231 1
-1.224934 0.21598887 -0.42981562 0
-0.81352454 0.14344631 -0.38645181 0
-6.1419544 1.1051105 1.6381176 0
-46.524708 8.3711052 4.0384946 1
-8.0013323 1.439665 0.40700224 0
-87.460999 15.736695 2.8765483 8
-7.3286624 1.8775921 0.19995572 0
-69.605186 20.551929 1.7078114 22
-117.94456 12.479712 2.4367473 4
-97.49337 13.910089 1.7361804 3
-114.25286 20.557306 1.7000278 4
-94.309357 20.545519 1.1321136 3
-82.717201 21.19202 0.74666655 8
-72.151321 21.303715 0.43855488 1
-118.13207 12.499552 0.33794934 11
-4.866714 0.69436955 -0.00042900193 0
-3.0273719 0.54470944 -0.0093414057 0
-7.9689436 1.7360533 -0.048825432 0
-13.793928 3.5339832 -0.12699963 0
-52.303825 15.443456 -0.6491822 45
-10.878075 1.1510088 -0.1621013 0
-48.612766 8.7468052 -1.0234323 11
-45.222317 9.8517895 -1.0971853 40
-4.7837486 1.225589 -0.13146886 0
-52.257771 15.429857 -1.6133623 1
-15.870972 1.6793072 -0.51883727 0
-45.213322 6.4509139 -1.6220093 0
-4.2249823 0.76019323 -0.16506387 0
-37.909767 11.193403 -1.8709955 0
-32.696075 3.4595711 -1.6506 0
-30.882648 5.5566578 -1.7620255 0
-29.725651 6.4758039 -1.7989255 1
-28.630524 7.3350964 -1.833046 0
-27.570536 8.1405964 -1.8700849 0
-25.077896 2.6534917 -1.7129927 1
-24.59646 3.5093563 -1.7626462 1
-23.886326 4.2978225 -1.792491 0
-23.170601 5.0477705 -1.822616 0
-22.476427 5.7584262 -1.8501074 0
-21.910719 6.4694543 -1.8911182 0
-20.422848 2.1609411 -1.7584629 1
-19.962753 2.8482313 -1.7876103 0
-19.515686 3.5114212 -1.8154048 0
-19.077408 4.1560588 -1.8466744 0
-18.449926 4.7268429 -1.8557123 0
-18.123308 5.3511672 -1.8991437 0
-17.176138 1.8174069 -1.7848897 0
-16.74696 2.3894107 -1.7994976 0
-16.381893 2.9475639 -1.8185093 0
-14.270406 2.5676477 -1.8412344 1
-12.635409 2.2734659 -1.8575772 1
-11.369754 2.0457389 -1.878105 0
-10.310873 1.8552163 -1.8584057 0
-9.4148903 1.6940039 -1.8951752 1
-8.6622171 1.5585767 -1.8996964 1
-8.0236893 1.4436876 -1.9043552 1
-7.4796743 1.345804 -1.9094979 1
-1.2911487 0.23231401 -0.45333138 0
-5.311439 0.97578984 0.46135741 0
-8.137454 1.4949706 0.4142023 0
-106.23749 19.517397 3.4964271 2
-94.753387 21.006342 2.8567588 8
-93.793236 24.396343 2.5614834 8
-69.356979 20.755333 1.7035769 25
-121.78596 13.337746 2.5171041 3
-140.78479 20.613544 2.5084507 4
-9.4685068 1.7395047 0.14098078 0
-85.892517 19.041931 1.0319066 2
-25.281765 6.5759821 0.22842793 0
-70.720047 21.163235 0.43032384 5
-143.76382 15.744715 0.41143835 22
-12.047544 1.7639873 -0.0010625564 0
-81.236092 14.924271 -0.25083315 2
-5.7053709 1.2648516 -0.034984775 0
-7.8078766 2.030889 -0.071954571 0
-52.289013 15.64768 -0.64970595 50
-9.5140619 1.0419602 -0.14183122 0
-9.1727304 1.3430605 -0.16489297 0
-47.848785 8.7905293 -1.0080199 13
-45.310833 10.045179 -1.1002188 17
-54.850788 14.267113 -1.508858 1
-5.9869347 1.7916123 -0.18503708 0
-45.628418 6.6808596 -1.6377679 0
-42.038399 9.3196983 -1.7836308 0
-37.703888 11.283028 -1.8628632 0
-9.6103621 1.0525069 -0.48535261 0
-32.052383 4.6930723 -1.724352 0
-8.1320086 1.8028247 -0.49252638 0
-28.618902 7.4439974 -1.8340364 0
-27.395197 8.1981144 -1.8602177 0
-25.15131 2.7545192 -1.7186855 1
-24.626862 3.6058362 -1.7657599 0
-24.011658 4.4112964 -1.8030974 0
-23.229816 5.1499314 -1.8287466 0
-8.582283 2.2323179 -0.70710415 0
-21.917412 6.558866 -1.8937581 1
-20.414789 2.2357852 -1.7584629 1
-19.964008 2.9231067 -1.7886699 0
-19.455669 3.5742941 -1.8110285 0
-19.038719 4.2207866 -1.8444147 0
-18.45945 4.801445 -1.8584276 0
-3.4582856 1.0349047 -0.36278924 0
-17.177271 1.881219 -1.785712 0
-16.761703 2.4542291 -1.8020363 0
-16.386623 3.0104649 -1.8202471 0
-14.256995 2.6192207 -1.8407305 1
-12.638672 2.3219109 -1.8592956 1
-11.362179 2.0874002 -1.878105 0
-10.33112 1.8979793 -1.8632963 1
-9.4124765 1.7292111 -1.8959526 1
-8.6679831 1.5924367 -1.9022281 1
-8.0298367 1.4751996 -1.9070848 1
-7.4861374 1.3753141 -1.9124221 1
-1.3609383 0.25002447 -0.47815356 0
-4.888845 0.91580468 0.42492551 0
-105.098 19.687521 5.3530297 4
-106.08226 19.871899 3.4935801 2
-94.843315 21.373865 2.8617017 5
-87.150261 22.993568 2.382242 4
-69.165482 20.96134 1.7006599 27
-112.79355 12.751492 2.3321521 3
-120.64755 18.095495 2.1507654 7
-113.66254 21.291876 1.6934679 1
-85.056862 19.16839 1.0226647 6
-82.165077 21.678288 0.74306405 10
-73.114807 22.158226 0.44536358 9
-113.24615 12.802659 0.3242256 10
-11.60618 1.7407696 -0.0010241591 0
-81.207092 15.212149 -0.25090605 4
-85.041679 19.164968 -0.52187419 7
-52.264702 15.839377 -0.65008682 53
-92.66864 13.899039 -1.6667136 0
-47.232124 8.8477755 -0.99567342 10
-45.529064 10.260417 -1.1063807 12
-55.191147 14.561533 -1.5196097 5
-56.622894 17.160175 -1.7518737 18
-14.499926 1.6392398 -0.47438776 0
-41.759991 9.4110203 -1.7732012 0
-5.3035889 1.6073093 -0.26231384 0
-9.622509 1.0878401 -0.48615485 0
-32.020004 4.8025665 -1.7235016 0
-30.971634 5.8017726 -1.7694261 0
-29.596748 6.6699152 -1.7939672 0
-28.696968 7.5713563 -1.8407218 0
-25.149471 2.843188 -1.7192277 1
-12.910775 1.9364412 -0.92618895 0
-23.933378 4.4833288 -1.7983835 0
-23.312859 5.2537794 -1.8367163 0
-22.631273 5.9709945 -1.8663225 0
-21.837158 6.6179848 -1.8888084 0
-20.379139 2.3038943 -1.7560742 1
-20.123116 3.0181942 -1.803858 0
-19.509634 3.6546495 -1.8172282 0
-18.981138 4.2775841 -1.8402716 0
-18.523413 4.8871841 -1.8665735 0
-18.115025 5.4899521 -1.9023436 0
-17.178507 1.9420578 -1.7865343 0
-16.804171 2.5203977 -1.8075367 0
-16.438549 3.0793571 -1.8271979 0
-14.251667 2.6696987 -1.8412344 0
-12.626598 2.3652823 -1.8587228 0
-11.350943 2.1263196 -1.8774632 0
-10.324431 1.9340279 -1.8632963 1
-9.4140978 1.7634993 -1.8975073 1
-8.6508427 1.6205223 -1.8996964 1
-8.0246382 1.5032183 -1.9070848 1
-7.4698524 1.3992928 -1.9094979 1
-1.1668251 0.21857594 -0.41021916 0
-46.875313 8.9504271 4.0769696 0
-105.16597 20.080513 5.3600297 5
-106.61307 20.356823 3.5133801 2
-94.277061 21.59231 2.846873 3
-86.984489 23.274881 2.3799169 15
-69.00013 21.174505 1.6984015 28
-110.48416 12.881188 2.2853186 3
-92.647491 14.226696 1.6524879 5
-11.294716 2.1566262 0.16839208 0
-4.0391326 0.92508399 0.048602257 0
-81.868675 21.906015 0.74107045 8
-73.167023 22.453224 0.44615638 9
-136.70149 15.937829 0.39153555 7
-11.611895 1.7830909 -0.0010252064 0
-81.165283 15.497794 -0.25094247 3
-84.763718 19.413465 -0.52058113 8
-55.246197 14.782506 -0.51006764 1
-52.228207 16.027599 -0.65032488 47
-4.5288234 0.52800894 -0.067566901 0
-5.0084929 0.76909059 -0.090129159 0
-46.658863 8.9090977 -0.98423845 9
-45.4384 10.406773 -1.1050535 11
-54.927536 14.69724 -1.5137548 3
-7.9536996 1.2213484 -0.28578594 0
-15.017396 2.8674393 -0.58786714 0
-4.2926216 1.1485986 -0.19704378 0
-32.67326 3.8093281 -1.6514022 0
-31.931982 4.903388 -1.7196743 0
-30.888426 5.897872 -1.7658379 0
-29.73287 6.8097296 -1.8036478 1
-27.451775 8.4242992 -1.8680075 0
-25.226603 2.941133 -1.7251916 0
-24.652357 3.7855489 -1.7694398 1
-23.995947 4.5818143 -1.8042759 0
-6.9393301 1.5893172 -0.54715264 0
-22.683477 6.0695329 -1.8723633 0
-21.867277 6.7105489 -1.8934281 0
-20.351181 2.3727145 -1.7543679 1
-20.120335 3.0896237 -1.8045645 0
-11.276271 2.1531043 -1.0510238 0
-19.043726 4.3615913 -1.8478044 1
-18.552393 4.9641581 -1.8712283 0
-18.095747 5.5531564 -1.9023436 0
-17.195335 2.0047791 -1.7890013 0
-16.75989 2.5736029 -1.8037288 0
-16.419888 3.1352324 -1.8263291 0
-14.261748 2.723155 -1.8437539 0
-12.633819 2.4123161 -1.861014 1
-11.362841 2.1696341 -1.8806726 0
-10.313748 1.9693191 -1.8625976 1
-9.4348621 1.8015037 -1.9029487 1
-8.6528139 1.6521784 -1.9013842 1
-8.0308199 1.5334141 -1.9098145 1
-7.4687328 1.4260886 -1.9104726 1
-1.2217581 0.23328394 -0.42981562 0
-95.722946 18.623981 4.8820271 2
-105.29343 20.486029 3.4722273 4
-3.6138334 0.84096557 0.10921448 0
-86.690475 23.520767 2.3741043 8
-68.868515 21.397421 1.69699 29
-8.3343086 1.001183 0.17246291 0
-113.24862 17.795034 2.0210314 4
-104.33224 20.299019 1.5565284 3
-3.9540701 0.92014116 0.047617074 0
-81.598694 22.139271 0.73932165 8
-73.179878 22.736959 0.44671601 8
-12.585465 1.5118656 0.036061734 0
-111.49594 17.51963 -0.0098492419 16
-9.9889183 2.3244946 -0.06139696 0
-53.105854 14.408624 -0.49076796 0
-52.206318 16.220482 -0.65075338 39
-46.003323 8.9504662 -0.97106332 9
-45.830223 10.66503 -1.1154813 4
-55.022549 14.928659 -1.5178 1
-51.438778 15.982008 -1.5948941 0
-16.988819 2.0408311 -0.55626839 0
-9.2083988 1.7915981 -0.3607122 0
-52.170704 16.209417 -2.585881 1
-32.91362 3.9538443 -1.664238 0
-32.115913 5.0464525 -1.730518 0
-31.047983 6.0407362 -1.7761539 0
-29.887815 6.9551139 -1.8145088 1
-28.789829 7.8112259 -1.8501309 0
-7.3491807 2.2833874 -0.50062811 0
-25.267693 3.0353549 -1.7287157 1
-24.70994 3.8827338 -1.7745349 1
-23.944569 4.6586866 -1.8016243 0
-23.248421 5.410078 -1.8345706 0
-22.662153 6.1486716 -1.8723633 0
-21.973152 6.8270497 -1.9046474 0
-20.425869 2.4537168 -1.7615342 0
-20.054321 3.1511848 -1.7996196 0
-19.565756 3.8067391 -1.8248866 0
-19.051655 4.4334598 -1.8500643 1
-18.558006 5.0351381 -1.8735557 0
-18.148468 5.6387219 -1.9099433 0
-17.125025 2.0571933 -1.7824227 0
-16.770449 2.6351819 -1.8058443 0
-16.447876 3.2001204 -1.8306733 0
-14.271633 2.7767076 -1.8462734 0
-12.605893 2.4526191 -1.85815 1
-11.343574 2.2070205 -1.8787469 0
-10.268152 1.9977851 -1.8556111 1
-9.4246655 1.8336753 -1.9021714 1
-8.6431561 1.6816238 -1.9005404 1
-7.9948311 1.5554848 -1.9025354 1
-7.4827495 1.4558536 -1.9153463 2
-46.272182 9.1705379 4.0299826 1
-96.115845 19.048897 4.905427 4
-105.89579 20.987154 3.4944859 5
-100.43917 23.742796 3.0378807 3
-86.750488 23.862492 2.3780146 7
-68.762886 21.628105 1.6962372 34
-104.35481 12.905633 2.1603465 2
-110.95084 17.83103 1.981124 4
-104.28429 20.667774 1.5568799 10
-6.6950102 1.5826322 0.080691002 0
-12.630381 3.4742441 0.11454623 0
-73.206902 23.025888 0.44736889 6
-132.97443 16.445042 0.38118017 25
-12.795808 2.056428 -0.0011309733 0
-84.127861 19.886969 -0.51751602 11
-52.650284 14.482535 -0.48702219 7
-52.168457 16.408632 -0.65099144 28
-45.795269 9.0760202 -0.96733451 7
-13.799693 3.2621069 -0.33615163 0
-52.626022 14.475862 -1.4530768 0
-3.8678982 0.6216141 -0.13913077 0
-43.955948 8.7114916 -1.7230271 0
-41.993641 9.9268684 -1.7874385 0
-8.626791 2.3729751 -0.3967455 0
-52.182411 16.413021 -2.5892854 0
-33.058208 4.0883317 -1.6722604 0
-31.155983 6.1747065 -1.7835546 0
-29.797297 7.0437775 -1.8104949 0
-28.900963 7.9497995 -1.8590448 1
-27.540791 8.6624508 -1.8781344 0
-25.312389 3.1304011 -1.7325108 1
-24.645023 3.9607282 -1.7708552 1
-24.139463 4.7841244 -1.817534 0
-23.225513 5.4902749 -1.834264 0
-22.644396 6.2288032 -1.8726814 0
-21.987213 6.9156752 -1.9079472 0
-12.467057 1.5418097 -1.075621 0
-20.058935 3.2236931 -1.8010324 0
-19.53281 3.8711464 -1.8230631 0
-19.024439 4.4971833 -1.8489344 0
-18.47506 5.0819426 -1.8669614 0
-18.052742 5.6781597 -1.9019437 0
-17.141434 2.1198931 -1.7848897 0
-16.784712 2.697489 -1.808383 0
-16.499012 3.2698874 -1.8376242 0
-14.300776 2.8342259 -1.8513124 0
-12.566188 2.4904532 -1.8535676 1
-11.347417 2.248909 -1.8806726 0
-10.288158 2.0389779 -1.8605016 1
