# .PCD v0.7 - Point Cloud Data file format
VERSION 0.7
FIELDS x y z intensity
SIZE 4 4 4 4
TYPE F F F F
COUNT 1 1 1 1
WIDTH 1395
HEIGHT 1
VIEWPOINT 0 0 0 1 0 0 0
POINTS 1395
DATA ascii
3.4530215 -4.3864322 -1.4026377 3
2.4530845 -3.1161952 -1.3704456 6
2.4203589 -3.0746233 -1.8305612 0
2.4563394 -3.1428406 1.0470546 3
2.7432566 -3.5099459 0.85447162 0
2.6204605 -3.3528304 0.58934778 1
2.8027604 -3.5860798 0.38883409 2
2.4059923 -3.0784225 0.19560108 3
2.3338871 -2.986165 0.12268165 3
2.3667147 -3.2670867 0.1187472 4
2.4026363 -3.5836 0.11403394 0
2.1406496 -3.4579017 0.095699169 3
2.8968606 -3.1981549 0.088655308 6
2.6811578 -3.1851058 0.073398463 13
2.4112101 -3.0850985 0.057341162 4
2.5130575 -3.4691026 0.050244223 5
2.2741933 -3.392024 0.035710443 1
2.1285737 -3.4383945 0.023573957 2
2.9269989 -3.2314279 0.012403689 3
3.48785 -4.1434231 -0.00047263515 2
2.578954 -3.2997239 -0.012718404 4
2.5061457 -3.4595613 -0.025574086 5
2.4145169 -3.6013205 -0.038670674 1
18.202429 -29.40332 -0.41164866 2
2.9669647 -3.2755506 -0.065492481 6
3.5310829 -4.1947823 -0.097527288 0
2.5981138 -3.3242383 -0.087419726 0
2.4843731 -3.4295058 -0.10039046 1
2.3246891 -3.4673398 -0.11113643 0
23.160322 -37.41206 -1.3028362 1
30.513617 -36.248928 -1.6827724 0
2.5795228 -3.3004515 -0.16106792 2
2.3961911 -3.3077769 -0.16919164 0
2.267597 -3.3821852 -0.18056439 1
8.1768332 -13.20846 -0.73531085 0
4.5190911 -4.9891095 -0.3379418 0
10.399883 -12.354637 -0.85962456 1
9.5372486 -12.202732 -0.8696875 1
8.6720409 -11.971155 -0.8740809 3
8.0547647 -12.013911 -0.89708567 3
7.3892479 -11.936233 -0.91323084 2
10.93364 -12.070816 -1.1063021 2
10.16238 -12.072493 -1.1195225 3
9.4698267 -12.116467 -1.1357746 2
8.6733427 -11.972952 -1.1362996 3
8.1490688 -12.154568 -1.166849 2
7.3817248 -11.92408 -1.1608714 4
10.945637 -12.084063 -1.3960551 2
10.17635 -12.089087 -1.4008422 1
9.3702202 -11.989022 -1.3930988 2
8.7233496 -12.041983 -1.4063803 2
8.187396 -12.211734 -1.4325137 1
7.4955397 -12.107931 -1.4311576 1
10.444025 -11.530279 -1.6076753 1
9.8028927 -11.645435 -1.6192517 2
9.1480656 -11.70478 -1.6230174 1
8.8090801 -11.271054 -1.8165436 1
3.8541775 -4.9313483 -0.90559036 0
3.843847 -4.9181309 -1.0147929 0
3.8611295 -4.9402437 -1.1122488 0
3.8369803 -4.9093451 -1.2344291 0
3.8379509 -4.9105868 -1.3452314 0
3.8689821 -4.9502907 -1.4676182 0
3.2752407 -4.1906095 -1.336356 3
2.4678011 -3.1575058 -1.3848163 2
2.4140739 -3.0887628 -1.8339511 0
6.8498378 -8.8275766 2.9329717 1
2.921242 -3.7646859 0.91399831 0
2.599025 -3.3494358 0.58715278 2
2.3731899 -3.0583961 0.19380108 3
2.3185477 -2.9879768 0.12242283 6
2.3482933 -3.26559 0.11839414 2
2.252775 -3.3855686 0.10748148 0
2.1453104 -3.4926126 0.096451961 2
2.8937025 -3.2171676 0.088901803 7
2.7597938 -3.3018479 0.075866237 22
2.4028785 -3.0966563 0.057399735 2
2.3281326 -3.2375541 0.046772633 6
2.2025123 -3.3100314 0.034766093 2
2.1165583 -3.4458036 0.023573957 3
3.5221055 -4.2138863 -0.00047926742 3
2.5919421 -3.340308 -0.012839878 3
2.4823778 -3.4520509 -0.025454357 4
19.822578 -29.790236 -0.31914008 1
18.064093 -29.408741 -0.41083926 4
2.9394648 -3.2680454 -0.065136865 7
3.5164189 -4.2070827 -0.097527288 0
3.5794141 -4.6128907 -0.12097896 1
2.4677172 -3.4316638 -0.10020087 3
3.0546322 -4.5906348 -0.14679801 0
21.175503 -34.474186 -1.1979463 2
2.8125782 -3.1269753 -0.13672766 0
30.397154 -36.367493 -1.6833403 0
11.766671 -15.164037 -0.73802298 0
2.4172964 -3.3615475 -0.17150933 0
19.07338 -28.664309 -1.5267348 0
11.22874 -12.483916 -0.84294921 2
10.356694 -12.390864 -0.85962456 1
9.5362167 -12.289588 -0.87349999 3
8.6208754 -11.988386 -0.87313646 4
8.0415306 -12.085163 -0.90030462 3
7.3370919 -11.944948 -0.91193253 3
10.848736 -12.061435 -1.1019647 2
10.076677 -12.055849 -1.1147103 3
9.3883467 -12.099024 -1.1310606 2
8.5779419 -11.92868 -1.1292495 3
8.1750669 -12.285848 -1.1767052 2
7.3275385 -11.929394 -1.1588914 4
10.874072 -12.089602 -1.3923013 2
10.144309 -12.136765 -1.4022551 2
9.3429661 -12.040541 -1.3952869 2
8.5929146 -11.949503 -1.3920679 4
8.1270742 -12.213723 -1.4294105 1
7.3032484 -11.88985 -1.4023584 3
10.39573 -11.557791 -1.6064417 1
9.7672844 -11.685688 -1.6200979 2
9.0632744 -11.680094 -1.6151978 4
8.7258959 -11.245305 -1.8074734 1
3.6961799 -4.76337 -0.87236822 0
3.8169746 -4.9190416 -1.0122255 0
3.8076441 -4.9070172 -1.1017691 0
3.7957659 -4.8917093 -1.2266557 0
3.7944195 -4.8899741 -1.3359482 0
3.7537749 -4.8375945 -1.4303136 1
3.2058928 -4.1315236 -1.3139373 1
2.4544466 -3.1631138 -1.3835099 1
2.3966141 -3.0885832 -1.8288662 0
2.5860374 -3.3556151 1.1120512 0
2.7336893 -3.5472066 0.85899264 3
2.5733917 -3.3392062 0.58386034 3
2.386601 -3.0968285 0.33401597 3
2.3362098 -3.0314415 0.19160105 2
2.3037453 -2.989316 0.12216401 6
2.3165395 -3.2440746 0.11733495 1
2.1337163 -3.4997077 0.096451961 1
2.9229856 -3.2714787 0.090134263 6
2.7539392 -3.3171351 0.076007247 17
2.4145689 -3.1331193 0.057926875 0
2.3638706 -3.3103571 0.047710903 4
2.2047522 -3.3373411 0.03497595 0
2.1217773 -3.4801252 0.023760498 0
2.9209256 -3.2691731 0.012471966 3
3.5081134 -4.2255421 -0.00047926742 0
2.639451 -3.4249241 -0.013131417 3
2.4988103 -3.4993262 -0.025741706 4
2.2113628 -3.3473477 -0.035781078 0
17.98937 -29.50605 -0.41136298 3
2.9339406 -3.2837398 -0.065255404 6
3.5101132 -4.227951 -0.097740695 1
2.5876322 -3.3576844 -0.087834038 0
2.4749146 -3.4658625 -0.10095925 3
4.4059067 -6.6692367 -0.21279858 0
3.5257874 -5.7829733 -0.20054562 0
2.852803 -3.1929286 -0.13919707 0
2.727097 -3.2848036 -0.15162414 0
11.679721 -15.155484 -0.73571765 4
2.3875551 -3.3435249 -0.17018494 2
8.0347385 -13.178526 -0.73058277 0
11.243176 -12.583645 -0.84716094 1
10.318102 -12.428211 -0.85983717 1
9.3588905 -12.143998 -0.86094129 2
8.5439453 -11.964914 -0.86935866 3
7.9309912 -12.00517 -0.89238113 2
7.2995172 -11.972621 -0.91219217 3
10.774113 -12.058657 -1.0984406 3
10.008611 -12.055428 -1.1115966 3
9.2678156 -12.025821 -1.121338 2
8.5197954 -11.931095 -1.1267973 4
7.9672437 -12.060045 -1.1525415 2
7.2858624 -11.950225 -1.1585615 5
10.83392 -12.125596 -1.3923013 2
9.9920254 -12.035451 -1.3867137 2
9.2446289 -11.995734 -1.3865346 2
8.5555544 -11.981173 -1.3924446 3
8.0426397 -12.174172 -1.4216526 7
7.2430606 -11.880021 -1.3983586 4
10.423619 -11.666376 -1.616721 1
9.6979933 -11.681288 -1.6150205 1
9.0706081 -11.769927 -1.6234519 2
8.6740227 -11.255322 -1.80445 1
7.9382758 -10.300624 -1.8816346 0
3.7741308 -4.8972731 -1.0051649 0
3.7889464 -4.9164972 -1.1010704 0
3.7843134 -4.9104857 -1.2282103 0
3.7877295 -4.9149184 -1.3393239 0
3.6782701 -4.7728848 -1.4075669 2
3.3839889 -4.3910284 -1.3928905 3
2.4139423 -3.1323066 -1.3665262 2
2.3907816 -3.1022534 -1.8322562 0
2.5649052 -3.35233 1.107989 6
2.6687753 -3.4880884 0.84241557 6
2.68451 -3.5086536 0.61184615 1
2.3612463 -3.0861483 0.33197305 1
2.3207593 -3.0332317 0.19120106 3
2.3151615 -3.0259151 0.12332871 5
2.4489186 -3.7352223 0.11804996 7
2.1339054 -3.5276637 0.097016558 0
2.9168565 -3.2876451 0.090298593 7
2.6965528 -3.2711799 0.074738115 12
2.3647327 -3.0907047 0.056989733 3
2.5095835 -3.5404801 0.050901011 5
19.158825 -29.222069 0.30554989 2
17.769224 -29.375175 0.2001338 2
2.9121511 -3.2823415 0.012483346 4
2.6028321 -3.1574876 -0.00035709437 0
2.6833842 -3.5071824 -0.013410809 5
2.4935193 -3.517817 -0.025813544 3
19.413193 -29.610044 -0.31578672 1
17.863493 -29.531019 -0.41083926 2
2.9330781 -3.3059285 -0.065492481 6
3.6174407 -4.3883066 -0.10115522 0
2.6172082 -3.4206901 -0.089242697 0
2.4974887 -3.523417 -0.10238121 4
5.9304309 -9.0454121 -0.28795406 0
18.759195 -31.011747 -1.0731677 2
2.8814392 -3.2477255 -0.14114662 0
2.6723881 -3.2418659 -0.14921065 0
11.617036 -15.183462 -0.73510289 4
2.3550692 -3.3224938 -0.16869499 5
8.1169033 -13.418452 -0.74230844 0
11.180624 -12.601896 -0.84575701 1
10.208596 -12.384017 -0.85430902 1
9.3115921 -12.170247 -0.86049277 2
8.4998188 -11.991408 -0.86912256 3
7.9043589 -12.056152 -0.89411438 3
7.2411532 -11.970706 -0.91011488 4
10.721359 -12.08425 -1.0973563 2
9.9436255 -12.062582 -1.109049 3
9.1579123 -11.969387 -1.1130886 2
8.4573393 -11.931479 -1.1240385 4
7.8660684 -11.99775 -1.1439571 2
7.2729897 -12.023336 -1.1631812 4
10.894682 -12.279606 -1.4056101 1
9.9220743 -12.036438 -1.3828284 2
9.1833391 -12.002621 -1.383617 2
8.4768353 -11.958983 -1.3864183 3
7.967351 -12.152232 -1.415834 2
7.222147 -11.939286 -1.4023584 3
10.615206 -11.964602 -1.652904 1
9.7178793 -11.788729 -1.6251752 2
8.9014111 -11.634141 -1.6004273 1
8.6202173 -11.266621 -1.8014266 1
4.1038904 -5.3637829 -0.97718984 0
3.7570143 -4.9104161 -1.0051649 0
3.7358639 -4.8827729 -1.0905907 0
6.2277203 -8.1396284 -2.0304339 0
3.7610476 -4.915688 -1.3359482 0
3.7302282 -4.8754067 -1.433953 1
3.5454423 -4.6338916 -1.4659953 2
2.3777242 -3.1076846 -1.3521556 3
2.3821406 -3.113457 -1.8339511 0
2.5204244 -3.3181303 1.093771 4
2.6518307 -3.4911263 0.84090859 8
2.7057989 -3.562175 0.61952853 10
2.3287625 -3.0658083 0.32890868 1
2.3004913 -3.028589 0.19040105 4
2.3239305 -3.0594468 0.124364 6
2.9723227 -4.568244 0.14404844 1
18.042677 -30.063705 0.82506424 3
2.870995 -3.2587974 0.089230455 8
2.6648526 -3.2558134 0.074174054 10
2.3563488 -3.1021252 0.057048306 5
2.543241 -3.6146421 0.051839277 5
6.9761147 -10.721782 0.11185309 0
17.666576 -29.437023 0.2001338 2
2.6171298 -3.1975076 -0.00036058502 1
2.6759644 -3.5228982 -0.013435104 5
2.4720178 -3.5134146 -0.02571776 2
6.9761038 -10.721765 -0.11408562 0
17.721197 -29.528036 -0.40993464 1
2.8924372 -3.2831357 -0.064840518 3
2.6851101 -3.2805634 -0.075404033 0
2.6391177 -3.4743896 -0.090402775 0
2.4621637 -3.4994092 -0.10143324 3
6.9390187 -10.664767 -0.33873191 0
18.669346 -31.107895 -1.0742332 0
34.345875 -38.985176 -1.6890805 0
2.6686513 -3.2604547 -0.14963657 1
11.55913 -15.217555 -0.73479551 4
2.3434572 -3.3306944 -0.16869499 6
18.757589 -28.82905 -1.52514 1
7.856185 -13.090409 -0.72263962 0
10.986035 -12.469984 -0.83432513 1
10.091938 -12.329939 -0.84814304 2
9.2279854 -12.148612 -0.85668033 2
2.3712475 -3.3701923 -0.24366598 1
7.8252125 -12.026782 -0.88990504 3
7.1952152 -11.989065 -0.90959555 6
10.623711 -12.058718 -1.0916635 3
9.8686056 -12.057079 -1.1053691 3
9.123313 -12.010811 -1.1139724 2
8.4500637 -12.009854 -1.1286365 2
7.7915215 -11.975002 -1.1391879 2
7.1858463 -11.973454 -1.1559217 4
10.664698 -12.105241 -1.3813814 2
9.8648567 -12.052499 -1.3807091 3
9.1341562 -12.025086 -1.3825229 3
8.483161 -12.056895 -1.3943278 3
7.7859259 -11.966402 -1.3910084 4
7.1517544 -11.916648 -1.3967586 3
10.447127 -11.858282 -1.6331679 1
9.6691113 -11.813345 -1.6239059 2
8.7837791 -11.563816 -1.5865257 1
8.5568333 -11.265042 -1.7963878 2
7.8637781 -10.352637 -1.8810618 0
3.7135808 -4.888917 -0.99810433 0
3.7235618 -4.9020562 -1.091988 0
3.7285802 -4.9086633 -1.2212143 0
3.7225802 -4.9007645 -1.3283528 0
3.6354363 -4.7860398 -1.4039274 0
3.3344796 -4.3898311 -1.3850926 6
2.403451 -3.164135 -1.3730584 2
2.3624918 -3.1102126 -1.8271712 0
2.546098 -3.376333 1.1100202 4
2.6136103 -3.4658599 0.83262002 8
2.5335124 -3.3596435 0.58276284 3
2.3660393 -3.1375606 0.33571839 1
2.2826893 -3.0270317 0.18980105 5
2.3252726 -3.0835006 0.12501106 7
2.2015436 -3.4095895 0.10727011 0
2.3178978 -3.8929434 0.10661471 0
2.7648089 -3.1604414 0.086272538 6
2.5904136 -3.1875033 0.072411358 13
2.3575466 -3.1262984 0.057341162 5
2.3771691 -3.4037917 0.048696082 3
2.1870406 -3.3871281 0.035255756 0
17.512554 -29.41259 0.19955087 2
3.4606769 -3.9558852 0.014952704 2
2.6185658 -3.2221446 -0.00036233035 3
2.6347504 -3.4938934 -0.013289334 3
2.4643199 -3.5285802 -0.025765652 1
6.932127 -10.73597 -0.1139786 3
17.689632 -29.709995 -0.41160104 3
3.4576776 -3.9524567 -0.077820472 3
2.6635532 -3.2775016 -0.075119488 2
2.617342 -3.4708085 -0.090071321 0
2.4339066 -3.4850321 -0.10076965 3
6.9256086 -10.725875 -0.33990288 2
25.764809 -43.272373 -1.491188 1
3.4667606 -3.9628394 -0.1711695 0
2.6496904 -3.2604434 -0.14921065 3
11.515566 -15.270576 -0.73541027 3
2.3455474 -3.3585136 -0.16968828 10
6.9190936 -10.715785 -0.56561488 1
7.6612244 -12.867138 -0.70883363 0
11.016092 -12.592448 -0.83994079 1
10.129449 -12.464285 -0.85494691 1
9.2047596 -12.20626 -0.85847443 1
2.3434656 -3.3555326 -0.24201322 3
6.8909545 -10.672205 -0.78789032 0
7.1186061 -11.955803 -0.90518135 4
10.56316 -12.074703 -1.0897659 2
9.7987776 -12.057393 -1.1022555 3
9.050108 -12.00118 -1.1101424 2
8.328167 -11.924833 -1.117908 4
6.895328 -10.678978 -1.0136007 2
7.1052585 -11.933385 -1.149652 4
10.619754 -12.139396 -1.3810401 2
9.8453407 -12.11469 -1.383888 2
9.0849304 -12.047358 -1.381429 2
8.3657808 -11.978691 -1.3818986 3
6.8651757 -10.632281 -1.2331332 0
7.1976662 -12.088586 -1.4139581 2
10.355895 -11.837779 -1.6253556 4
9.5500507 -11.751335 -1.6107894 1
8.7385721 -11.588058 -1.5856568 4
8.4744539 -11.237815 -1.7873176 2
7.8323598 -10.386346 -1.8822074 0
3.6798525 -4.8797836 -0.99361128 0
3.6850853 -4.886723 -1.0857002 0
6.1494813 -8.1547127 -2.0234377 0
3.6913254 -4.8949981 -1.3232892 0
3.6515412 -4.8422403 -1.4166656 0
3.5130053 -4.6585307 -1.4659953 3
2.4470224 -3.2449508 -1.4044127 1
2.3647096 -3.1357973 -1.8373411 0
2.5482085 -3.4037828 1.1161135 4
2.5002615 -3.3397374 0.80021948 11
2.5241442 -3.3716388 0.58331162 4
2.4291165 -3.244705 0.34627342 3
2.296051 -3.0669622 0.19180106 7
2.3049109 -3.0787969 0.12449341 5
2.6650884 -3.8445735 0.13769498 6
2.2241454 -3.4711211 0.10896107 1
2.2859905 -3.8700228 0.10576781 1
2.6986847 -3.1066716 0.084547088 7
2.5792716 -3.1965263 0.072411358 4
2.3729856 -3.169728 0.057985444 5
2.3516009 -3.3923461 0.048414603 7
2.1838362 -3.4082122 0.03539566 3
17.487082 -29.604412 0.20043693 2
3.4652095 -3.9890792 0.015032361 1
2.6148381 -3.2406046 -0.00036337753 5
2.5769913 -3.4422295 -0.013058533 2
2.5066788 -3.6160567 -0.026340351 1
6.8902946 -10.753365 -0.11390726 3
17.591919 -29.781895 -0.41174388 6
3.5225468 -4.0550852 -0.079598553 2
2.6470737 -3.2805545 -0.074977219 5
2.4901693 -3.3262565 -0.086093932 0
2.362493 -3.4080589 -0.09830492 3
6.8730273 -10.726417 -0.33915773 3
22.101797 -37.416805 -1.2867358 0
32.921902 -37.899033 -1.6320239 1
2.6483343 -3.2821169 -0.14977853 5
11.500518 -15.361876 -0.73786932 0
2.3543015 -3.3962419 -0.17117824 8
6.857933 -10.702859 -0.56366569 4
7.7524128 -13.124295 -0.72150487 0
10.94325 -12.59765 -0.83773464 1
2.623683 -3.2515662 -0.22240101 0
9.1285868 -12.193558 -0.85533476 2
2.3385625 -3.3735373 -0.24272154 5
6.8536611 -10.696192 -0.78789032 6
7.0808892 -11.987453 -0.90570062 2
10.544501 -12.138618 -1.0922056 2
9.731575 -12.060473 -1.0994247 3
8.9627371 -11.972023 -1.1045445 2
8.2796745 -11.944 -1.1169884 4
6.8408012 -10.676123 -1.0110571 7
7.0818062 -11.989005 -1.1526219 4
10.545951 -12.140286 -1.3769451 1
9.9230909 -12.297822 -1.4008422 1
8.9759789 -11.989711 -1.3712177 4
8.3125715 -11.991457 -1.3800154 3
6.8172832 -10.639419 -1.2311938 5
7.1392317 -12.086223 -1.4107581 8
10.207529 -11.750702 -1.6084976 2
9.381587 -11.626729 -1.5892107 1
8.6790037 -11.593024 -1.5821813 1
8.4185266 -11.245091 -1.7837903 2
7.7770762 -10.38827 -1.8776251 0
3.6769931 -4.9115629 -0.99746251 0
3.6656444 -4.8964033 -1.0850015 0
3.6801114 -4.9157281 -1.2165501 0
3.6789026 -4.9141135 -1.324977 0
3.5879285 -4.7925944 -1.3984683 0
3.459523 -4.6210761 -1.4503996 4
2.449275 -3.271632 -1.4122514 1
2.3580916 -3.1498332 -1.8407309 0
2.5201566 -3.3909206 1.1090046 5
2.5120213 -3.3799741 0.80775446 13
2.5123594 -3.3804293 0.58331162 5
2.3702283 -3.189189 0.33946374 5
2.2948635 -3.0877841 0.19260107 8
2.3275366 -3.1317465 0.12630516 5
2.7060449 -3.9329062 0.14051948 3
2.2313249 -3.509232 0.10991223 1
2.2684238 -3.8710783 0.10557961 4
2.6799879 -3.1069882 0.0843006 5
2.4855783 -3.1025093 0.070084609 2
2.3523636 -3.1651516 0.05775116 5
2.4395018 -3.5455179 0.05047879 6
2.1654873 -3.4056888 0.035290733 4
17.327011 -29.568645 0.19978404 2
2.8582003 -3.3135951 0.012449208 3
2.5634944 -3.1997647 -0.00035779248 5
2.557802 -3.4415731 -0.01302209 2
2.4396257 -3.5456984 -0.025765652 1
6.8677392 -10.800978 -0.11415698 3
17.473698 -29.818964 -0.4114106 6
3.5397184 -4.1036987 -0.080309786 0
2.6131008 -3.2616832 -0.074336991 7
2.492856 -3.354187 -0.08659111 2
2.3664496 -3.4393456 -0.098968506 3
6.8333974 -10.746968 -0.33905128 3
21.962967 -37.479927 -1.2862622 0
2.634362 -3.2882216 -0.14963657 4
2.4343276 -3.2754359 -0.15691826 0
2.3718824 -3.4472415 -0.17333038 6
6.8269639 -10.73685 -0.56419724 4
7.7590742 -13.240905 -0.72642207 0
10.831367 -12.557119 -0.83252013 1
2.6248038 -3.2762911 -0.22346412 1
9.0573797 -12.186884 -0.85264361 1
2.3131921 -3.3619428 -0.24130487 3
6.8034296 -10.699838 -0.78640467 7
6.9764419 -11.905337 -0.89765114 4
10.408227 -12.066561 -1.0824466 3
9.6919098 -12.097483 -1.0997078 4
8.9042349 -11.980824 -1.1024821 2
8.2175856 -11.943257 -1.1142296 4
6.8034925 -10.699937 -1.0110571 5
7.0459595 -12.023971 -1.1536118 3
10.451447 -12.116668 -1.37012 2
9.7754717 -12.201784 -1.3860073 1
8.9198151 -12.001788 -1.3690296 2
8.2864647 -12.043365 -1.3826518 2
6.773694 -10.653072 -1.2300301 7
7.0688286 -12.062996 -1.4051584 2
10.062498 -11.665747 -1.5920508 1
9.3931704 -11.724594 -1.598096 1
8.6029053 -11.575378 -1.575665 4
8.3579197 -11.245746 -1.7792553 2
7.7502127 -10.428064 -1.8799162 0
3.6480503 -4.9085236 -0.99425316 0
3.6320846 -4.8870416 -1.080111 0
3.6535678 -4.9159474 -1.2134408 0
3.6407359 -4.8986821 -1.3173816 0
3.6292639 -4.8832464 -1.4212149 0
3.4479995 -4.6393514 -1.4523491 6
2.3047845 -3.1011333 -1.3351719 3
2.334115 -3.1405978 -1.8305612 1
2.49682 -3.3841302 1.1039267 4
2.658803 -3.6036785 0.85899264 12
2.5052488 -3.3955548 0.58440906 4
2.337786 -3.1685796 0.33639938 5
2.2627246 -3.0668433 0.19080105 10
2.3972917 -3.2492321 0.13070513 4
2.6494575 -3.8795941 0.13828342 4
2.2126606 -3.5068543 0.10959518 1
2.2528887 -3.8755155 0.10548551 6
2.6769309 -3.1254356 0.084547088 5
2.4498365 -3.0798671 0.069379531 4
2.3484247 -3.1829989 0.057926875 5
2.4203434 -3.5441029 0.050338052 2
2.1621237 -3.4267581 0.035430636 6
2.2414126 -3.8557739 0.025998974 0
2.4626677 -3.095998 -0.00034522612 7
2.5410235 -3.4440427 -0.012997795 4
2.4069319 -3.5244644 -0.02555014 3
6.8257265 -10.81812 -0.11408562 1
17.403683 -29.93856 -0.41222 5
3.5123641 -4.1008406 -0.080013439 0
2.6091683 -3.2801747 -0.074550398 4
2.4835069 -3.3660862 -0.086673968 4
2.3544292 -3.4475851 -0.098968506 1
6.8001094 -10.77752 -0.33926418 2
23.075823 -39.696018 -1.3595431 1
36.352066 -42.44265 -1.8167102 0
2.6104252 -3.281755 -0.14892671 6
2.4276257 -3.2903461 -0.15722564 0
2.3170104 -3.3927927 -0.17018494 3
6.7766495 -10.740338 -0.56313407 3
7.7148185 -13.271361 -0.7266112 0
10.779674 -12.585747 -0.83191842 1
2.6058917 -3.2760558 -0.22282624 3
8.9104586 -12.077024 -0.84277606 2
8.1946659 -11.99943 -0.8592059 3
6.7660389 -10.723521 -0.78640467 5
6.932838 -11.926165 -0.89739144 3
10.347874 -12.081601 -1.080549 3
9.5800762 -12.043809 -1.091782 3
8.8268347 -11.963682 -1.0980628 2
8.1443558 -11.92576 -1.1099383 5
6.7724848 -10.733737 -1.0120109 6
6.951859 -11.958886 -1.1450323 3
10.427238 -12.174262 -1.3725089 2
9.6732912 -12.160996 -1.3775302 4
8.8329344 -11.97195 -1.3621006 2
8.1725082 -11.966984 -1.3705993 3
6.7513375 -10.700221 -1.2327453 8
7.02668 -12.087597 -1.4051584 5
10.19513 -11.903267 -1.6195992 1
9.4066601 -11.825795 -1.6074046 2
8.529397 -11.560541 -1.5695831 2
8.2997665 -11.249307 -1.7752241 1
7.702013 -10.439125 -1.8770523 0
3.6285503 -4.9180508 -0.99361128 0
3.6220186 -4.9091978 -1.082207 0
3.6224089 -4.9097266 -1.2087767 0
3.6328995 -4.9239454 -1.3207574 0
3.5613203 -4.8269291 -1.4011978 0
3.4456036 -4.6700892 -1.4581975 6
2.3074131 -3.1274128 -1.3430105 3
2.318836 -3.1428952 -1.8271712 1
2.5490026 -3.4802213 1.1323627 4
2.6438863 -3.6097684 0.85823911 12
2.5121105 -3.4298513 0.588799 3
2.3408408 -3.1960125 0.33844227 5
2.2213175 -3.0328243 0.18820104 10
2.4001086 -3.2769322 0.1314816 4
2.4295139 -3.5843329 0.12745611 1
2.1749427 -3.4738865 0.10832696 0
2.2333539 -3.8729634 0.10520322 8
2.6478686 -3.113436 0.08397194 8
2.4316347 -3.0789843 0.069168009 5
2.3656588 -3.229897 0.058629729 4
2.2912624 -3.3803666 0.047898553 1
2.1416585 -3.4207237 0.035290733 2
2.2479215 -3.8982255 0.026232149 1
2.8246324 -3.3212798 0.012403689 0
2.4791157 -3.1391058 -0.00034906584 8
2.5313494 -3.4561188 -0.013009943 4
2.3901258 -3.5262227 -0.025502248 3
18.332483 -29.281214 -0.30811679 3
17.351021 -30.089216 -0.4134579 4
3.5135748 -4.1313572 -0.080369055 0
2.5927448 -3.2829852 -0.074408129 4
2.4693787 -3.3715084 -0.08659111 2
2.3378932 -3.4491625 -0.098778911 0
25.321907 -43.911903 -1.5008957 1
37.405472 -43.982372 -1.8770159 0
2.5964763 -3.28771 -0.14878474 6
2.4184868 -3.3020246 -0.15737933 0
2.2894566 -3.3777022 -0.16902609 3
6.7730455 -10.81812 -0.56596923 0
7.6584659 -13.280904 -0.72566557 1
10.802966 -12.702422 -0.83713299 1
2.5721598 -3.2569201 -0.22091267 0
8.8753252 -12.117719 -0.84344888 2
8.15273 -12.027962 -0.8592059 3
6.7561064 -10.791063 -0.78962362 3
6.8712263 -11.915715 -0.89479482 3
10.315979 -12.129808 -1.0816333 3
9.5725975 -12.121014 -1.095745 2
8.7850189 -11.994421 -1.0980628 2
8.0982018 -11.947515 -1.1093252 5
6.7519026 -10.784349 -1.0145545 2
7.0056581 -12.14884 -1.1608714 2
10.252997 -12.055754 -1.355105 2
9.5542307 -12.097757 -1.3665806 2
8.7722597 -11.977 -1.3591831 2
8.121748 -11.982253 -1.3690927 3
6.7329588 -10.754092 -1.2362365 4
6.9208226 -12.001721 -1.3923588 2
10.052987 -11.820576 -1.6035635 1
9.3283443 -11.811736 -1.6010579 2
8.4819412 -11.58062 -1.5682797 4
8.2463799 -11.259002 -1.7722007 2
7.6327772 -10.421234 -1.8690331 0
3.604362 -4.9211316 -0.99168569 0
3.6002054 -4.9154568 -1.0808096 0
3.5890186 -4.9001827 -1.2033353 0
3.5948961 -4.9082074 -1.313162 0
3.5766716 -4.8833251 -1.413936 0
3.3926039 -4.6320124 -1.4426018 5
2.3054178 -3.1476486 -1.3482362 4
2.3078508 -3.1509702 -1.8271712 1
2.5345635 -3.4859686 1.1313472 5
2.6312697 -3.6189754 0.85823911 12
2.4954624 -3.4321902 0.5877015 2
2.3624828 -3.2492936 0.34320906 6
2.1989708 -3.0244038 0.18720104 9
2.3439856 -3.2238531 0.12902279 3
2.2786186 -3.38711 0.12015946 1
2.1374829 -3.4406989 0.10705874 0
2.2277629 -3.8946204 0.10557961 8
2.6756878 -3.1684916 0.085204408 11
2.4356794 -3.1063366 0.069591053 4
2.5566435 -3.5163367 0.06366685 3
2.2593555 -3.3584759 0.047476336 1
2.1339264 -3.434974 0.035360686 1
2.2382722 -3.9129927 0.026278784 4
3.5588596 -4.2143245 0.015692374 1
2.5101023 -3.2012513 -0.00035499997 6
2.512213 -3.4552283 -0.0129735 4
2.4045947 -3.5743704 -0.025789598 2
3.7021768 -5.9593816 -0.062572293 0
17.25581 -30.166958 -0.41369593 4
3.5404201 -4.1924887 -0.081317358 0
2.576335 -3.2857208 -0.07426586 3
2.5116854 -3.4545028 -0.088496938 0
3.1360884 -4.6617174 -0.13319038 3
24.590424 -39.583122 -1.2405976 1
25.093031 -43.868145 -1.496397 1
30.700039 -36.354321 -1.5468941 2
2.5800519 -3.2904613 -0.1485008 4
2.416348 -3.3233783 -0.15799409 0
2.2731905 -3.3790414 -0.16869499 2
17.038433 -27.42671 -1.4317569 0
2.7635131 -4.8312292 -0.26344857 0
10.699279 -12.669854 -0.83252013 1
9.6959515 -12.365703 -0.83644891 2
8.7272863 -12.003269 -0.8333571 2
8.1285257 -12.082851 -0.86109483 4
7.4136219 -11.933682 -0.87133443 4
6.817699 -11.918839 -0.89323688 3
10.278725 -12.171843 -1.0821755 2
9.4760695 -12.085276 -1.0895175 3
8.7032175 -11.970164 -1.0930542 2
8.0275078 -11.932692 -1.1053402 4
7.4148855 -11.935717 -1.1204294 4
6.844449 -11.965605 -1.1410725 5
10.179996 -12.05493 -1.3510101 2
9.4086885 -11.999343 -1.3517456 3
8.6929188 -11.956 -1.3533481 4
8.0665359 -11.990705 -1.366833 4
7.4621854 -12.011855 -1.3778198 2
6.8729572 -12.015443 -1.3911588 5
9.9603233 -11.794799 -1.5953403 1
9.3140574 -11.878655 -1.6057121 2
8.4835558 -11.668048 -1.5760994 1
8.169692 -11.236368 -1.7641385 1
7.6126499 -10.470229 -1.8730427 0
3.5801966 -4.9241033 -0.9897601 0
3.5783932 -4.9216232 -1.0794123 0
3.5118988 -4.8301687 -1.1831242 0
3.5731425 -4.9144015 -1.3114741 0
3.5733471 -4.9146829 -1.4193952 0
3.337631 -4.5904856 -1.4260314 8
2.2899699 -3.1495614 -1.3456234 4
2.2968378 -3.1590073 -1.8271712 1
2.5269082 -3.5010688 1.1333783 4
2.6737981 -3.7045872 0.87632316 8
2.4881043 -3.4473059 0.588799 5
2.3371313 -3.2381303 0.34116617 4
2.1884003 -3.0320613 0.18720104 7
2.3467562 -3.251466 0.12979926 3
2.2823226 -3.4183202 0.12098328 3
2.1401467 -3.4719665 0.10779854 0
2.2240217 -3.9197633 0.10605011 6
2.7160022 -3.2391007 0.086847693 10
2.3977969 -3.0801053 0.06881547 3
2.4834952 -3.4409196 0.062143996 3
2.2298508 -3.339731 0.047101028 2
2.1156263 -3.4321871 0.035255756 2
2.2186778 -3.9103448 0.026208831 8
3.5364168 -4.217526 0.015658235 1
2.5677121 -3.2983711 -0.00036477379 4
2.5001366 -3.4639766 -0.0129735 4
2.3543446 -3.5261903 -0.025382519 0
18.091936 -29.350601 -0.30751035 5
2.2106631 -3.896219 -0.05332483 0
3.5180545 -4.1956272 -0.08113955 1
2.5771332 -3.310473 -0.074621536 1
2.4832284 -3.4405499 -0.087916903 1
3.0798278 -4.6127739 -0.13148402 1
23.071505 -37.42897 -1.1705519 1
26.387991 -46.507946 -1.5832922 0
31.620989 -37.711151 -1.5999215 1
2.5734613 -3.3057561 -0.14878474 1
2.4070716 -3.3350337 -0.15814778 1
21.233463 -31.802156 -1.5839781 1
17.018078 -27.608479 -1.438136 0
7.4610591 -13.149865 -0.71564209 0
10.585682 -12.624471 -0.82710505 1
9.6944399 -12.453054 -0.84006345 2
8.7741508 -12.156717 -0.84187907 2
8.0973845 -12.127757 -0.86227536 3
7.3907738 -11.990075 -0.87356287 3
6.7681732 -11.928678 -0.8921982 3
10.102837 -12.04863 -1.068079 4
9.3700991 -12.03642 -1.0821579 3
8.6240263 -11.948718 -1.0883402 2
8.0345268 -12.033612 -1.1120839 2
7.3606229 -11.941161 -1.1185217 5
6.7573938 -11.909678 -1.1334829 6
10.150658 -12.105661 -1.3527163 3
9.3545065 -12.016392 -1.3499795 3
8.6138325 -11.934593 -1.3475132 3
8.0268421 -12.022102 -1.3672096 2
7.3617177 -11.942937 -1.3669586 4
6.8093691 -12.001284 -1.3867589 2
9.2920818 -11.936204 -1.609097 3
8.4311399 -11.68147 -1.5739273 7
8.1141634 -11.242294 -1.7606112 1
7.5436201 -10.451798 -1.8650235 0
3.5375695 -4.9013553 -0.98269951 0
3.5335319 -4.8957615 -1.0710286 0
3.5616105 -4.9346647 -1.2056673 0
3.5399485 -4.9046516 -1.3055665 0
3.5265353 -4.8860674 -1.4075669 0
3.3238573 -4.6052542 -1.427006 2
2.2855997 -3.1667323 -1.3495426 2
2.2836764 -3.1640675 -1.8254763 1
2.4786198 -3.459547 1.1171291 3
2.7317765 -3.8128917 0.89968175 5
2.4345195 -3.3979938 0.57892168 7
2.2979605 -3.2073905 0.33708033 2
2.2499318 -3.1403544 0.19340107 7
2.3144372 -3.2303882 0.12863456 1
2.2725849 -3.429599 0.12110097 4
2.119669 -3.465771 0.10737579 0
2.2024806 -3.9135633 0.10567372 1
2.7174733 -3.2639284 0.08725851 12
2.3796937 -3.0789635 0.068603948 1
2.3037543 -3.2154775 0.057926875 7
2.2049232 -3.3274894 0.046819549 2
2.1078067 -3.4463754 0.03532571 2
2.2089381 -3.9250376 0.026255466 11
3.5242326 -4.2329187 0.015669614 1
2.5904288 -3.3516228 -0.00036966073 5
2.4857011 -3.4694304 -0.012961353 4
2.2028258 -3.3243241 -0.023873936 0
18.003981 -29.437462 -0.30776006 3
2.2009726 -3.9108834 -0.053420056 2
3.5085056 -4.2140293 -0.081258088 2
2.5875735 -3.3479285 -0.075261757 2
2.4665461 -3.4426949 -0.08775118 3
3.0659163 -4.6268296 -0.13157882 0
21.094357 -34.490387 -1.0763414 5
24.131212 -42.878483 -1.4568563 0
36.891685 -44.310215 -1.8744166 0
11.724144 -15.169269 -0.68088895 2
2.4210231 -3.3791561 -0.15983838 1
19.475452 -29.390757 -1.4604781 0
16.909092 -27.647261 -1.4370729 0
15.612102 -27.740971 -1.5067443 1
10.556887 -12.679766 -0.8283084 1
9.4823685 -12.26875 -0.82539266 2
8.6502562 -12.073642 -0.83402985 2
7.9601593 -12.01282 -0.8521226 4
7.3551245 -12.026018 -0.87430573 3
6.7030015 -11.910489 -0.88908231 4
10.065825 -12.089956 -1.0686212 3
9.2645874 -11.986975 -1.0747981 4
8.5752983 -11.969018 -1.0874563 2
8.0849981 -12.201217 -1.124958 1
7.3105741 -11.953176 -1.11725 3
6.7235999 -11.94709 -1.1348029 5
10.024188 -12.039947 -1.3414551 2
9.3027592 -12.036363 -1.3485668 3
8.5628433 -11.951634 -1.3460544 2
7.9804287 -12.043408 -1.3664563 2
7.290904 -11.921014 -1.361528 3
6.7537713 -12.000701 -1.3839589 1
9.9184704 -11.91297 -1.6019189 1
9.2138748 -11.92136 -1.6027503 3
8.3903141 -11.710826 -1.5739273 2
8.0563841 -11.244741 -1.75658 1
3.4976225 -4.8818254 -0.86893141 0
3.5066433 -4.8944163 -0.97884834 0
3.5210094 -4.9144678 -1.0724258 0
3.519227 -4.9119802 -1.1971165 0
3.5205302 -4.9137988 -1.3047227 0
3.5162647 -4.9078455 -1.4102966 0
3.4862554 -4.8659596 -1.5040098 0
2.2371004 -3.1224449 -1.3273333 3
2.266288 -3.1631837 -1.8203914 1
2.4373786 -3.4271903 1.1039267 5
2.5681844 -3.6111157 0.84995061 3
2.4249399 -3.4097004 0.5794704 4
2.2890604 -3.2186403 0.33742082 2
2.2482176 -3.1612115 0.19420107 6
3.3295996 -4.6817393 0.18596365 1
2.2649941 -3.4441917 0.12133634 4
2.1200044 -3.4936597 0.1080099 0
2.1283851 -3.8129835 0.10275663 0
2.6780345 -3.2394896 0.086354703 14
2.334846 -3.0428305 0.067616843 2
2.3133781 -3.2528336 0.058454014 5
2.202086 -3.3485327 0.047007199 0
2.0853887 -3.4366148 0.03515083 0
2.193274 -3.9292316 0.026232149 11
2.6072276 -3.1538377 0.011641261 0
2.6785502 -3.4907546 -0.00038397242 4
2.4782116 -3.4846056 -0.012985648 6
2.1692309 -3.2985728 -0.023634478 0
17.913565 -29.520645 -0.3079741 2
2.1853578 -3.91505 -0.053372443 6
2.7420139 -3.3168824 -0.063773669 0
2.5612631 -3.3379028 -0.074834943 3
2.4545135 -3.4512837 -0.08775118 5
4.2999687 -6.5386114 -0.18551855 0
18.799906 -30.981293 -0.96477914 1
2.1689651 -3.8856826 -0.13176344 0
2.6873741 -3.2507873 -0.13711756 0
11.646786 -15.178386 -0.67946923 5
2.3976302 -3.3713002 -0.15906993 3
19.267342 -29.298275 -1.4525317 0
7.9418759 -13.08781 -0.67884415 0
7.357389 -13.1807 -0.71450734 0
10.451472 -12.642643 -0.82349497 1
9.4467793 -12.311281 -0.82603049 1
2.3516502 -3.306648 -0.22785005 0
7.9072104 -12.02385 -0.85094208 3
7.2696071 -11.979944 -0.86910594 3
6.6633301 -11.937299 -0.88934195 4
9.9803343 -12.07273 -1.0640126 4
9.1983986 -11.987587 -1.0719675 4
8.5034103 -11.956618 -1.0836262 2
7.884582 -11.989441 -1.1028881 4
7.2894897 -12.01271 -1.1204294 4
6.7071142 -12.015738 -1.1390927 3
9.9617844 -12.050292 -1.3387251 3
9.1830702 -11.967609 -1.3372639 3
8.5326147 -11.997683 -1.3478779 2
7.9733524 -12.124427 -1.3724825 2
7.2451167 -11.939585 -1.3607522 4
9.86415 -11.932188 -1.5998631 4
9.2884312 -12.104918 -1.6230597 3
8.3424702 -11.730321 -1.572624 5
7.9871864 -11.230757 -1.7500293 1
3.4805603 -4.8940048 -0.86893141 1
3.478096 -4.8905396 -0.97563899 0
3.4673114 -4.8753753 -1.0612475 0
3.4838672 -4.8986545 -1.1908977 0
3.4920259 -4.9101262 -1.3005029 0
5.0093732 -7.0436635 -2.0189986 0
3.2399139 -4.5556326 -1.4045873 1
2.252481 -3.1672063 -1.3430105 3
2.2489328 -3.1622174 -1.8153065 1
2.4142444 -3.4198742 1.0988488 6
2.5397046 -3.5975935 0.84467608 4
2.3490412 -3.3275113 0.56410569 2
2.3007963 -3.2591703 0.34082568 5
2.2348652 -3.1657765 0.19400108 4
2.7045422 -3.8310926 0.15179913 0
2.2289205 -3.415246 0.12004177 2
2.0974841 -3.4839106 0.10748148 0
2.070514 -3.7399235 0.10059234 0
2.6565607 -3.2364528 0.08602605 14
2.3266339 -3.0541434 0.067687348 5
2.4726999 -3.5026786 0.062788278 4
2.1816401 -3.3428011 0.046819549 0
2.0651276 -3.4301662 0.035010926 0
2.1717954 -3.9228661 0.026138879 7
2.560673 -3.1196342 0.011481947 0
2.6905885 -3.5319021 -0.00038746308 7
2.4729536 -3.5030382 -0.01302209 6
2.1686344 -3.3228731 -0.023754207 0
17.752642 -29.487047 -0.30697525 3
2.1697412 -3.9191554 -0.05332483 9
2.6644423 -3.2460549 -0.062232673 0
2.5689843 -3.3722739 -0.075404033 1
2.4562898 -3.4794331 -0.08824835 4
6.9762707 -10.689337 -0.30259335 0
18.685457 -31.036449 -0.96445978 1
2.1670077 -3.9142179 -0.13247377 0
3.8225095 -4.6569133 -0.19586366 0
11.574353 -15.19351 -0.67833346 5
2.3674064 -3.3535261 -0.1578404 3
8.734973 -13.384094 -0.66203266 0
16.678566 -27.703011 -1.4338833 0
7.2242489 -13.049001 -0.70599681 1
10.321097 -12.574058 -0.81667596 1
9.4473162 -12.401375 -0.82985771 2
2.342397 -3.3180995 -0.22807431 2
7.856462 -12.038003 -0.84999764 3
7.2421589 -12.029189 -0.87083918 3
6.596487 -11.915088 -0.88596636 3
9.9204073 -12.085901 -1.0621151 3
9.1516619 -12.013273 -1.0714014 3
8.4409161 -11.956897 -1.0809746 3
7.8034472 -11.956772 -1.0973706 3
7.2063808 -11.969762 -1.1140705 4
6.6323066 -11.979788 -1.1334829 6
9.8994312 -12.060347 -1.3359951 4
9.1291666 -11.983745 -1.3354979 3
8.4768991 -12.007869 -1.3456898 3
7.8373942 -12.008786 -1.356287 3
7.1910744 -11.944337 -1.3584249 3
6.7372952 -12.169427 -1.3979585 2
9.9587555 -12.132621 -1.6220663 3
9.2605829 -12.156252 -1.6255984 3
8.4000826 -11.899055 -1.5913043 2
7.9410691 -11.248844 -1.7485176 1
3.4566066 -4.8964219 -0.86721301 2
3.4655576 -4.9091015 -0.97692275 3
3.4525433 -4.890666 -1.0619462 2
3.4599578 -4.9011693 -1.1885656 1
3.4545705 -4.893538 -1.2929075 1
3.4549592 -4.8940883 -1.3993781 0
3.3022985 -4.6778388 -1.4387028 2
2.2566741 -3.1966696 -1.3521556 3
2.2378809 -3.1700485 -1.8153065 1
2.4527459 -3.5015833 1.122207 5
2.5693233 -3.6680114 0.85899264 5
2.3368294 -3.3360989 0.56410569 2
2.3597181 -3.3687754 0.35138071 5
2.2209549 -3.1706743 0.19380108 3
2.7019506 -3.8573523 0.1524462 2
2.2294254 -3.4435301 0.1207479 2
17.98542 -30.122982 0.92727876 3
2.0240839 -3.687892 0.098992653 1
2.616895 -3.2120631 0.085122243 12
2.3130124 -3.0594602 0.067616843 8
2.4667289 -3.5215456 0.062963992 6
2.186763 -3.3776345 0.047194853 0
17.626026 -29.521049 0.30065325 2
2.1631763 -3.941319 0.026208831 1
2.5340629 -3.1103921 0.01141367 4
2.6872745 -3.554503 -0.00038885933 8
2.4715717 -3.5284593 -0.013082827 3
6.9475651 -10.731083 -0.076530688 3
17.685463 -29.620596 -0.30768871 4
2.1534376 -3.9235752 -0.053277221 9
2.6373696 -3.2371943 -0.061877057 1
2.6193166 -3.4646142 -0.077253565 0
2.4802301 -3.5408204 -0.089574151 3
6.9479117 -10.731618 -0.30306736 1
18.600283 -31.152788 -0.96595013 0
2.1584179 -3.9326494 -0.13282892 3
2.6488922 -3.2513375 -0.13633774 2
11.545107 -15.270906 -0.67989516 5
2.3665648 -3.3785498 -0.15860885 6
6.9265327 -10.698596 -0.52793753 0
16.624041 -27.842867 -1.4379588 1
7.1263905 -12.984323 -0.70107961 0
10.269896 -12.605608 -0.81627482 1
9.428297 -12.470967 -0.83219653 2
2.3348019 -3.3332045 -0.22852284 5
6.9420853 -10.722619 -0.75531733 0
7.152998 -11.980239 -0.86539179 4
6.5815792 -11.991673 -0.88986129 3
9.9214153 -12.177873 -1.0669947 3
9.0690708 -11.995812 -1.0668722 3
8.3672829 -11.94528 -1.0771445 2
6.9077525 -10.669589 -0.97690505 1
7.1481547 -11.972127 -1.1118449 5
6.6036978 -12.031973 -1.1361228 3
9.8350229 -12.071831 -1.3332651 3
9.092391 -12.026659 -1.3365575 2
8.39398 -11.983395 -1.3394901 2
6.8973432 -10.653511 -1.2003572 0
7.1329641 -11.946685 -1.3557096 5
6.640944 -12.099836 -1.3871589 7
9.8991413 -12.150532 -1.6195992 2
9.189579 -12.15521 -1.6209441 2
8.4408207 -12.050265 -1.6073781 2
7.8770204 -11.245373 -1.7434787 1
3.4272807 -4.8928461 -0.86434907 2
3.4407458 -4.9120693 -0.9749971 4
3.4300754 -4.8968363 -1.0605488 4
3.4307151 -4.8977494 -1.1846789 3
3.4343681 -4.9029646 -1.2920636 3
3.4347632 -4.9035287 -1.3984683 2
3.2829053 -4.6867337 -1.437728 6
2.2557876 -3.2204022 -1.3586876 2
2.2220898 -3.1722944 -1.8119166 1
2.4493425 -3.52283 1.1262693 4
2.2672155 -3.2608809 0.76179081 1
2.3319554 -3.3539951 0.56575191 2
2.3479445 -3.3769917 0.35138071 3
2.1642623 -3.1128058 0.18980105 2
2.7295496 -3.9258449 0.15477559 2
2.2325201 -3.4748383 0.12157172 4
2.3007412 -3.8841484 0.11931818 0
1.9901687 -3.6562998 0.097957559 0
2.5780005 -3.1869767 0.084218435 7
2.3407304 -3.1186943 0.068744965 7
2.3471117 -3.3757937 0.060211148 5
2.1922553 -3.4121675 0.047570162 1
17.567719 -29.658106 0.30142274 2
2.0996859 -3.8575027 0.025602577 0
2.6112378 -3.228065 0.011811954 4
2.6412346 -3.5190737 -0.00038397242 6
2.4912078 -3.5830438 -0.013252893 2
6.8970914 -10.735078 -0.076387018 3
17.618652 -29.744095 -0.30833086 4
2.1416407 -3.9345813 -0.05332483 10
2.6335998 -3.2557094 -0.062054865 5
2.5735962 -3.4289551 -0.076257661 1
2.413065 -3.4706526 -0.087585457 3
6.8996005 -10.738984 -0.30259335 3
25.630005 -43.26899 -1.3388534 1
2.1427658 -3.9366481 -0.13271053 6
2.6400411 -3.2636724 -0.13646771 6
11.49173 -15.311114 -0.67989516 2
2.3684473 -3.4064803 -0.159531 9
6.8783431 -10.705897 -0.52710974 3
16.516565 -27.883533 -1.4370729 1
7.1383281 -13.1144 -0.70675325 0
2.6406262 -3.2643957 -0.21078743 1
9.3895025 -12.510192 -0.83262175 2
2.3345518 -3.3577292 -0.22964415 7
6.8657632 -10.686316 -0.75106734 6
7.0846848 -11.96048 -0.8621729 3
6.5186887 -11.97601 -0.88700497 4
9.81108 -12.128656 -1.0596753 3
8.9840298 -11.969956 -1.0617771 4
8.3004856 -11.938387 -1.0739036 4
6.8553753 -10.670149 -0.97475934 6
7.114449 -12.010728 -1.1131167 3
6.4968605 -11.935907 -1.1249034 6
9.7652531 -12.072004 -1.3295113 3
9.050354 -12.058325 -1.3365575 2
8.3066206 -11.947211 -1.3321964 2
6.8385878 -10.644019 -1.1965909 7
7.0729585 -11.940682 -1.3522184 3
6.4616699 -11.871256 -1.3583597 3
9.8641748 -12.194293 -1.6208328 2
9.0659122 -12.079054 -1.6065583 2
8.3623877 -12.027419 -1.6004273 2
7.8150663 -11.24022 -1.7384398 1
3.4395592 -4.9470344 -0.87179542 1
3.4461169 -4.9564662 -0.98141581 4
3.4376929 -4.9443502 -1.068234 5
3.4225571 -4.9225807 -1.1877882 3
3.4083045 -4.9020815 -1.2886878 3
3.4154022 -4.9122901 -1.3975583 3
3.3351781 -4.7969055 -1.4679447 5
2.2380581 -3.2189445 -1.3547684 1
2.2213442 -3.1949055 -1.8203914 1
2.4809809 -3.5950441 1.1465807 3
2.2803631 -3.3043406 0.77007937 3
2.2729738 -3.2936332 0.55422831 2
2.3836801 -3.4540513 0.35853091 0
2.1760745 -3.1532221 0.19180106 4
2.7180998 -3.9386394 0.15490501 2
2.256917 -3.539923 0.12357242 5
2.2810912 -3.8818135 0.11900113 1
1.9697964 -3.6491485 0.097581156 2
2.4917331 -3.1024156 0.0817535 2
2.3632839 -3.1717443 0.06973207 7
2.3080533 -3.3444648 0.059508294 4
2.1846313 -3.4265444 0.047663987 3
17.535009 -29.839945 0.30264691 2
2.109009 -3.9070466 0.025882388 0
2.5398395 -3.162312 0.011538845 7
2.5620162 -3.4384615 -0.00037419857 4
2.5059488 -3.6312237 -0.013398662 4
6.8638763 -10.765833 -0.07643491 3
17.506613 -29.791622 -0.30818814 5
2.1354938 -3.9561114 -0.053515278 8
2.6172109 -3.2586455 -0.061936326 9
2.497093 -3.3513284 -0.074336991 2
2.4191072 -3.5053866 -0.08824835 3
6.8534732 -10.749516 -0.30221418 4
22.004519 -37.445869 -1.1562872 0
2.1290121 -3.9441035 -0.13271053 5
2.6261299 -3.2697506 -0.13633774 9
2.3724341 -3.4377553 -0.16060685 9
6.8366332 -10.723103 -0.52677864 5
16.435329 -27.968582 -1.4384904 1
2.127563 -3.9414191 -0.21200708 2
2.6117043 -3.2517898 -0.20938352 3
9.3004313 -12.482035 -0.82858199 2
2.3273537 -3.372432 -0.23009267 5
6.830565 -10.713585 -0.75130343 7
7.0327783 -11.967928 -0.86093485 4
2.1576853 -3.9972219 -0.29549521 1
9.6862173 -12.060148 -1.0507295 3
8.9374237 -11.994844 -1.061211 4
8.2451668 -11.947589 -1.0721359 2
6.8052225 -10.673837 -0.97292018 7
7.1088424 -12.097369 -1.1188396 1
6.4456916 -11.940972 -1.1232536 5
9.7779608 -12.174376 -1.3370188 2
9.0153494 -12.099428 -1.3376172 3
8.2988043 -12.025311 -1.3376666 2
6.7885461 -10.647679 -1.1943309 8
7.0372849 -11.975596 -1.3533821 6
6.4674578 -11.981296 -1.3683594 3
9.5524673 -11.893618 -1.5764264 1
8.980916 -12.053215 -1.5989423 3
8.2751827 -11.991083 -1.5917387 2
7.7419753 -11.218443 -1.7308813 1
3.4065301 -4.9362035 -0.86778581 2
3.4310369 -4.971715 -0.98205769 3
3.4248872 -4.9628034 -1.0696312 5
3.418725 -4.9538741 -1.1924523 2
3.4133804 -4.9461298 -1.2971272 3
3.407084 -4.937006 -1.4011978 4
3.3206165 -4.8117113 -1.4689195 5
2.2010398 -3.1893981 -1.3390912 1
2.1813679 -3.1608925 -1.7966619 1
2.2016788 -3.2142675 1.022681 9
2.6217906 -3.8275962 0.8898862 1
2.2010078 -3.2132883 0.53941232 4
2.3378248 -3.4130297 0.35342363 1
2.2214944 -3.243197 0.19680108 4
2.6952975 -3.9349098 0.15438735 2
2.2231703 -3.5139914 0.12239554 5
2.2634997 -3.8828437 0.11878976 3
1.960821 -3.6630533 0.097769357 6
2.4185545 -3.0329263 0.079699397 3
2.3498197 -3.1767592 0.069661558 8
2.2895839 -3.342602 0.059332579 4
2.1769342 -3.4409099 0.047757816 5
2.2057855 -3.7838402 0.038298666 0
2.0387266 -3.8085904 0.025182864 3
2.4963653 -3.1305029 0.011390911 10
2.5666492 -3.4698946 -0.00037664204 4
2.4638724 -3.5970485 -0.013240744 4
6.8497791 -10.82691 -0.076698311 2
17.424671 -29.890562 -0.30858058 4
2.1348846 -3.9882255 -0.053848557 6
2.5958455 -3.2552533 -0.061699249 8
2.4901361 -3.3664553 -0.074479267 7
2.4158959 -3.5270069 -0.088579804 3
6.8201842 -10.780131 -0.30240375 3
21.835411 -37.456818 -1.1542647 0
2.1246662 -3.969136 -0.13330247 6
2.6221781 -3.288275 -0.13672766 8
2.4485476 -3.3102312 -0.14622928 0
2.335573 -3.4097421 -0.15891623 6
6.8012977 -10.750279 -0.52694422 4
16.240999 -27.860071 -1.4299849 1
2.1156776 -3.9523442 -0.2121962 6
2.605319 -3.2671335 -0.20978464 6
9.2496777 -12.504789 -0.8279441 2
2.302026 -3.3607664 -0.2287471 2
6.810205 -10.764359 -0.75319231 9
6.9889488 -11.988955 -0.86068726 3
2.121114 -3.9625001 -0.29237929 4
9.6739187 -12.131329 -1.0539825 4
8.9310913 -12.074086 -1.065457 2
8.1741047 -11.933513 -1.0683057 4
6.7935104 -10.73797 -0.9765985 8
7.0083356 -12.022212 -1.1096194 6
2.1051829 -3.932739 -0.36924818 5
9.6708002 -12.127419 -1.3281463 4
8.8593264 -11.977066 -1.3206629 2
8.2095041 -11.985193 -1.3300083 3
6.7598534 -10.684772 -1.1958375 8
6.9573441 -11.93474 -1.346012 4
2.0848908 -3.8948307 -0.44398683 1
9.7167883 -12.185088 -1.6105535 4
8.9648066 -12.119667 -1.6035966 3
8.2737217 -12.078945 -1.5995585 3
7.6848283 -11.219209 -1.7268502 2
3.3758554 -4.9284678 -0.86434907 0
3.366807 -4.9152579 -0.96857846 0
3.3875113 -4.9454842 -1.0633434 2
3.3925424 -4.9528294 -1.189343 2
3.3894653 -4.9483371 -1.2945954 2
3.3920305 -4.9520817 -1.4021077 2
3.2468002 -4.7400579 -1.4435765 4
2.1813471 -3.1845851 -1.3338655 2
2.1805582 -3.1834333 -1.8051367 1
2.1665182 -3.1867385 1.0115097 16
2.6106226 -3.8399732 0.89063972 2
2.1697292 -3.1914618 0.53447366 5
2.3348598 -3.4343529 0.35478556 6
2.3022501 -3.3863871 0.20500113 3
2.6276002 -3.8649457 0.15128149 2
2.2066388 -3.5149579 0.12216016 2
2.243927 -3.8803368 0.1184727 5
1.9498974 -3.6734076 0.097863458 11
2.4005055 -3.0319438 0.079452902 5
2.3363497 -3.1817179 0.069591053 8
2.2239342 -3.2711918 0.057926875 4
2.1627834 -3.4451005 0.047710903 7
2.2326109 -3.8607681 0.038998183 0
2.0629272 -3.8863444 0.025649212 6
2.4581101 -3.1047008 0.011265736 11
2.5308471 -3.4465909 -0.00037315139 5
2.3635943 -3.4766185 -0.012766994 4
18.302713 -29.154415 -0.20607732 3
17.370285 -30.037766 -0.30947241 4
2.1265759 -4.0062518 -0.053991392 6
2.5819838 -3.2611587 -0.061639979 8
2.490206 -3.3912442 -0.074834943 8
2.3743401 -3.4924245 -0.087502591 0
6.8165317 -10.858062 -0.30392051 0
22.971611 -39.723923 -1.2216491 1
2.0939267 -3.9447441 -0.13223699 7
2.608202 -3.2942736 -0.13659769 8
2.4085865 -3.2800922 -0.14452563 0
2.3146675 -3.4046519 -0.15830147 4
6.79773 -10.828113 -0.52959299 1
16.233671 -28.072262 -1.4379588 1
2.0962481 -3.9491177 -0.21162882 9
2.5938985 -3.2762077 -0.20978464 5
9.241436 -12.585292 -0.83113343 2
4.2078295 -6.1893101 -0.42026675 0
6.7810812 -10.801593 -0.7541368 6
6.9310684 -11.985629 -0.85870636 3
2.0922973 -3.9416745 -0.29030198 6
9.591876 -12.114961 -1.0496452 3
8.7944298 -11.976543 -1.0541344 3
8.109972 -11.928984 -1.0653595 3
6.7602277 -10.768374 -0.97721153 4
6.8984609 -11.929243 -1.0988092 5
2.0933113 -3.9435847 -0.36957815 8
9.6185122 -12.148603 -1.3267813 1
8.8646317 -12.072146 -1.3277272 2
8.1138697 -11.934717 -1.3212558 3
6.7500405 -10.752149 -1.2007339 7
6.9933677 -12.093362 -1.3611401 2
2.0862105 -3.9302075 -0.44718674 5
9.6346769 -12.16902 -1.6039748 2
8.9059696 -12.128442 -1.6006347 3
8.2449226 -12.127483 -1.602165 3
7.6300025 -11.222996 -1.7233229 2
7.0021567 -10.299495 -1.802016 3
3.3585083 -4.9400411 -0.97114593 0
3.3370125 -4.9084225 -1.0528637 0
3.3244944 -4.8900094 -1.171464 0
3.3216114 -4.8857689 -1.2751849 1
3.3484445 -4.9252381 -1.3911892 1
3.2040615 -4.7128644 -1.4318798 5
2.1595898 -3.1765475 -1.3273333 4
2.1755438 -3.2000144 -1.8102216 1
2.1337411 -3.1622102 1.001354 13
2.5928087 -3.8425493 0.88913274 5
2.1275494 -3.153034 0.52679127 6
2.3340044 -3.4590006 0.35648799 7
2.6546481 -3.9341953 0.23760131 2
2.6767068 -3.9668865 0.15490501 1
2.1541891 -3.4581587 0.11992409 0
2.2204199 -3.8708034 0.11794428 6
1.9575509 -3.7191167 0.098898552 9
2.4368653 -3.1000419 0.081014022 4
2.327585 -3.1930859 0.069661558 7
2.2259252 -3.2988272 0.0582783 2
2.1443999 -3.4424438 0.047570162 4
2.2370324 -3.8997636 0.039312966 1
2.1182814 -4.0244856 0.026511958 6
2.4744496 -3.1478543 0.011390911 9
2.5235131 -3.4618688 -0.00037384953 6
2.3760555 -3.5213206 -0.012900615 3
18.217752 -29.245289 -0.20626889 2
17.275278 -30.115566 -0.30965078 3
2.1163042 -4.0207295 -0.054086614 6
2.5780001 -3.2795854 -0.061817788 7
2.4712853 -3.3902204 -0.074621536 7
3.1360927 -4.6476974 -0.11617295 5
24.659597 -39.586498 -1.1056223 0
25.144737 -43.834198 -1.3453469 1
2.1024911 -3.9944861 -0.13365762 6
2.5892749 -3.2939286 -0.13620777 7
2.4136055 -3.3110924 -0.14551942 0
2.284884 -3.3862042 -0.15707195 1
19.117453 -30.689592 -1.4977268 0
16.155462 -28.163418 -1.4397308 1
2.0731454 -3.9387326 -0.21068321 11
2.5947912 -3.300946 -0.21078743 0
9.1103916 -12.498045 -0.82326645 2
8.1869926 -12.133144 -0.82191974 3
7.469604 -11.991091 -0.83535874 5
6.8673358 -11.971657 -0.85598266 4
2.0729482 -3.9383581 -0.28952301 8
9.5371981 -12.132682 -1.0482897 3
8.7243662 -11.968478 -1.0507376 4
8.0794411 -11.973753 -1.0668327 3
7.4416699 -11.946248 -1.0817376 5
6.8567772 -11.953251 -1.0988092 5
2.0721059 -3.9367576 -0.36825824 13
9.4652138 -12.041107 -1.311425 4
8.7144747 -11.954908 -1.3114793 4
8.0743904 -11.966269 -1.3216205 3
7.4346671 -11.935006 -1.329922 5
7.1135478 -12.400872 -1.3929479 2
2.0632102 -3.919857 -0.44518679 7
9.5527992 -12.152529 -1.597396 2
8.891695 -12.198027 -1.6057121 2
8.1602831 -12.093561 -1.5939109 3
7.5819039 -11.236402 -1.7213073 2
6.988307 -10.356689 -1.8077439 2
3.2992861 -4.8895507 -0.9589504 0
3.3176565 -4.9167757 -1.052165 0
3.311795 -4.9080887 -1.1730187 0
3.2549782 -4.8238864 -1.3593439 0
3.2418392 -4.8044143 -1.4562479 4
2.1125398 -3.1307895 -1.305124 3
2.1603079 -3.201582 -1.8068317 1
2.1269956 -3.1760683 1.0033851 7
2.6056111 -3.8907454 0.89817476 5
2.1165304 -3.1604414 0.52679127 6
2.3174806 -3.4605038 0.35580701 7
2.314121 -3.4554873 0.20820116 3
2.393667 -3.5742669 0.13924627 2
2.9135988 -4.7138381 0.16311559 0
2.2148049 -3.8924322 0.11836702 5
2.0111637 -3.8535516 0.10228613 7
2.4211082 -3.1022239 0.080849692 4
2.4899223 -3.4409566 0.074879125 2
2.2143965 -3.306577 0.0582783 1
2.149194 -3.4771268 0.04794547 1
2.2253842 -3.911025 0.039347943 4
2.106071 -4.0354018 0.026535276 8
2.5520415 -3.2699919 0.011800574 7
2.5114136 -3.4706566 -0.00037384953 6
2.3392661 -3.4930344 -0.012766994 0
18.096628 -29.27808 -0.20605338 2
2.2075777 -3.8797309 -0.039812244 0
2.1022563 -4.0280924 -0.054086614 7
2.5640755 -3.2854114 -0.061758518 5
2.46647 -3.4085467 -0.074834943 1
3.1020474 -4.6320333 -0.11551005 4
23.15465 -37.461327 -1.044004 1
4.0143137 -7.0549984 -0.21609861 0
2.0700362 -3.9663556 -0.13247377 4
2.5654626 -3.2871885 -0.13555793 4
2.4184368 -3.3421671 -0.14651322 0
2.3175323 -3.4605811 -0.16014577 0
19.016512 -30.766338 -1.4982234 1
16.003698 -28.125868 -1.4349464 1
2.0575354 -3.9424033 -0.21049409 9
9.7947311 -12.550223 -0.79922736 3
9.0479765 -12.503883 -0.82156551 2
8.1801462 -12.214743 -0.82550794 2
7.434 -12.027282 -0.83606708 5
6.8413005 -12.023315 -0.85796356 3
2.0573413 -3.9420314 -0.28926334 10
9.4211283 -12.071517 -1.0401571 3
8.6685009 -11.979465 -1.0490392 4
8.0264969 -11.98531 -1.0653595 2
7.3810525 -11.941619 -1.0789789 4
6.7913475 -11.935526 -1.0949939 5
2.0583513 -3.9439666 -0.36825824 18
9.3912477 -12.033231 -1.3069887 3
8.649334 -11.952976 -1.3079473 4
8.0436535 -12.010928 -1.3234439 2
7.378305 -11.937175 -1.3272855 5
6.8595481 -12.055386 -1.3514427 3
2.0458317 -3.9199781 -0.44438684 9
9.493185 -12.163845 -1.5945178 3
8.7861032 -12.141986 -1.5942881 4
8.0914679 -12.082326 -1.5886978 3
7.524971 -11.236423 -1.7172761 2
6.9477072 -10.374442 -1.8065983 1
3.2865918 -4.907598 -0.96023417 0
3.291707 -4.9152365 -1.0493704 0
3.2837257 -4.9033184 -1.1691319 0
3.2808955 -4.8990922 -1.2726531 0
3.2489569 -4.8514009 -1.3638932 0
3.2185729 -4.8060312 -1.4533238 7
2.0805614 -3.1067317 -1.2920598 4
2.1491191 -3.2091033 -1.8068317 1
2.2101264 -3.3252478 1.0480703 4
2.5702686 -3.8671002 0.89063972 10
