# .PCD v0.7 - Point Cloud Data file format
VERSION 0.7
FIELDS x y z intensity
SIZE 4 4 4 4
TYPE F F F F
COUNT 1 1 1 1
WIDTH 1390
HEIGHT 1
VIEWPOINT 0 0 0 1 0 0 0
POINTS 1390
DATA ascii
-8.0612898 9.9442081 -0.41616154 0
-16.306463 21.678741 -0.9634096 0
-14.940483 21.440601 -1.0048301 14
-14.170752 22.005562 -1.0841839 21
-12.557226 21.148783 -1.0906514 27
-11.936689 21.875256 -1.1795613 11
-17.411446 21.478331 -1.3880683 12
-16.132805 21.44787 -1.428597 20
-14.91659 21.406313 -1.4651028 12
-5.2079768 8.0873947 -0.56879008 0
-12.694252 21.37956 -1.5421059 2
-11.974559 21.944654 -1.6262624 4
-17.418425 21.486937 -1.8788973 16
-16.122337 21.433952 -1.9027635 19
-14.885823 21.362162 -1.9230093 3
-13.763322 21.372871 -1.9538101 2
-12.704866 21.397436 -1.9842792 5
-11.978063 21.951077 -2.0699677 3
-4.8061261 5.9287181 -0.65349436 0
-14.291436 18.999847 -2.1076212 1
-13.194912 18.935591 -2.1129882 1
-12.155739 18.876478 -2.1235061 1
-11.189168 18.844709 -2.1353879 0
-10.277351 18.834339 -2.1563361 0
-13.036463 16.081459 -2.1393182 1
-12.165317 16.173265 -2.1527965 1
-11.284849 16.194521 -2.1564932 1
-9.8345842 14.113293 -2.1843874 0
-8.6412659 12.4008 -2.1869349 0
-2.8486242 4.0879683 -0.81003714 0
-6.8091779 9.7716303 -2.1127138 1
-6.1757102 8.8625612 -2.1400399 1
-5.5638771 7.98454 -2.1005528 1
-3.8637004 5.5446711 -1.5786222 0
-4.7020063 6.7476969 -2.0664296 1
-3.3956432 4.8729773 -2.0524023 1
-2.4649713 3.5374002 -2.0170071 2
-4.315352 6.2414641 0.24562213 0
-4.1153617 6.4424429 0.22501948 0
-82.740311 140.52119 4.310039 15
-3.3009834 6.1024957 0.16326259 0
-79.473587 98.774582 2.6046913 17
-77.498322 103.82067 2.284025 6
-14.857544 21.489054 0.38258678 86
-14.070965 22.027563 0.3065789 50
-13.280884 22.555458 0.22888261 103
-12.520353 23.146254 0.15340561 36
-17.34433 21.556583 0.078712218 0
-77.079674 103.25983 -0.011244807 5
-14.870443 21.50771 -0.079408027 36
-14.06522 22.01857 -0.15641379 60
-13.286951 22.565763 -0.23355803 15
-12.519678 23.145006 -0.31323576 19
-17.380104 21.601046 -0.41085419 0
-3.3110263 4.4356184 -0.098452054 0
-14.858223 21.490036 -0.5413394 46
-14.08305 22.046482 -0.62016469 9
-12.597028 21.394039 -0.66096365 18
-11.883524 21.968954 -0.73955637 19
-28.628086 35.580715 -1.4846388 5
-16.066679 21.523737 -0.9538976 0
-14.864077 21.498501 -1.0049839 18
-14.089996 22.057358 -1.0841839 11
-12.487742 21.208435 -1.0913602 20
-11.86213 21.929403 -1.1801286 9
-17.277506 21.47353 -1.383656 11
-15.999126 21.433239 -1.4237067 19
-14.799426 21.404995 -1.4612904 20
-13.737859 21.506098 -1.5089818 5
-12.617838 21.429382 -1.5423535 5
-11.909235 22.016485 -1.6283396 4
-17.29952 21.500891 -1.87456 21
-15.993541 21.425756 -1.8968191 22
-14.768865 21.360792 -1.9180007 3
-13.639802 21.352594 -1.9473729 2
-12.638499 21.46447 -1.9861867 4
-11.905108 22.008858 -2.0712876 3
-15.252497 18.956726 -2.0833333 3
-14.212163 19.039333 -2.1062083 1
-13.136752 19.000204 -2.1148117 1
-12.07146 18.897415 -2.1208696 1
-11.130127 18.902742 -2.1373274 0
-10.204459 18.864883 -2.1555362 0
-12.984913 16.138435 -2.1405518 1
-4.0995588 5.4919767 -0.72902292 0
-11.232204 16.245583 -2.1577966 1
-9.7940769 14.165561 -2.1869068 0
-8.5957594 12.432386 -2.1869349 0
-7.6049771 10.999379 -2.174006 0
-6.7934785 9.825676 -2.1190016 1
-6.1454191 8.8883619 -2.1408174 1
-5.519012 7.9823651 -2.0946453 1
-5.0661378 7.3273549 -2.0808697 1
-4.679451 6.7680745 -2.0674043 1
-3.3627107 4.8636212 -2.0432572 2
-2.4622927 3.5613112 -2.0254819 1
-2.5244057 3.6785338 0.61788225 0
-4.2312527 7.2438254 0.22172679 0
-78.898697 98.763924 2.5971322 18
-5.5933571 7.5479622 0.16562247 0
-14.782436 21.540789 0.38258678 95
-13.981146 22.056274 0.30629742 255
-13.218203 22.629316 0.22916242 45
-12.460285 23.228588 0.1536621 6
-17.236525 21.576363 0.078564286 0
-5.5299249 7.4623637 -0.00081053091 0
-14.78848 21.549595 -0.079371586 47
-13.992563 22.074286 -0.15646169 132
-13.204061 22.605103 -0.23348668 70
-12.44827 23.206188 -0.31347382 4
-17.217228 21.552206 -0.40877977 0
-15.865661 21.409933 -0.47397837 1
-14.783112 21.541773 -0.5413394 41
-14.003872 22.092127 -0.62006992 12
-12.483947 21.372284 -0.65894109 22
-11.882371 22.151234 -0.74429178 21
-17.252447 21.596292 -0.89860743 0
-15.853412 21.393406 -0.94566333 10
-14.782151 21.540373 -1.0045228 16
-14.008642 22.099651 -1.0838529 14
-12.385412 21.203592 -1.0888795 19
-11.783627 21.967154 -1.1799394 3
-3.7127764 4.6475849 -0.29863223 0
-15.874275 21.421558 -1.4192417 25
-14.726871 21.45982 -1.4615146 16
-13.613541 21.476351 -1.5035514 8
-12.563088 21.507772 -1.5448296 5
-11.832315 22.05792 -1.6283396 4
-17.174547 21.498781 -1.8691382 25
-15.871146 21.417337 -1.8911577 20
-14.664863 21.369461 -1.9141706 2
-13.545972 21.369757 -1.9446142 1
-12.569525 21.518791 -1.9871407 3
-11.839522 22.071356 -2.0732675 3
-3.4999235 4.3811393 -0.48013923 0
-14.126642 19.063213 -2.1033826 1
-13.074852 19.052517 -2.115541 1
-12.018219 18.959614 -2.1231296 1
-11.070095 18.951796 -2.1384912 0
-10.140431 18.903893 -2.155936 0
-3.5512404 4.4453769 -0.5879733 0
-4.0211601 5.4263592 -0.71844512 0
-11.186674 16.301086 -2.1599686 0
-9.7647734 14.229111 -2.1914418 0
-8.5545464 12.465582 -2.1875076 0
-7.5710006 11.032372 -2.1752899 0
-6.7502222 9.8363428 -2.1162071 1
-6.1054721 8.896821 -2.1377079 1
-5.4977493 8.0112543 -2.097177 1
-5.0537519 7.3642664 -2.086329 0
-4.0148282 5.850359 -1.7827828 0
-3.3414333 4.8690963 -2.0406444 1
-2.4457455 3.5639107 -2.0220921 2
-3.2182906 4.7249203 0.2862016 0
-4.4215384 7.0294461 0.24443801 0
-78.454033 98.913422 2.5938456 15
-15.750588 21.410475 0.46859387 7
-14.707159 21.592255 0.38258678 80
-13.893415 22.088018 0.30606285 118
-13.135125 22.668394 0.22909246 68
-12.362214 23.240162 0.15345225 5
-17.118841 21.583126 0.078370832 0
-15.764888 21.429913 -0.002321637 19
-14.73569 21.634144 -0.079493061 42
-13.923938 22.136543 -0.15655747 115
-13.155158 22.702967 -0.2340218 12
-12.354034 23.224783 -0.31314054 30
-17.104605 21.565176 -0.40789071 0
-15.755285 21.416861 -0.47291133 20
-14.719089 21.60977 -0.54175371 39
-13.924535 22.137491 -0.61997509 13
-12.379202 21.363832 -0.65734428 20
-11.896976 22.365545 -0.75009269 20
-17.094967 21.553024 -0.89431846 0
-15.757323 21.41963 -0.94438559 23
-14.709125 21.595142 -1.0046765 16
-13.922896 22.134888 -1.0831907 12
-12.289289 21.20866 -1.0869303 20
-12.342969 23.203981 -1.2440522 7
-17.012972 21.44965 -1.3744303 9
-15.763904 21.428576 -1.4160523 22
-14.645132 21.50119 -1.4608418 15
-13.521477 21.496702 -1.5016625 6
-12.485939 21.548038 -1.544582 7
-11.766489 22.120237 -1.6298976 3
-17.044834 21.489819 -1.8631743 21
-15.758465 21.421181 -1.8866287 21
-14.552008 21.364471 -1.9091619 2
-13.424574 21.342644 -1.9378706 1
-12.498336 21.569433 -1.9877765 3
-11.766145 22.119591 -2.0739274 3
-15.169313 19.125196 -2.0901582 1
-14.078906 19.138083 -2.1062083 1
-12.988088 19.068407 -2.1122589 1
-3.941581 6.2664008 -0.70017701 0
-10.989905 18.966208 -2.1357758 0
-10.063163 18.918095 -2.1535361 0
-3.8348751 4.8349414 -0.63772494 0
-11.954731 16.250597 -2.1460268 2
-11.127469 16.336748 -2.1595342 1
-9.7195158 14.269668 -2.1924496 0
-8.5221262 12.511724 -2.1903715 0
-7.5346689 11.061994 -2.1759317 0
-6.7335854 9.8858852 -2.1217964 0
-6.0876341 8.9375353 -2.1423721 1
-5.4829597 8.0497847 -2.1022406 1
-5.0192447 7.3689837 -2.0826895 1
-4.6233511 6.7877536 -2.0635054 1
-3.341444 4.9057274 -2.0510957 1
-2.4353304 3.5754204 -2.023787 3
-2.2974391 3.3971319 1.0765063 0
-28.300047 53.630417 1.4269245 2
-5.8429017 7.417007 0.19398998 0
-15.644107 21.41415 0.46753624 16
-14.63548 21.640903 0.38258678 71
-13.870937 22.215391 0.30718878 15
-13.083803 22.753439 0.22951218 15
-12.288816 23.288101 0.15349887 25
-17.071934 21.671194 0.078484632 0
-15.644178 21.414249 -0.0023143066 22
-14.650428 21.663006 -0.079420172 36
-13.84834 22.179199 -0.15653352 178
-13.083782 22.753403 -0.23409314 5
-12.282555 23.276234 -0.31328338 31
-2.9551592 3.7512932 -0.07076744 0
-15.648783 21.420551 -0.47184429 23
-14.64287 21.651831 -0.54158801 36
-13.867995 22.21068 -0.6207335 9
-12.316256 21.418633 -0.6577701 17
-11.796625 22.355368 -0.74843532 21
-3.4338739 4.3589759 -0.18039733 0
-15.667336 21.445948 -0.94324982 22
-14.641915 21.650417 -1.0049839 19
-13.847305 22.177542 -1.0830251 13
-12.210917 21.235443 -1.0862215 23
-12.200694 23.121103 -1.2374328 5
-16.917034 21.474562 -1.3724247 7
-15.638556 21.406553 -1.411162 22
-14.520061 21.470236 -1.4554595 14
-13.469153 21.571903 -1.5037874 9
-12.408438 21.578943 -1.5438392 6
-1.4213504 2.6935508 -0.19812201 0
-16.921621 21.480387 -1.8574815 21
-15.64497 21.415333 -1.8815336 24
-14.449799 21.366343 -1.9050373 2
-13.332606 21.353212 -1.9348053 1
-12.436673 21.628046 -1.9893662 3
-11.694593 22.16201 -2.0742574 3
-15.056489 19.112778 -2.0833333 1
-2.8721731 3.9315217 -0.43162611 0
-12.924788 19.11137 -2.1122589 1
-11.903649 19.064625 -2.125766 1
-4.6319456 8.0552034 -0.90535796 0
-10.000377 18.951359 -2.1535361 0
-12.81312 16.265036 -2.1397295 1
-11.950045 16.357601 -2.1549122 1
-11.062099 16.357086 -2.157362 0
-3.2944427 4.8713613 -0.74677324 0
-5.1872659 7.6702042 -1.3397697 0
-4.7088881 6.9628453 -1.3665365 0
-6.7029738 9.9114218 -2.1224949 0
-6.064559 8.9674225 -2.1447041 1
-5.4518561 8.0614433 -2.1005528 1
-4.990418 7.3791332 -2.0808697 0
-4.607338 6.8126879 -2.0664296 1
-3.3251586 4.91678 -2.0510957 1
-2.4396987 3.6074858 -2.0373468 1
-2.5747204 3.8359256 0.6398319 0
-27.519405 52.595066 1.3968127 19
-78.407188 100.24842 2.6147976 9
-15.541091 21.429773 0.46669015 17
-14.564303 21.698505 0.38270393 62
-13.797525 22.270472 0.3072826 9
-13.010248 22.809391 0.2296171 7
-12.220426 23.355667 0.1536621 16
-16.83107 21.51956 0.077722199 0
-15.548203 21.439579 -0.002311165 24
-14.585861 21.730623 -0.079480909 23
-13.777161 22.2376 -0.15660536 47
-13.008245 22.805882 -0.23416449 6
-12.217913 23.350864 -0.31371188 42
-6.7883887 8.6793728 -0.16328669 0
-15.548093 21.439428 -0.4710618 25
-14.578341 21.719419 -0.54200232 36
-13.773538 22.231754 -0.61997509 8
-12.243401 21.464966 -0.65787655 19
-11.677732 22.318472 -0.74583083 20
-28.602751 36.570381 -1.5093329 0
-15.554834 21.448723 -0.94097829 22
-14.564019 21.698082 -1.0048301 13
-13.780336 22.242727 -1.0838529 9
-12.142661 21.288349 -1.0867531 22
-11.590135 22.151056 -1.1833436 19
-16.787817 21.464258 -1.3680124 6
-15.519187 21.39957 -1.4071223 23
-14.489535 21.587114 -1.4599447 13
-13.372747 21.584841 -1.5014263 8
-12.342933 21.639462 -1.5450772 5
-11.632302 22.231646 -1.6322346 4
-16.80965 21.492174 -1.8534153 21
-15.518592 21.398748 -1.8753061 22
-14.343998 21.370287 -1.9009125 1
-13.23909 21.369104 -1.9320465 1
-12.367032 21.681713 -1.9903201 3
-11.622701 22.213297 -2.0752473 3
-14.999496 19.17778 -2.0846982 1
-13.971702 19.265726 -2.1097405 1
-12.904612 19.225828 -2.1199172 1
-3.1731808 5.1218052 -0.56985897 0
-10.856607 19.033657 -2.135 0
-2.535203 4.8452778 -0.54958373 0
-12.741554 16.290863 -2.1372626 1
-11.883537 16.386333 -2.1532197 1
-10.996067 16.382399 -2.1556244 0
-9.5911999 14.28937 -2.1853952 0
-8.4257336 12.553009 -2.1875076 0
-7.4547973 11.106467 -2.174648 0
-6.6683335 9.934761 -2.1224949 0
-6.037591 8.9950542 -2.1462588 1
-5.4302187 8.0901661 -2.1030846 1
-4.9667993 7.399744 -2.0817797 0
-4.5856891 6.8319507 -2.0674043 1
-3.3079743 4.9283581 -2.0510957 2
-2.4048791 3.5828893 -2.0187023 2
-9.1518221 13.738153 0.53433812 0
-8.0655003 13.120544 0.45333424 0
-79.473007 140.46814 4.2656517 4
-27.295143 52.612705 1.3947425 10
-3.3848162 4.3589635 0.11338677 0
-15.431138 21.435209 0.46563253 18
-14.492911 21.755867 0.38282108 68
-13.728075 22.332132 0.30747026 10
-12.930543 22.85467 0.2296171 8
-12.151724 23.423035 0.15382531 7
-16.760761 21.584494 0.077744961 0
-15.421851 21.422308 -0.0023034855 32
-14.503269 21.771416 -0.079444468 13
-13.726678 22.329859 -0.15691665 11
-12.908857 22.816341 -0.23380776 65
-12.130808 23.382717 -0.31356904 45
-7.2977157 9.3979921 -0.1763259 0
-15.419413 21.418921 -0.46942565 22
-14.493572 21.756859 -0.54167086 30
-13.716787 22.313768 -0.6209231 8
-12.168394 21.507574 -0.65787655 21
-11.548206 22.259724 -0.74251604 22
-28.641668 36.884716 -1.5181708 0
-15.419141 21.418543 -0.93728709 21
-14.501489 21.768744 -1.0057523 13
-4.0938287 6.6596313 -0.3238149 0
-12.080077 21.351475 -1.0878162 15
-11.488828 22.145269 -1.1808851 24
-16.661343 21.456463 -1.3638008 4
-15.423387 21.424442 -1.4052087 22
-14.420741 21.64753 -1.4606175 17
-13.265949 21.580368 -1.4978846 9
-12.277145 21.699793 -1.5463153 5
-11.560147 22.282742 -1.6330136 4
-16.688026 21.490828 -1.8482646 20
-15.401836 21.394506 -1.870211 24
-14.233932 21.367104 -1.8961985 1
-13.124727 21.350637 -1.9262226 1
-12.291267 21.724754 -1.9903201 3
-11.552439 22.267883 -2.0765672 3
-14.952022 19.255201 -2.0874283 1
-13.890395 19.294981 -2.1076212 1
-12.791049 19.201136 -2.1122589 1
-11.747324 19.109947 -2.121623 1
-10.774413 19.04372 -2.131897 0
-3.6014638 6.9419951 -0.78597671 0
-8.0822325 10.408292 -1.3617955 0
-11.833233 16.437403 -2.154489 1
-10.954248 16.443844 -2.1586654 0
-9.5566645 14.345877 -2.1889224 0
-8.3818665 12.582341 -2.1875076 0
-7.4269295 11.148849 -2.1778574 0
-6.6401658 9.9678087 -2.1245909 0
-5.9974556 9.0030117 -2.1431494 1
-5.4084501 8.1188326 -2.1056163 1
-4.9582162 7.4429693 -2.0890586 0
-4.5682669 6.8576012 -2.0703285 1
-3.2865601 4.9335818 -2.0484829 1
-2.4003932 3.6033227 -2.0254819 2
-5.204742 7.8754497 1.8106661 0
-78.738571 140.36787 4.2538147 12
-26.732756 51.994015 1.3757343 4
-77.648766 100.75624 2.613483 7
-15.312955 21.436296 0.46443391 17
-14.421889 21.822189 0.38305536 21
-13.652383 22.39254 0.30761099 8
-12.827127 22.867022 0.22926734 56
-12.067616 23.470974 0.15384863 15
-16.627815 21.576082 0.077494606 0
-15.329285 21.459156 -0.002301391 29
-14.41896 21.817755 -0.079420172 13
-13.636419 22.366356 -0.15682086 9
-12.838848 22.887917 -0.23405747 15
-12.04319 23.423468 -0.31352144 38
-8.3154697 10.790069 -0.20187093 0
-15.315238 21.439491 -0.46864316 22
-14.42475 21.826519 -0.54208517 28
-13.320584 21.848326 -0.60660869 6
-12.111008 21.590389 -0.65904754 20
-11.455568 22.280569 -0.74180567 22
-6.5524659 8.5024118 -0.34896743 0
-15.301038 21.419613 -0.93487358 19
-14.428211 21.831755 -1.0062134 13
-6.1144929 10.028947 -0.48655012 0
-12.015429 21.420002 -1.0890566 18
-11.380174 22.13393 -1.1780483 25
-16.538689 21.46043 -1.3601906 2
-15.30297 21.422319 -1.4013815 25
-14.365518 21.736891 -1.4630845 18
-13.17014 21.601568 -1.4959958 12
-12.203394 21.755087 -1.5470581 5
-3.7780693 7.348176 -0.53750008 0
-16.548239 21.472826 -1.8414874 23
-15.26998 21.376137 -1.8637005 24
-14.120326 21.365885 -1.8914845 1
-13.03601 21.381569 -1.9246899 1
-12.217418 21.780088 -1.9912739 3
-11.49079 22.349075 -2.0801971 4
-14.910535 19.347757 -2.0915232 1
-13.821902 19.349001 -2.1079743 1
-12.718388 19.24457 -2.1118941 1
-11.666843 19.135872 -2.1197398 1
-2.7111952 4.8332691 -0.53995639 0
-9.7780237 19.01782 -2.1491363 0
-12.619796 16.375317 -2.13644 2
-8.0805826 11.311844 -1.4787784 0
-10.880747 16.463982 -2.1560588 0
-9.5368338 14.430466 -2.1964808 0
-8.3313246 12.606375 -2.186362 0
-7.3881912 11.179292 -2.1784992 0
-6.6014132 9.9887953 -2.1238923 1
-5.9752326 9.0413017 -2.1470361 1
-5.3657198 8.11903 -2.1005528 1
-4.9244585 7.4513445 -2.086329 1
-4.5281277 6.8516445 -2.0635054 1
-3.2538629 4.9235168 -2.0393379 2
-2.3751838 3.5939612 -2.0153122 1
-3.2464859 4.9498286 0.81981891 0
-78.12178 140.41473 4.2469454 14
-26.932486 52.835178 1.3954953 8
-3.4653223 4.5291758 0.11716633 0
-15.203329 21.440685 0.46337628 17
-14.343439 21.869051 0.3829968 22
-13.561707 22.419529 0.30732951 8
-12.760845 22.936123 0.22951218 43
-11.974718 23.491571 0.15370873 25
-16.486778 21.548216 0.077187359 0
-15.201065 21.437492 -0.0022933625 32
-14.333942 21.854572 -0.079371586 13
-13.562397 22.420668 -0.15686876 11
-12.76666 22.946573 -0.23420016 9
-11.776079 23.101889 -0.30866507 21
-16.506908 21.574528 -0.40255648 0
-15.184781 21.414528 -0.4669359 26
-14.337513 21.860016 -0.54167086 22
-13.049677 21.573065 -0.59769773 24
-12.035573 21.632532 -0.65904754 20
-11.38136 22.327541 -0.74204248 21
-15.196112 21.430506 -0.93302798 21
-14.332192 21.851904 -1.0048301 15
-12.839441 21.225513 -1.0275661 15
-11.95419 21.486256 -1.0902971 18
-11.320992 22.209116 -1.1799394 21
-16.432123 21.476782 -1.3575834 2
-15.181886 21.410442 -1.3971291 26
-14.300511 21.8036 -1.4642057 11
-13.073983 21.613247 -1.4936347 14
-12.140971 21.821972 -1.5487913 4
-11.407651 22.379118 -1.6340523 4
-16.431965 21.476576 -1.836879 24
-15.151416 21.367474 -1.8583223 20
-14.032537 21.395027 -1.8897169 1
-12.924133 21.365522 -1.9191724 1
-12.164584 21.864412 -1.9950892 2
-11.414522 22.392599 -2.0805271 5
-14.821116 19.371197 -2.0884521 2
-13.751968 19.393885 -2.1076212 1
-12.677354 19.328815 -2.1162703 1
-11.604093 19.183298 -2.1204929 1
-10.659163 19.158596 -2.1361637 0
-9.7206211 19.069565 -2.1511362 0
-12.579487 16.441387 -2.1393182 1
-11.724511 16.534637 -2.1561816 1
-10.829757 16.511835 -2.157362 0
-9.4581156 14.420531 -2.1899302 0
-8.3024702 12.658549 -2.1903715 0
-7.3556218 11.214916 -2.1804247 0
-6.5621881 10.00519 -2.1224949 1
-5.9543972 9.0785074 -2.1509228 1
-5.3352046 8.1344404 -2.0997088 1
-4.8984199 7.4684877 -2.086329 0
-4.5212059 6.8933597 -2.0713031 1
-3.2698331 4.9854255 -2.0602407 1
-2.3685858 3.6113183 -2.0203972 1
-3.9525516 7.1629906 0.21623118 0
-26.168936 51.783203 1.3652893 9
-78.225578 102.98368 2.6570299 6
-15.098474 21.451105 0.46245968 17
-14.2561 21.902229 0.38270393 28
-13.49572 22.487305 0.30761099 7
-12.694226 23.005043 0.22975701 34
-11.919711 23.586775 0.1540585 6
-4.3309035 5.7016187 0.020369362 0
-15.082402 21.42827 -0.0022867303 30
-14.294659 21.961468 -0.079578094 12
-13.461414 22.430143 -0.15660536 90
-12.705801 23.02602 -0.23455691 10
-11.630428 23.014339 -0.30695105 22
-16.354086 21.530094 -0.40065989 0
-15.075413 21.418341 -0.46586886 25
-14.272021 21.926689 -0.54208517 19
-12.894044 21.48476 -0.59400064 21
-12.00055 21.747934 -0.66128302 18
-11.296144 22.352859 -0.74156892 23
-16.424629 21.622963 -0.88275117 0
-15.086703 21.434381 -0.93089843 21
-14.271085 21.925251 -1.005906 12
-12.69741 21.157116 -1.022103 21
-11.890695 21.548847 -1.0913602 18
-11.21457 22.191439 -1.1769135 19
-16.359474 21.537188 -1.3577839 5
-15.03579 21.362047 -1.3905379 26
-14.270061 21.923677 -1.4689152 9
-12.975862 21.621088 -1.4910375 15
-12.066648 21.867718 -1.549039 4
-11.33847 22.436613 -1.6353506 6
-16.323105 21.489307 -1.8330837 15
-14.998657 21.309292 -1.848698 4
-13.925121 21.393734 -1.8852974 1
-12.826903 21.372887 -1.9158006 0
-12.076625 21.885798 -1.9931816 2
-11.330899 22.421631 -2.0795372 4
-14.74859 19.416464 -2.0877695 2
-13.686483 19.445024 -2.1079743 1
-12.583725 19.332891 -2.1118941 0
-11.524769 19.203197 -2.1182332 1
-10.584524 19.181747 -2.1346121 1
-9.6611805 19.117586 -2.1527362 0
-3.5955987 4.7335925 -0.61428821 0
-11.659857 16.565701 -2.1549122 0
-10.776387 16.556204 -2.158231 0
-9.4380226 14.50002 -2.1969848 0
-8.2517509 12.677502 -2.1886532 0
-7.3207335 11.247143 -2.1817086 0
-6.5358148 10.04124 -2.1252894 0
-5.9119668 9.0827961 -2.1470361 1
-5.3302374 8.1890612 -2.1089921 1
-4.8659439 7.4757485 -2.0835993 0
-4.4780674 6.879838 -2.0625305 1
-3.2317853 4.9651237 -2.0471766 2
-2.3559647 3.6195648 -2.0203972 1
-4.1447501 6.4141688 1.4648085 0
-5.1069846 7.9032664 0.80388552 0
-77.665375 141.85867 4.274529 5
-25.907471 51.690956 1.3605844 16
-2.4541841 3.253267 0.083725445 0
-14.974566 21.425657 0.46083802 16
-14.185567 21.95274 0.38276249 26
-13.412882 22.518194 0.30742335 11
-12.612111 23.036486 0.22965209 57
-11.846799 23.636902 0.15412845 3
-16.219275 21.500275 0.076618388 0
-14.979184 21.432264 -0.0022818435 26
-14.173998 21.934835 -0.079310849 96
-13.407423 22.509029 -0.15684481 9
-12.621696 23.053993 -0.2344142 15
-11.500275 22.945513 -0.30552271 24
-3.2613361 4.3232279 -0.080250517 0
-14.979107 21.432154 -0.46508637 24
-14.194896 21.967176 -0.54191947 19
-12.80635 21.499918 -0.59324223 22
-11.961014 21.847233 -0.66309273 20
-11.225535 22.397348 -0.74180567 19
-2.6484261 3.5107543 -0.14296618 0
-14.988066 21.444971 -0.92919481 11
-14.191796 21.962381 -1.0054449 13
-12.594451 21.144171 -1.0194541 24
-11.865232 21.672283 -1.095613 17
-11.094366 22.135637 -1.1719962 27
-16.263899 21.559429 -1.3557783 5
-14.951142 21.392143 -1.3892621 23
-14.20162 21.977583 -1.4693637 9
-12.897955 21.653709 -1.4903291 17
-11.99407 21.90761 -1.549039 4
-11.289038 22.52405 -1.6389858 19
-16.177244 21.444559 -1.8246801 21
-14.932487 21.36545 -1.8492641 2
-1.8770916 2.9048755 -0.2554388 0
-12.735543 21.381044 -1.9127353 5
-12.01356 21.943211 -1.9947712 2
-11.265409 22.476904 -2.081187 5
-14.686517 19.468451 -2.0881107 2
-13.628778 19.500099 -2.1090341 1
-12.539007 19.404623 -2.1151762 1
-2.7063005 4.543468 -0.50018024 0
-10.518949 19.213247 -2.1342244 0
-9.603076 19.160194 -2.1539361 0
-5.3314819 7.0674138 -0.91485357 0
-11.59119 16.584713 -2.1523736 0
-10.712797 16.578487 -2.1564932 1
-9.3791227 14.514572 -2.1944652 0
-8.2096682 12.704795 -2.1886532 0
-7.285542 11.274672 -2.1823504 0
-6.504621 10.066165 -2.1259882 0
-5.8839459 9.1056452 -2.1478136 1
-5.2966881 8.1968393 -2.1064603 1
-4.8516979 7.5081997 -2.0881486 0
-4.4699683 6.9174576 -2.0693538 1
-3.2235112 4.9885144 -2.0524023 1
-2.3498487 3.6364865 -2.0254819 2
-4.8518882 8.2139072 0.28080359 0
-77.698013 143.16154 4.3051777 3
-25.676941 51.703182 1.35842 10
-77.56942 103.61372 2.6592484 5
-14.889092 21.470541 0.46062648 26
-14.100688 21.997854 0.38264537 24
-13.322125 22.553425 0.30723569 32
-12.527588 23.082558 0.22965209 15
-11.751196 23.662251 0.15401186 21
-5.0389204 6.730763 0.023919776 0
-14.884569 21.464016 -0.0022793999 47
-14.091342 21.983273 -0.079298697 249
-13.337044 22.57868 -0.15698849 6
-12.527569 23.082523 -0.23423584 62
-11.378743 22.912279 -0.30452287 26
-47.181557 63.022991 -1.1666552 7
-14.898169 21.483627 -0.46501523 35
-14.129388 22.042627 -0.54249948 15
-12.674588 21.45719 -0.59077752 25
-11.917093 21.957699 -0.66511536 19
-11.125589 22.402527 -0.74062186 21
-28.629171 38.241554 -1.5530026 9
-14.882023 21.460346 -0.92749113 10
-14.119827 22.027714 -1.0060596 8
-12.529068 21.210835 -1.0204474 16
-11.825743 21.789381 -1.0993341 15
-11.032714 22.215513 -1.1740767 26
-16.117739 21.529346 -1.3501627 3
-14.877183 21.453367 -1.3896874 23
-14.099416 21.995869 -1.4671211 8
-12.804293 21.676769 -1.4886764 18
-11.927019 21.975986 -1.5507722 4
-11.204637 22.561697 -1.6387261 11
-16.067448 21.462172 -1.821156 30
-14.797231 21.338072 -1.8421875 4
-13.706538 21.382957 -1.8758695 1
-12.657096 21.427576 -1.9127353 4
-11.931147 21.983593 -1.9944533 2
-11.195368 22.543032 -2.0834968 4
-5.6415734 7.5357594 -0.80603325 0
-13.575373 19.576115 -2.1118598 1
-12.44845 19.420271 -2.1118941 0
-11.40865 19.314047 -2.121623 1
-5.581244 10.283655 -1.1400373 0
-9.5044661 19.138227 -2.1475363 0
-12.387551 16.546732 -2.136029 1
-11.530322 16.627089 -2.1523736 1
-10.639083 16.597559 -2.1538866 0
-4.9359584 7.7003684 -1.1614794 0
-8.1715899 12.748133 -2.1909444 0
-7.2441664 11.301301 -2.1823504 0
-6.4740562 10.099887 -2.1280842 0
-5.8462954 9.1205444 -2.1462588 1
-5.2792673 8.2359495 -2.1115239 1
-4.849369 7.5652843 -2.0990672 0
-4.4529572 6.9468598 -2.0732527 1
-3.2052042 5.0002961 -2.0524023 2
-2.3286827 3.632874 -2.0187023 2
-3.8481526 6.0497055 0.61253285 0
-6.3513274 9.9849634 0.38305664 0
-2.3792491 4.0602031 0.1385188 0
-25.480396 51.760212 1.3575732 3
-2.4809372 3.3381507 0.085450895 0
-14.825398 21.538851 0.46097904 21
-14.03026 22.057062 0.38282108 75
-13.243313 22.599794 0.30723569 7
-12.481065 23.189543 0.23028165 4
-11.675588 23.717484 0.15410513 27
-15.976725 21.497004 0.076197341 1
-14.816363 21.525724 -0.0022804472 55
-14.029552 22.05595 -0.079383731 200
-13.248031 22.607845 -0.15686876 70
-12.511376 23.245861 -0.23544876 4
-11.279257 22.912388 -0.30399916 27
-15.922549 21.424109 -0.39556271 0
-14.811753 21.519028 -0.46465957 40
-14.039485 22.071566 -0.54200232 12
-12.56928 21.449553 -0.58935553 23
-11.910497 22.129438 -0.66905409 17
-11.042019 22.43047 -0.74026668 22
-15.89681 21.389475 -0.86637503 2
-14.818361 21.528627 -0.92820096 10
-14.032129 22.060001 -1.0052912 12
-12.424639 21.202721 -1.0179641 17
-11.781812 21.890345 -1.1023465 6
-11.013328 22.372187 -1.1803176 13
-15.899502 21.393097 -1.3381292 12
-14.790888 21.488712 -1.3886243 26
-13.78463 21.670904 -1.4422281 8
-12.748732 21.755787 -1.4910375 15
-11.861593 22.038578 -1.5522579 4
-11.136385 22.622162 -1.6402841 4
-15.947198 21.457273 -1.8160053 33
-14.713613 21.376444 -1.8410553 3
-13.595421 21.373449 -1.8708609 1
-12.582217 21.47163 -1.9127353 5
-11.873239 22.060215 -1.9976327 2
-11.120125 22.58913 -2.0841568 5
-14.549205 19.576246 -2.0884521 3
-13.493408 19.603689 -2.1097405 1
-12.374175 19.45352 -2.1108 1
-11.359279 19.384678 -2.1250129 1
-10.384967 19.295038 -2.135 0
-9.4745121 19.246275 -2.155936 0
-12.343954 16.609037 -2.1384959 1
-11.478982 16.677061 -2.1536429 0
-10.598159 16.661434 -2.157362 0
-9.2771473 14.584663 -2.1949692 0
-8.1376667 12.793279 -2.1938083 0
-7.2046757 11.326517 -2.1823504 0
-6.4366498 10.119099 -2.1273854 0
-5.8228488 9.1541386 -2.149368 1
-5.2609806 8.2708216 -2.1157436 1
-4.7936654 7.5361524 -2.086329 0
-4.4349284 6.9721799 -2.0761769 1
-3.1857026 5.0082636 -2.0510957 1
-2.3198776 3.6470945 -2.0220921 1
-3.3528242 5.3118477 1.2048502 0
-5.5959277 8.8655758 1.4519684 0
-3.0727575 4.8681407 0.2882016 0
-4.8185391 8.2890596 0.28221586 0
-77.579689 145.35495 4.354744 7
-25.483706 52.226189 1.3674536 1
-15.786711 21.396927 0.5463106 3
-14.747862 21.587172 0.46090853 24
-13.95105 22.102518 0.38276249 187
-13.18244 22.677004 0.3076579 5
-12.39062 23.215328 0.23010677 4
-11.606764 23.78685 0.15429167 23
-15.787604 21.398138 0.075651124 14
-14.741129 21.577314 -0.0022804472 47
-13.958887 22.114935 -0.079420172 142
-13.18713 22.685072 -0.15708427 16
-12.386833 23.208235 -0.23462826 4
-11.23254 23.019917 -0.30490378 23
-9.8947039 13.411043 -0.24697481 0
-14.750078 21.590416 -0.46508637 32
-13.968763 22.130581 -0.54225093 11
-12.468208 21.448351 -0.5881232 21
-11.978145 22.442507 -0.67725092 16
-10.961905 22.465281 -0.74014831 20
-15.786453 21.396578 -0.86442548 20
-14.756646 21.600029 -0.92905283 9
-13.972112 22.135885 -1.0065207 9
-12.338505 21.225229 -1.0169709 22
-12.371403 23.179323 -1.1650745 6
-11.024531 22.593624 -1.189963 8
-15.798644 21.413101 -1.3359231 22
-14.720289 21.54681 -1.3890495 22
-13.632163 21.597307 -1.4341546 7
-12.756999 21.945141 -1.5009542 17
-11.799624 22.108027 -1.5542387 4
-11.062608 22.671658 -1.6410631 5
-15.824821 21.44858 -1.8105836 34
-14.614141 21.391438 -1.8379415 3
-13.486668 21.3668 -1.8661469 1
-12.539265 21.570585 -1.9176397 4
-11.794278 22.098011 -1.9973148 2
-11.053448 22.652885 -2.0864666 5
-14.542307 19.710291 -2.0973246 2
-13.422644 19.647383 -2.1093872 1
-12.318954 19.516804 -2.1129882 1
-5.4356332 9.3506117 -1.022959 0
-10.323169 19.341709 -2.1361637 0
-9.4090214 19.282806 -2.1563361 0
-12.283545 16.648819 -2.1380849 1
-4.3461466 6.3616686 -0.81956899 0
-3.7142348 5.8844275 -0.7602464 0
-9.2452459 14.647157 -2.1995041 0
-8.0950756 12.824953 -2.1943812 0
-7.1714191 11.361612 -2.1842759 0
-6.4075971 10.151497 -2.1294813 1
-5.7971444 9.1843615 -2.1517003 1
-5.2195578 8.2692966 -2.1106799 1
-2.8691311 4.5455375 -1.2556188 0
-4.4043536 6.9777765 -2.0732527 1
-3.1581123 5.0033674 -2.0445638 3
-2.3071334 3.6551697 -2.0220921 2
-5.7852988 10.931141 0.3268832 0
-24.906013 51.497643 1.3460931 4
-15.678838 21.406738 0.54516029 14
-14.679157 21.648449 0.46112004 26
-13.890792 22.178202 0.38323107 15
-13.125186 22.760992 0.30817395 6
-12.309512 23.258436 0.23010677 28
-11.525397 23.830824 0.15431498 28
-15.686809 21.417622 0.075525954 22
-14.667969 21.631948 -0.0022807962 43
-13.875232 22.153358 -0.079383731 160
-13.115863 22.744823 -0.15718006 6
-12.302009 23.244259 -0.23455691 31
-11.284459 23.332642 -0.30852222 16
-15.678061 21.405678 -0.39319196 20
-14.674628 21.641769 -0.46508637 31
-13.887177 22.17243 -0.54208517 9
-12.373292 21.457098 -0.58717519 22
-11.888515 22.462975 -0.6766122 22
-10.899082 22.535805 -0.7412138 21
-15.688039 21.419302 -0.8631258 28
-14.667702 21.631554 -0.92820096 11
-13.903239 22.198076 -1.0071355 9
-12.242383 21.230082 -1.0151498 25
-11.942738 22.565428 -1.1321157 4
-11.027354 22.801029 -1.1988518 15
-15.686027 21.416553 -1.3327141 24
-14.627058 21.571613 -1.3873485 19
-13.783515 22.006924 -1.4581506 6
-12.696281 22.017208 -1.502843 10
-11.718651 22.142023 -1.5537435 3
-10.992085 22.728106 -1.6423614 5
-15.700328 21.436079 -1.8048909 35
-14.49684 21.379572 -1.8325633 3
-13.384469 21.369801 -1.8623168 1
-12.451943 21.593491 -1.9158006 4
-11.728266 22.160191 -1.9992224 2
-10.988186 22.720043 -2.0891066 4
-14.461637 19.744862 -2.0956182 1
-5.7087603 8.4191351 -0.90175241 0
-12.267664 19.586699 -2.1159058 0
-11.241584 19.494551 -2.1284025 1
-10.277943 19.419851 -2.1408186 0
-9.3468485 19.326284 -2.157536 0
-12.230051 16.698017 -2.1389072 1
-3.7167363 5.481348 -0.70448238 0
-10.475249 16.724907 -2.1560588 0
-9.1856327 14.66589 -2.1974885 0
-4.8604136 7.7601933 -1.324877 0
-7.1359048 11.39327 -2.1855597 0
-6.3763018 10.180479 -2.1308787 1
-5.7463026 9.1746149 -2.1447041 1
-5.1968851 8.2974081 -2.1132119 1
-3.2212729 5.1431227 -1.4175755 0
-4.3985009 7.0226984 -2.0820253 1
-3.1586878 5.0431986 -2.0563216 1
-2.2982059 3.6693425 -2.0254819 2
-27.613228 52.617794 1.5705824 6
-24.720926 51.573441 1.3458108 14
-15.585208 21.435457 0.54450297 11
-14.596796 21.689606 0.46090853 25
-13.80485 22.212963 0.3829968 7
-13.047635 22.810143 0.30822086 6
-12.231961 23.30835 0.23017673 42
-11.464624 23.917799 0.15461811 6
-15.569616 21.414013 0.075321123 27
-14.612465 21.712889 -0.0022839378 33
-13.797821 22.201653 -0.079383731 180
-13.034396 22.786999 -0.15715611 6
-12.241235 23.326023 -0.23494932 13
-11.389666 23.761417 -0.31366429 37
-15.582082 21.431158 -0.39265853 25
-14.605688 21.702818 -0.46529979 29
-13.837143 22.264925 -0.54316241 7
-12.302283 21.507103 -0.58736479 22
-11.76543 22.419363 -0.67405736 20
-10.8169 22.5665 -0.74097699 22
-15.570863 21.415726 -0.86078638 19
-14.592098 21.682627 -0.92820096 11
-13.827783 22.249865 -1.0072892 9
-12.172164 21.279625 -1.0154809 36
-11.678198 22.253138 -1.114396 17
-11.021964 22.99431 -1.206984 7
-15.561842 21.40332 -1.3285023 22
-14.538284 21.602661 -1.3860729 19
-13.472621 21.678385 -1.4332576 7
-12.526161 21.898491 -1.4917458 15
-11.644993 22.189867 -1.5542387 3
-10.921313 22.78433 -1.6436597 5
-15.5949 21.448788 -1.8013667 33
-14.386476 21.377087 -1.8280343 2
-13.28453 21.375732 -1.8587813 1
-12.384408 21.650675 -1.9170266 4
-11.660099 22.218651 -2.0008121 2
-10.912263 22.765448 -2.0897665 5
-2.6694682 3.6715117 -0.38868412 0
-13.278478 19.730698 -2.1083276 1
-12.184505 19.605715 -2.1133528 0
-11.191257 19.564785 -2.1317923 1
-10.248937 19.52964 -2.1489644 0
-9.2862148 19.373144 -2.1591361 0
-10.859059 14.935246 -1.9082407 0
-11.297047 16.786457 -2.1523736 0
-10.414709 16.757992 -2.1556244 0
-9.1301966 14.691121 -2.1964808 0
-8.0032539 12.877792 -2.1938083 0
-7.0940094 11.414755 -2.1849179 0
-6.3303332 10.185946 -2.1273854 0
-5.7183857 9.2012806 -2.1462588 1
-5.1678915 8.3154964 -2.1132119 1
-4.7329907 7.6157117 -2.0945177 1
-4.3616753 7.018239 -2.0761769 1
-3.1350787 5.0445595 -2.0524023 2
-2.2796466 3.6681099 -2.0203972 2
-27.357361 52.553009 1.5659323 2
-26.837881 56.469597 1.4712453 4
-15.474237 21.431908 0.5431062 13
-14.527017 21.741213 0.46097904 25
-13.735306 22.26543 0.38311392 7
-12.971927 22.853283 0.30822086 5
-12.167534 23.373619 0.23042156 40
-11.369787 23.923174 0.15440826 19
-15.479782 21.439587 0.075230084 30
-14.527053 21.741268 -0.0022818435 24
-13.747217 22.284739 -0.07951735 10
-12.952841 22.819658 -0.15708427 54
-12.15828 23.355843 -0.2348423 26
-11.379476 23.94356 -0.31556875 35
-15.471121 21.427591 -0.39165094 23
-14.529199 21.744478 -0.46515751 25
-13.754828 22.297077 -0.54283094 6
-12.228926 21.544302 -0.58727002 19
-11.630096 22.341211 -0.67054439 18
-10.748866 22.616693 -0.74145055 22
-15.455289 21.405664 -0.85831696 23
-14.524562 21.737539 -0.92848492 10
-13.174716 21.356695 -0.96487057 8
-12.105481 21.326824 -1.015812 29
-11.536073 22.160591 -1.1078396 19
-10.722685 22.561605 -1.1823981 15
-15.448681 21.396513 -1.3248923 25
-14.471009 21.657393 -1.3864981 17
-13.409039 21.736542 -1.4341546 6
-12.483045 21.991995 -1.4952874 13
-11.57688 22.238981 -1.5549816 6
-3.4267588 7.2102447 -0.51932377 0
-15.47696 21.435678 -1.795945 38
-14.275611 21.364958 -1.8229392 2
-13.167489 21.344978 -1.8522996 0
-1.9352789 3.4094763 -0.30131713 0
-11.586359 22.257193 -2.0008121 3
-10.841837 22.812313 -2.0907564 5
-14.324569 19.839609 -2.0952771 1
-13.226261 19.794497 -2.1104469 1
-12.131965 19.666355 -2.115541 0
-11.132217 19.612177 -2.1329222 1
-5.7207556 10.98947 -1.2071439 0
-9.2287493 19.418215 -2.1607358 0
-4.49754 6.2291188 -0.79396957 0
-11.236902 16.817211 -2.1515272 0
-10.361162 16.795822 -2.1560588 0
-9.0876751 14.731453 -2.1979926 0
-7.9501095 12.887417 -2.1909444 0
-7.0561142 11.438218 -2.1849179 0
-6.3130603 10.233701 -2.1329746 0
-5.6940193 9.2302122 -2.1485908 1
-5.1300211 8.3159513 -2.1089921 1
-4.7015729 7.6214209 -2.0917883 0
-4.3444867 7.0425706 -2.0791011 1
-3.1282563 5.0710173 -2.0589345 1
-2.2788827 3.6941516 -2.0305669 2
-4.6072807 7.5301919 0.75417471 0
-5.7573214 10.230123 0.345532 0
-27.83741 53.957073 1.6047186 8
-25.457184 54.074768 1.4064108 2
-15.358319 21.43646 0.54179156 14
-14.447227 21.794315 0.46097904 14
-13.639002 22.29174 0.38270393 6
-12.895919 22.914619 0.30840853 6
-12.081789 23.418055 0.23042156 29
-11.297367 23.997253 0.15461811 8
-15.349851 21.424641 0.07497973 25
-14.449473 21.797703 -0.0022821925 15
-2.8412285 4.6437364 -0.01653271 0
-12.865186 22.86001 -0.15703638 38
-12.109279 23.471336 -0.23555578 22
-11.301868 24.006817 -0.3158544 9
-15.350556 21.425625 -0.39058411 24
-14.442768 21.787588 -0.46494409 30
-13.685542 22.367807 -0.54332811 6
-12.151834 21.592464 -0.58736479 19
-11.538973 22.365917 -0.67001212 18
-10.68634 22.699345 -0.74287117 21
-15.351121 21.426413 -0.85688728 20
-14.43816 21.780636 -0.92805904 9
-13.058807 21.343464 -0.96210414 10
-12.042909 21.398914 -1.0171365 29
-11.41447 22.124594 -1.1039413 20
-10.629714 22.579062 -1.1812633 22
-15.337586 21.407522 -1.3220844 21
-14.431252 21.770216 -1.3903252 21
-13.612756 22.248844 -1.4646542 5
-12.372975 21.985407 -1.4917458 17
-11.511771 22.313192 -1.5572101 6
-10.773884 22.8853 -1.6454773 4
-15.358782 21.437107 -1.7913365 35
-14.166338 21.370581 -1.8189762 2
-13.101664 21.413509 -1.8540673 0
-12.238824 21.747034 -1.9179462 3
-2.2322028 4.326664 -0.38820779 0
-10.753064 22.841076 -2.0897665 4
-14.263367 19.908175 -2.0969832 1
-13.147012 19.83288 -2.1093872 1
-12.088912 19.758257 -2.1206465 0
-11.054397 19.642437 -2.1317923 1
-10.094101 19.565331 -2.1450856 1
-9.1812525 19.502319 -2.1663358 0
-12.038303 16.80253 -2.136029 1
-11.17079 16.851656 -2.150681 0
-10.285011 16.80994 -2.1530178 0
-9.0211983 14.74435 -2.1949692 1
-7.919354 12.943482 -2.1955268 0
-7.0182681 11.470737 -2.1862016 0
-4.1768236 6.8266482 -1.4196543 0
-3.839648 6.2755647 -1.4575281 0
-5.1137943 8.3580437 -2.1148996 1
-4.6898727 7.6651816 -2.0990672 1
-4.306499 7.0385909 -2.0732527 1
-3.0958385 5.0598741 -2.0497894 1
-2.2464192 3.6715734 -2.0136173 2
-2.3208709 3.8231735 1.1740012 0
-26.66194 52.124439 1.5474374 6
-24.465229 52.441925 1.3617135 0
-15.232411 21.41824 0.53998393 16
-14.36887 21.841267 0.46090853 14
-13.579779 22.369986 0.38323107 6
-12.81001 22.949015 0.30826777 17
-12.02 23.499258 0.23080629 52
-11.221992 24.054665 0.1547347 4
-15.24252 21.432453 0.074820422 25
-14.377698 21.854687 -0.0022828905 17
-13.595703 22.396217 -0.079565942 6
-12.808711 22.946688 -0.15732373 16
-12.012697 23.48498 -0.23527038 10
-11.236606 24.085989 -0.31637812 5
-15.245543 21.436705 -0.3898136 21
-14.368831 21.841208 -0.46501523 22
-13.584546 22.37784 -0.54241663 5
-12.111477 21.697599 -0.58907115 21
-11.446258 22.377583 -0.66916054 20
-10.63747 22.801727 -0.74500209 21
-15.229898 21.414705 -0.85428792 21
-14.377428 21.854277 -0.92905283 11
-12.971775 21.368422 -0.961182 10
-11.991519 21.482697 -1.019123 35
-11.306229 22.103825 -1.1009289 19
-10.572798 22.663099 -1.1837219 21
-15.204886 21.379536 -1.3170705 24
-14.361763 21.830465 -1.3909631 17
-13.331906 21.961666 -1.4426765 29
-12.313677 22.059839 -1.4938709 15
-11.439262 22.363907 -1.5579529 6
-10.695625 22.926382 -1.6457371 4
-15.232979 21.419037 -1.7853726 43
-14.058766 21.369898 -1.8147303 1
-12.977151 21.377277 -1.8469963 0
-12.180338 21.820963 -1.9207051 3
-11.44132 22.367931 -2.0033557 3
-10.680014 22.89292 -2.0910864 4
-14.184552 19.944847 -2.0956182 1
-4.4979253 6.8370299 -0.72549921 0
-12.001261 19.769691 -2.1173644 0
-10.991591 19.691334 -2.1329222 0
-10.03299 19.614626 -2.1466372 0
-9.0996637 19.505394 -2.163136 0
-11.977276 16.841204 -2.1356177 0
-4.9099607 7.4633403 -0.95031077 0
-3.6955698 6.0877166 -0.77805787 0
-4.2809801 7.0520635 -1.047599 0
-7.8761749 12.974433 -2.1960995 0
-6.9720354 11.485043 -2.1842759 0
-6.2458 10.288714 -2.1350706 0
-5.6298604 9.2740765 -2.149368 1
-5.0886431 8.3825283 -2.1165874 1
-4.6590428 7.6748471 -2.0972474 0
-4.2959933 7.0767951 -2.0800757 1
-3.0840416 5.0803456 -2.0537088 1
-2.2486293 3.70417 -2.0271771 2
-26.579306 52.413322 1.5532501 7
-23.567192 50.980713 1.3216271 1
-15.129873 21.432077 0.53899795 18
-14.294734 21.894638 0.46097904 14
-13.511931 22.434381 0.38352394 6
-12.733693 23.000593 0.30836162 15
-11.92886 23.523233 0.23063141 42
-11.159771 24.140894 0.15503784 3
-15.119164 21.416906 0.074581452 27
-14.294769 21.894691 -0.0022818435 16
-13.515382 22.440109 -0.079553798 15
-12.722716 22.980764 -0.15725189 13
-11.936078 23.537466 -0.23537742 33
-11.155812 24.13233 -0.31647336 5
-15.131406 21.434248 -0.38880605 22
-14.288136 21.884531 -0.46487296 16
-13.064808 21.692005 -0.52468407 33
-12.087955 21.834209 -0.5916307 21
-11.348186 22.378168 -0.66798955 18
-10.584651 22.896791 -0.74689627 25
-15.113548 21.408953 -0.85194844 21
-14.314172 21.92441 -0.92990464 13
-12.74863 21.167042 -0.95011628 19
-11.904838 21.503448 -1.0181297 38
-11.225393 22.136024 -1.1005745 17
-11.170952 24.165079 -1.2601277 3
-15.114033 21.409637 -1.3156666 28
-14.296397 21.897184 -1.3920262 11
-13.065602 21.693323 -1.4220445 5
-12.538302 22.647661 -1.530704 9
-11.357521 22.396576 -1.5574577 7
-10.620551 22.974451 -1.646516 4
-15.095973 21.384056 -1.7780533 38
-13.953554 21.372066 -1.8107673 1
-12.86335 21.357515 -1.8413985 0
-12.104089 21.863352 -1.9207051 3
-11.384818 22.450403 -2.0071709 3
-10.611741 22.955393 -2.0933962 4
-14.119438 20.000753 -2.0963008 1
-13.006064 19.920837 -2.1090341 1
-5.4790211 9.0970297 -0.97225171 0
-10.922784 19.729586 -2.1329222 1
-9.9230518 19.56786 -2.1377153 1
-9.0214968 19.515366 -2.1607358 0
-11.93218 16.902416 -2.1380849 1
-11.028959 16.89259 -2.1460268 0
-10.198176 16.932426 -2.1595342 0
-8.9200897 14.810369 -2.195473 0
-7.8308401 13.001845 -2.1960995 0
-6.9441266 11.529601 -2.1881273 0
-6.2098494 10.310452 -2.1350706 0
-5.6055527 9.3071146 -2.1524775 1
-5.0734744 8.4236851 -2.1224952 1
-4.6362448 7.6977363 -2.0990672 1
-4.2732673 7.0950704 -2.0810504 1
-3.0662899 5.0910792 -2.0537088 1
-2.2338171 3.7088926 -2.0254819 2
-5.8283591 9.7539301 0.97072327 0
-26.038765 51.794857 1.5322188 6
-23.392435 51.069935 1.3218154 2
-15.020551 21.435631 0.5377655 11
-14.220389 21.947763 0.46104956 10
-13.433534 22.481413 0.38352394 7
-12.661034 23.058922 0.30854926 18
-11.862839 23.596897 0.2309462 10
-11.080437 24.190607 0.15510778 3
-15.007591 21.417137 0.074399374 26
-14.222599 21.951174 -0.0022825415 20
-13.422602 22.463118 -0.079468764 106
-12.648201 23.035551 -0.15732373 16
-11.794551 23.461061 -0.23420016 4
-11.07984 24.189302 -0.3167114 4
-15.003709 21.411596 -0.38744283 19
-14.259495 22.008118 -0.46643797 16
-12.913105 21.610462 -0.52161819 21
-12.071334 21.98493 -0.59456939 20
-11.271793 22.421221 -0.66809601 17
-10.562943 23.060823 -0.7510398 23
-15.004316 21.412464 -0.84999895 14
-14.228853 21.960827 -0.92933673 11
-12.66441 21.194262 -0.94934779 18
-11.870102 21.618437 -1.0216062 33
-11.119332 22.117954 -1.0977393 23
-11.073225 24.174862 -1.2586147 5
-15.000238 21.406645 -1.3122571 15
-14.213352 21.936903 -1.3913883 9
-12.971358 21.707949 -1.4200262 6
-12.266993 22.341274 -1.507093 8
-11.298993 22.475325 -1.5601814 7
-10.556918 23.04767 -1.6491126 3
-14.968567 21.361446 -1.7718183 11
-13.831129 21.346979 -1.8045399 1
-12.782577 21.392017 -1.8405147 1
-12.039218 21.926441 -1.9225442 3
-11.302794 22.482885 -2.0065351 3
-10.529892 22.988667 -2.0930662 3
-14.054114 20.056442 -2.0969832 1
-12.916944 19.936024 -2.105855 1
-11.869079 19.863253 -2.1184585 0
-10.861518 19.781551 -2.1344287 1
-9.8922329 19.677076 -2.1458614 0
-8.996418 19.640814 -2.1711357 0
-11.868545 16.937445 -2.1372626 1
-4.7647352 7.3538976 -0.93211693 0
-10.134927 16.961098 -2.1586654 0
-8.8785124 14.858452 -2.1979926 0
-7.7772822 13.015511 -2.1938083 0
-6.9099116 11.56394 -2.1900527 0
-6.1738191 10.332068 -2.1350706 0
-5.5750408 9.3299952 -2.153255 1
-5.0400262 8.4346323 -2.1208072 1
-4.6153388 7.7239051 -2.1017966 1
-4.2484732 7.1099448 -2.0810504 1
-3.0543168 5.1114888 -2.0576279 1
-2.2078469 3.6948967 -2.0136173 1
-25.668892 51.46133 1.5199593 19
-24.323414 53.546143 1.383921 0
-14.927997 21.446613 0.53686172 16
-14.151371 21.992327 0.46104956 9
-13.366925 22.530382 0.38364106 6
-12.596179 23.112635 0.30873692 7
-11.806506 23.669838 0.23129596 4
-11.014304 24.247152 0.15524769 3
-14.937942 21.460901 0.074387997 50
-14.125432 21.952017 -0.0022780036 213
-13.364215 22.525814 -0.079541646 7
-12.577679 23.07869 -0.15734768 50
-11.570823 23.197336 -0.23120354 15
-11.010402 24.238562 -0.31690186 4
-14.924938 21.442219 -0.3871465 37
-14.166481 22.01581 -0.46565548 15
-12.781898 21.544298 -0.51904947 22
-12.036645 22.085951 -0.59627575 20
-11.19595 22.445786 -0.66777664 17
-10.558233 23.243147 -0.75589359 24
-14.923264 21.439814 -0.84921908 13
-14.142489 21.978525 -0.92820096 10
-12.579412 21.203003 -0.94796461 20
-11.844196 21.732828 -1.0252483 25
-11.056931 22.167078 -1.0984482 22
-10.99391 24.202257 -1.2582364 4
-14.916931 21.430716 -1.3108531 13
-14.150853 21.991522 -1.3920262 11
-12.9031 21.74859 -1.4200262 5
-12.393553 22.740837 -1.5314124 11
-11.233679 22.521425 -1.5609242 16
-10.487755 23.087994 -1.649632 3
-3.1872897 4.5790854 -0.37897828 0
-13.733773 21.343348 -1.8005769 1
-12.682745 21.377174 -1.8358006 4
-11.972178 21.967659 -1.9228507 3
-11.255248 22.564667 -2.0106683 3
-10.487288 23.086967 -2.0990059 3
-13.986477 20.09396 -2.0963008 1
-12.8715 20.003309 -2.1086807 1
-11.824914 19.931273 -2.1217406 0
-10.770729 19.76313 -2.1287792 0
-9.8339252 19.715181 -2.1466372 0
-8.9445391 19.690723 -2.1735356 0
-11.810724 16.968119 -2.13644 1
-10.908071 16.951986 -2.1443343 0
-10.075508 16.982594 -2.157362 0
-3.5877888 6.0473332 -0.89290297 0
-7.7383766 13.043283 -2.1943812 0
-6.8715358 11.582194 -2.1894109 0
-4.4894414 7.5670981 -1.5607814 0
-5.5296879 9.320467 -2.1470361 1
-5.0174947 8.4571486 -2.1224952 1
-4.6029768 7.7584653 -2.1072559 1
-4.2320552 7.1332645 -2.0839746 1
-3.0382445 5.1210585 -2.0576279 1
-2.2184129 3.7392063 -2.0339568 1
-4.1967015 7.1302733 0.4142023 0
-25.547573 51.668907 1.5234469 12
-24.295557 53.984444 1.3930486 1
-14.878052 21.534782 0.5377655 14
-14.096036 22.075302 0.46175462 9
-13.300376 22.597582 0.38399249 6
-12.526839 23.177574 0.3090184 4
-11.709622 23.682226 0.23101614 14
-10.93617 24.300041 0.15534095 3
-14.862942 21.512911 0.074387997 48
-14.065936 22.028162 -0.0022807962 209
-13.293626 22.586113 -0.079590239 21
-12.500851 23.129488 -0.15739557 20
-11.535867 23.330811 -0.23213106 41
-10.920807 24.265905 -0.31675902 4
-14.872738 21.527088 -0.38773918 35
-14.080931 22.051645 -0.46537092 11
-12.672136 21.530191 -0.51764083 21
-12.065958 22.324835 -0.60158443 20
-11.110436 22.470396 -0.66735083 20
-10.442581 23.203293 -0.75340754 24
-14.852882 21.49835 -0.84947902 13
-14.09795 22.078299 -0.93033051 6
-12.478971 21.202002 -0.9459666 19
-11.792971 21.819746 -1.0274005 37
-10.967081 22.180466 -1.0972078 20
-3.5435355 7.8736939 -0.40869516 0
-14.837496 21.47608 -1.3104521 18
-14.086895 22.060986 -1.393302 11
-12.924347 21.958702 -1.4307907 5
-12.325493 22.805037 -1.532829 11
-11.167377 22.585554 -1.5626575 24
-10.412018 23.13538 -1.6504109 4
-14.769851 21.378168 -1.7650412 5
-13.642004 21.364258 -1.7983124 1
-12.626264 21.452253 -1.8384522 3
-11.908702 22.033875 -1.9249964 3
-11.169338 22.589523 -2.0093966 3
-10.409913 23.130703 -2.0996659 2
-13.904926 20.126261 -2.0945945 1
-12.797304 20.041403 -2.1079743 1
-11.726987 19.924366 -2.1166351 0
-10.728189 19.849651 -2.1340523 0
-9.7862158 19.792215 -2.1512918 0
-8.8871899 19.747231 -2.1763356 0
-11.753687 17.012514 -2.1368513 0
-3.9623477 6.2052922 -0.78318131 0
-10.018188 17.021084 -2.1577966 0
-8.7878294 14.930683 -2.2000082 0
-7.6948109 13.073625 -2.1949539 0
-6.8250594 11.595901 -2.1874852 0
-6.1051631 10.372785 -2.1350706 0
-5.5249853 9.3870516 -2.1579189 1
-4.9819956 8.4645014 -2.1199632 1
-4.5521588 7.7342014 -2.0963376 0
-4.2051635 7.1446495 -2.0829999 1
-3.0203512 5.1316323 -2.0576279 1
-2.2090237 3.7531719 -2.0373468 1
-5.3901033 9.2351551 0.91352177 0
-3.1135681 5.8116474 0.19406754 0
-24.068218 54.007385 1.3913549 6
-14.814846 21.612261 0.53834063 14
-14.008615 22.11668 0.46154308 9
-13.213424 22.639273 0.38387537 7
-12.443699 23.226852 0.30906531 4
-11.631547 23.742943 0.23119102 19
-10.842142 24.329002 0.15527101 3
-14.793035 21.580442 0.074433513 51
-13.985108 22.079567 -0.0022807962 166
-13.19865 22.61396 -0.07951735 64
-12.449999 23.238611 -0.15782659 3
-11.619211 23.717762 -0.23555578 21
-2.2028275 4.9429893 -0.064418301 1
-14.786947 21.571562 -0.38756138 33
-14.002157 22.106483 -0.46544206 10
-12.56088 21.521233 -0.51631498 21
-12.150239 22.679094 -0.60992658 18
-11.033285 22.521738 -0.66767019 16
-10.315145 23.14646 -0.75032949 23
-14.773981 21.552647 -0.84947902 13
-14.004104 22.109556 -0.9294787 6
-12.379009 21.209625 -0.94427598 20
-11.767655 21.964981 -1.0322014 18
-10.910329 22.270754 -1.0996885 16
-10.623648 23.838717 -1.2353525 11
-14.760936 21.533615 -1.3106526 17
-13.99526 22.095594 -1.3922389 8
-12.934361 22.16114 -1.4408824 3
-12.256916 22.878212 -1.5347179 13
-11.098577 22.655014 -1.5646383 7
-10.335271 23.19162 -1.6517092 4
-14.668828 21.399246 -1.7623303 3
-13.537992 21.373663 -1.7949157 1
-12.553579 21.508726 -1.8393362 2
-11.841052 22.10198 -1.9271421 3
-11.088228 22.63389 -2.0097146 4
-10.33804 23.197834 -2.1023057 2
-13.851342 20.206678 -2.0976658 1
-12.70671 20.061243 -2.1051486 0
-11.661908 19.980976 -2.1180937 0
-10.630921 19.843204 -2.1291559 0
-9.7066059 19.813648 -2.1497402 0
-8.7693863 19.677885 -2.1651359 0
-11.666504 17.019382 -2.1323285 0
-4.5610576 7.2009578 -0.90673018 0
-3.7942815 6.5009475 -0.8223694 0
-8.7270422 14.952513 -2.1984963 0
-7.6428475 13.094903 -2.1938083 0
-6.79246 11.637889 -2.1906946 0
-6.0809979 10.418902 -2.1399612 0
-5.4786735 9.3869066 -2.153255 1
-4.970645 8.5164747 -2.1284027 1
-4.5434136 7.7844758 -2.1054363 1
-4.186769 7.1734176 -2.0868988 1
-3.0015211 5.1426682 -2.0576279 1
-2.1861203 3.7455978 -2.028872 1
-4.2674975 7.3707094 0.72761685 0
-5.580626 10.504477 0.35012186 0
-25.060188 51.60939 1.5163661 2
-14.707825 21.61755 0.53719038 12
-13.931324 22.165447 0.46154308 6
-13.140335 22.695641 0.38405108 6
-12.366293 23.277216 0.30915913 4
-11.567822 23.822977 0.23157576 10
-10.771696 24.399632 0.15548086 3
-14.713119 21.62533 0.074410759 52
-13.910074 22.131638 -0.0022811452 255
-13.151705 22.715279 -0.079711713 5
-12.342525 23.232477 -0.15749136 27
-11.562563 23.812145 -0.23609088 22
-10.775962 24.409294 -0.31761602 4
-14.725062 21.642885 -0.38791698 35
-13.937671 22.175545 -0.46586886 9
-12.467651 21.533798 -0.51556927 21
-11.964055 22.520079 -0.60452312 28
-10.945874 22.542126 -0.66713792 21
-10.203611 23.112829 -0.74808013 25
-14.709908 21.620611 -0.85012889 14
