# .PCD v0.7 - Point Cloud Data file format
VERSION 0.7
FIELDS x y z intensity
SIZE 4 4 4 4
TYPE F F F F
COUNT 1 1 1 1
WIDTH 1448
HEIGHT 1
VIEWPOINT 0 0 0 1 0 0 0
POINTS 1448
DATA ascii
15.119302 12.273985 -1.5528312 8
16.063643 12.100429 -1.6647515 2
21.939848 23.859406 -2.775389 4
4.8075442 4.8615475 -0.60611326 0
14.207341 13.360259 -1.7855005 4
15.382693 13.442836 -1.9321722 0
15.101986 12.259928 -1.8952781 10
15.945603 12.011512 -2.0063405 1
12.415475 13.501728 -1.8954945 0
13.091852 13.238914 -1.9805897 0
13.576952 12.767456 -2.0361571 3
12.606552 11.854914 -2.1974885 2
12.317267 11.582876 -2.4464114 0
11.553699 10.864834 -2.5783827 0
9.9961882 9.4001865 -2.4340923 0
8.8381939 8.3112354 -2.4035611 0
7.9497943 7.4758048 -2.3554211 0
7.1762266 6.7483597 -2.3010581 0
6.5650783 6.1736498 -2.2642999 0
4.5278401 4.2578773 -2.1477716 0
12.501319 11.673996 4.4898434 0
12.228314 11.419059 3.2091663 0
3.2897069 3.0719979 0.62336969 0
18.421173 17.202082 2.1532283 3
34.930252 30.310926 1.3612972 1
15.285813 12.320888 0.51891255 7
31.8036 23.783476 0.93450189 1
31.094322 26.982279 0.48287937 6
15.265653 12.304638 0.17145211 8
31.72858 23.727373 0.23095949 9
5.4276619 5.4504447 -0.0006712536 0
79.101036 73.866219 -0.32867417 1
31.065695 26.957438 -0.24623439 5
15.231375 12.277008 -0.17448179 20
31.730074 23.728491 -0.4716391 13
22.139204 23.908163 -0.48286626 6
40.947956 41.119839 -1.0321816 2
63.160561 58.980667 -1.7905715 1
31.054504 26.947725 -0.97470707 6
15.207906 12.258091 -0.52002054 10
31.708815 23.712593 -1.172375 10
22.143524 23.912828 -1.0595094 10
37.715832 37.874146 -1.8982831 1
26.149012 24.418499 -1.3756859 0
28.018076 24.312847 -1.5366309 0
15.195248 12.247889 -0.86543328 12
31.696833 23.703632 -1.8734541 13
22.113785 23.880714 -1.6339536 7
5.9498687 5.974843 -0.44884181 0
26.030849 24.308157 -1.9999673 0
27.818287 24.139479 -2.1778827 0
15.174792 12.231401 -1.2088249 14
31.716537 23.718369 -2.5763652 12
22.131399 23.899736 -2.2126043 5
24.302713 24.404726 -2.4434178 0
26.129324 24.400116 -2.6404181 0
15.162054 12.221133 -1.5528312 13
16.112169 12.049056 -1.6654116 2
22.079866 23.844084 -2.7825551 6
24.128046 24.229324 -3.0312729 2
14.344142 13.394863 -1.7968057 0
15.495693 13.446478 -1.9404583 0
15.129192 12.194646 -1.8933386 9
16.420906 12.279937 -2.060739 2
12.36521 13.35321 -1.8806922 0
13.241834 13.297416 -1.996245 0
13.62725 12.725414 -2.0370259 2
12.615954 11.781045 -2.1919458 1
4.1693602 3.8934369 -0.82539892 0
11.588668 10.821743 -2.5777409 0
10.069241 9.4028692 -2.4438734 0
8.8642845 8.2776556 -2.4027836 0
7.9815569 7.4533467 -2.3571088 0
7.2168202 6.7392197 -2.3065171 0
6.5837536 6.1480484 -2.2633252 0
4.5426755 4.2420464 -2.1477716 0
0.58257461 0.54402047 -0.37289208 0
11.889502 11.025228 4.2562618 0
13.774607 12.7733 3.6032481 0
14.366662 13.322318 2.7135239 0
18.416815 17.078056 2.1457376 2
32.334286 29.983837 1.4274036 0
32.939812 28.382755 1.2798572 0
32.027702 23.777201 0.93864226 1
68.475769 63.498119 1.3675779 0
31.10651 26.803082 0.48161271 11
30.994894 24.80496 0.34713629 8
31.96858 23.733307 0.23210205 10
11.975842 12.842519 0.049956143 0
10.233264 9.4893856 -0.042382531 0
31.083851 26.783558 -0.24563573 10
31.144747 24.924885 -0.35577735 7
31.9508 23.720108 -0.47368637 13
22.230705 23.839512 -0.48304409 6
41.065754 40.951237 -1.0315413 2
36.602116 33.941429 -1.0342872 0
31.066589 26.768684 -0.97214752 12
15.269334 12.219922 -0.52065927 2
31.932646 23.706631 -1.1775839 9
22.218681 23.826618 -1.0591195 10
24.396847 24.328812 -1.2236409 0
26.304428 24.392302 -1.3793745 1
28.208744 24.306206 -1.5424252 0
15.275349 12.224736 -0.86755961 4
31.923746 23.700022 -1.8819647 12
22.213356 23.820908 -1.635157 11
24.292866 24.225121 -1.8261971 0
26.267818 24.358353 -2.0116289 0
27.681559 23.851955 -2.1606467 0
15.242332 12.198313 -1.2108057 6
31.927332 23.702684 -2.5867517 12
22.19836 23.804827 -2.2109778 12
23.980913 23.914038 -2.4026563 0
26.226038 24.319609 -2.6415966 0
27.729944 23.893646 -2.8133149 0
15.145472 12.120796 -1.5467902 1
16.202141 12.028385 -1.6703613 2
22.217323 23.825161 -2.7893803 11
13.488681 13.451065 -1.6887107 0
14.446306 13.396173 -1.8037348 0
15.590805 13.433896 -1.9464846 0
16.402956 12.177468 -2.0531392 1
12.520286 13.426363 -1.8971391 0
13.237473 13.200558 -1.988629 2
13.604527 12.615583 -2.027034 3
12.761748 11.834069 -2.2100861 1
12.502332 11.59351 -2.467032 0
11.609002 10.765119 -2.5738897 0
10.061569 9.3301725 -2.4340923 0
8.8844929 8.2386599 -2.4004517 0
7.9845886 7.4041715 -2.3503573 0
7.2288761 6.7033935 -2.3028777 0
6.6051741 6.1250296 -2.2633252 0
4.5546827 4.2235928 -2.1464653 0
0.62697697 0.58140063 -0.40001151 0
12.09868 11.140904 4.3171964 0
12.371312 11.391953 3.2257433 1
9.3532 8.6127663 1.7609097 0
18.514431 17.048761 2.1501639 2
32.38876 29.824749 1.4252037 0
32.728806 28.002472 1.267853 0
32.23605 23.757784 0.94231218 1
3.411063 3.6324129 0.10237675 0
4.4721165 4.1180878 0.089028157 0
31.09351 26.603327 0.47997072 12
31.006132 24.636894 0.34629688 10
32.18969 23.723614 0.23310471 10
11.998693 12.77731 0.049865108 2
100.67121 92.701714 -0.41560146 1
31.082933 26.594278 -0.24489342 12
31.156403 24.756298 -0.35492116 10
32.168636 23.708097 -0.47568607 13
11.991948 12.770127 -0.25959915 1
4.7883763 4.7418022 -0.11986396 0
36.570335 33.675297 -1.0300612 1
31.080837 26.592485 -0.96968281 13
33.482052 26.604216 -1.1385096 2
32.189007 23.72311 -1.1839768 9
22.36466 23.815943 -1.0621088 10
37.735046 37.368019 -1.8860737 2
26.421757 24.330114 -1.3810651 0
31.053822 26.569372 -1.6929097 8
32.1478 23.692743 -1.8902861 13
22.356537 23.807291 -1.6395693 11
28.219757 24.144571 -2.1960633 0
32.176964 23.714235 -2.6002541 12
22.346884 23.797014 -2.2174838 15
24.656778 24.416956 -2.461817 0
27.958641 23.921162 -2.8280282 0
16.011852 12.722719 -1.6307271 4
16.256865 11.981215 -1.6716812 2
22.376743 23.82881 -2.7989352 10
13.614822 13.482398 -1.6986006 0
14.560375 13.407723 -1.8121226 0
15.701146 13.43376 -1.9543941 0
15.868523 12.608832 -1.9747975 5
16.833029 12.405844 -2.1015377 5
12.607932 13.426084 -1.9033066 0
13.33717 13.207446 -1.9966681 0
13.668956 12.586872 -2.0300751 3
12.843848 11.827083 -2.2171407 2
12.571846 11.576613 -2.47276 0
11.646509 10.724529 -2.5738897 0
5.0760112 4.6741757 -1.2240326 0
8.9160833 8.2102547 -2.4012289 0
8.0391483 7.40274 -2.3587966 0
7.260828 6.6860342 -2.3056073 0
6.6293678 6.1045628 -2.2642999 0
4.566617 4.2051072 -2.1451588 0
0.62367207 0.57429993 -0.39662158 0
11.969038 10.944567 4.2572775 1
12.422598 11.359303 3.2287574 1
35.375996 32.348042 2.3998132 0
32.483818 29.703415 1.4248154 0
34.718597 29.49564 1.3409373 0
32.480152 23.763174 0.94701713 0
12.021494 12.712374 0.35946891 2
31.10693 26.427299 0.47875097 13
30.994595 24.451717 0.34521261 10
32.44017 23.733921 0.23431721 9
12.021235 12.712099 0.049774069 2
31.068884 26.394976 -0.24405532 10
30.988266 24.446726 -0.35203156 11
32.40937 23.711388 -0.47801903 13
12.014466 12.704943 -0.25912499 2
38.667313 38.024807 -0.96460253 0
4.0668969 3.7187972 -0.11418425 0
31.075951 26.40098 -0.96664929 13
30.972244 24.434086 -1.0502605 12
32.413601 23.714481 -1.1891859 7
12.023175 12.714151 -0.56887543 2
37.819645 37.191223 -1.8838022 2
26.624514 24.345629 -1.3872128 0
31.033684 26.36507 -1.6867844 7
30.915152 24.389046 -1.7461056 2
32.372192 23.684189 -1.8986075 12
11.984203 12.672939 -0.87564027 0
24.689236 24.278992 -1.8432069 0
26.631754 24.352249 -2.0264301 0
28.179096 23.93992 -2.1863828 0
30.337667 23.933466 -2.3966029 0
32.40773 23.71019 -2.6121986 13
22.506592 23.800055 -2.2250743 14
24.309437 23.905504 -2.4187911 0
26.501162 24.232834 -2.6522031 0
3.1002395 2.6338491 -0.31265867 0
15.937206 12.572905 -1.6186453 3
16.340412 11.954995 -1.6759709 3
11.952811 12.639744 -1.4895577 1
13.673163 13.445967 -1.7000135 0
14.654123 13.399825 -1.8179575 0
15.805604 13.427858 -1.9615502 0
16.059341 12.669258 -1.9930288 2
16.86017 12.33526 -2.0995378 2
11.952136 12.63903 -1.7976359 0
13.201684 12.982321 -1.9695889 0
13.742153 12.565914 -2.0344193 3
12.94655 11.838409 -2.2277224 1
12.691061 11.604788 -2.4882255 0
11.689701 10.689138 -2.5751734 0
10.120648 9.2543869 -2.4326949 0
8.9707489 8.2029114 -2.4082251 0
8.0245428 7.3376942 -2.3469815 0
7.2783728 6.6553912 -2.3037877 0
6.6506362 6.0813847 -2.2642999 0
4.5952182 4.2018971 -2.151691 0
0.61497772 0.5623396 -0.38984174 0
11.987119 10.884515 4.2501688 0
12.534883 11.381894 3.2475951 0
32.19051 29.229551 6.021883 1
34.757996 31.560873 4.0109153 0
32.536987 29.544157 1.4226154 0
32.698795 23.748348 0.95096934 0
12.085101 12.690606 0.36004406 1
76.237495 69.224991 1.5080316 0
31.091984 26.228289 0.47710901 12
30.978992 24.264452 0.34409338 12
32.665222 23.723963 0.23534317 9
12.079327 12.684543 0.049830969 1
3.039227 2.9679291 -0.00037070792 0
31.069107 26.20899 -0.24333695 11
30.982092 24.26688 -0.35099703 10
32.650517 23.713284 -0.48035198 13
12.091841 12.697684 -0.25983623 1
39.074505 38.157845 -0.97143155 0
36.615055 33.247116 -1.0247581 3
31.063995 26.204678 -0.96342617 11
30.962908 24.251854 -1.0470669 12
4.9625826 3.6042042 -0.18160388 0
12.048184 12.65184 -0.56796563 1
9.1920156 8.9763775 -0.45629212 0
26.815865 24.349276 -1.3927456 0
31.033878 26.179272 -1.6818179 11
30.940325 24.234165 -1.7427387 1
32.616314 23.68844 -1.9080637 13
12.017347 12.619458 -0.87483805 2
28.402885 23.959845 -2.1972439 0
30.48703 23.879118 -2.4018028 0
32.65501 23.716547 -2.6254413 11
12.004817 12.6063 -1.1824772 4
26.50585 24.06778 -2.6442482 0
28.353592 23.918261 -2.8510177 0
16.018665 12.5467 -1.6224606 3
16.485258 11.972845 -1.6865304 4
11.97762 12.577741 -1.4871689 4
13.799834 13.4761 -1.7099035 0
14.777482 13.418214 -1.8274393 0
3.4425964 2.9040737 -0.42598182 0
16.134809 12.637671 -1.9969078 2
16.413647 11.920835 -2.0387397 2
11.941304 12.539605 -1.7894125 4
5.3215346 5.1966953 -0.79122043 0
13.788877 12.520543 -2.0348537 3
13.014235 11.817154 -2.2322574 2
12.734422 11.563079 -2.4887984 0
11.703558 10.627037 -2.5700386 0
10.147058 9.2137079 -2.4312975 0
8.9644699 8.1398964 -2.3988969 0
8.0645809 7.3227811 -2.3512013 0
7.2871413 6.6168528 -2.2992382 0
6.677568 6.0633492 -2.2662494 0
4.5958624 4.1731243 -2.1451588 0
0.57938421 0.5260911 -0.36611223 0
11.99918 10.819287 4.2410283 0
12.527855 11.295979 3.235539 0
14.668976 13.22656 2.7354734 0
32.932159 29.693905 3.7882383 0
36.164692 32.608582 2.4378135 0
32.42614 29.237644 1.4132978 0
34.540531 28.931622 1.3262262 0
6.0149274 5.8329425 0.14771353 0
31.082165 26.034845 0.47556087 13
30.984566 24.09478 0.34321898 11
32.90033 23.719738 0.23643909 10
100.83964 97.788681 -0.012258145 1
9.0368586 8.1482544 -0.036952611 0
31.092945 26.043875 -0.24281015 11
30.975048 24.087378 -0.34996247 11
32.895313 23.716122 -0.48273256 15
22.860363 23.838568 -0.48944515 4
38.99213 37.812401 -0.96609634 0
36.808109 33.188728 -1.0269126 2
31.087835 26.039595 -0.96134061 11
30.974775 24.087168 -1.0446186 10
32.860531 23.691044 -1.1994854 10
12.144849 12.664533 -0.57043505 0
25.216267 24.453335 -1.247492 0
26.998655 24.343849 -1.3978174 0
31.066858 26.022024 -1.6786724 9
30.930098 24.052423 -1.7374228 4
32.825199 23.665573 -1.9154395 12
12.08068 12.597618 -0.87624198 1
25.124805 24.364641 -1.8629805 0
26.987974 24.334219 -2.0405588 0
28.881229 24.191311 -2.2277021 0
30.5702 23.772552 -2.4018028 2
32.86063 23.691118 -2.6353085 12
12.059796 12.575841 -1.1835617 4
24.647596 23.901871 -2.435775 0
26.960032 24.309023 -2.6810763 0
28.993359 24.285233 -2.906806 0
15.964788 12.414828 -1.6126044 2
16.578688 11.952528 -1.69181 0
12.038002 12.553114 -1.4892164 3
13.858232 13.438944 -1.7113163 0
4.5765486 4.1265316 -0.56416857 0
15.960018 13.368329 -1.9690831 0
16.075117 12.500624 -1.9841071 6
16.519724 11.910018 -2.0467393 2
12.001526 12.515077 -1.7918795 3
13.551839 13.141821 -2.0080922 0
13.826591 12.467008 -2.0339849 3
13.176233 11.880601 -2.2529171 1
12.85115 11.587482 -2.503691 0
11.755243 10.599338 -2.5732479 0
10.161609 9.1624069 -2.4271057 0
9.010313 8.1243191 -2.4035611 0
8.07267 7.2788758 -2.3461378 0
7.3304443 6.6096339 -2.3056073 0
3.7080503 3.3434339 -1.2544787 0
4.6216331 4.1671829 -2.1503844 0
0.64041513 0.57744247 -0.40340143 0
12.610469 11.290912 4.4431272 0
13.755445 12.316078 3.5414608 0
14.697345 13.159417 2.7321811 0
7.966434 7.1328278 0.91352177 0
34.463017 28.66259 1.3194003 0
3.0004854 2.3165302 0.10018922 0
76.41291 73.585175 1.8702155 2
31.08675 25.85458 0.47424731 12
30.970337 23.910704 0.34213474 11
33.142311 23.718817 0.23758166 9
101.68091 105.29366 0.41642258 2
9.7184086 9.3587694 -0.0011773991 0
78.258522 70.069565 -0.31900477 1
31.248247 25.988895 -0.243313 6
30.954456 23.898443 -0.34878522 11
33.108002 23.694262 -0.48463702 14
22.999002 23.816164 -0.49063054 4
39.126759 37.678837 -0.96616751 0
36.867126 33.009357 -1.0253382 2
31.240028 25.982061 -0.96323657 9
30.954218 23.89826 -1.0411056 11
33.112099 23.697195 -1.2056414 8
22.986607 23.803328 -1.0757555 9
25.39937 24.459442 -1.2523189 0
27.193647 24.34811 -1.403504 0
31.209742 25.956871 -1.6814867 7
30.934788 23.883259 -1.7329929 2
33.076569 23.671766 -1.9252739 13
22.997576 23.814684 -1.6620319 11
26.668104 23.87756 -2.0100591 0
28.738316 23.901407 -2.2102299 0
30.792038 23.773048 -2.4126976 4
33.111919 23.697065 -2.6488109 11
12.142434 12.573857 -1.1873568 2
25.282688 24.347078 -2.4901235 0
26.649452 23.860859 -2.6418912 0
8.8187475 7.334476 -0.88157481 0
15.995401 12.349278 -1.6113325 2
18.487541 13.230899 -1.8818787 0
12.112203 12.542552 -1.4929702 1
13.996898 13.478929 -1.7226192 0
14.942021 13.378491 -1.8361918 0
16.144363 13.427126 -1.9860319 0
15.86025 12.244935 -1.9522994 1
17.007837 12.171926 -2.1019378 1
12.081071 12.510315 -1.7972248 1
13.517409 13.017184 -1.996245 2
13.976671 12.514155 -2.0496242 3
13.170323 11.792184 -2.2448549 1
12.941657 11.587444 -2.5134284 0
11.786287 10.552973 -2.571964 0
10.214069 9.1452713 -2.4319963 0
9.0240011 8.0797319 -2.3996744 0
8.1096811 7.2610855 -2.3495135 0
7.3389621 6.5710144 -2.3010581 0
6.7081742 6.0062323 -2.2623503 0
4.6164346 4.1333718 -2.1412394 0
0.63702834 0.57036984 -0.40001151 0
12.441626 11.061733 4.3700061 0
13.789545 12.260157 3.5392003 0
34.206333 30.412535 6.3390551 2
8.7063694 7.7407522 0.37710375 0
34.581356 28.557392 1.3201065 0
33.962818 24.127199 0.98032832 0
31.05345 25.644035 0.47237077 13
30.999641 23.761084 0.34154016 11
33.371639 23.707228 0.23863094 9
101.08045 96.662109 -0.012205088 3
31.233913 25.793062 -0.24249884 1
30.955151 23.72698 -0.34785771 10
33.369843 23.70595 -0.48725563 12
23.121035 23.775881 -0.49146029 0
39.22625 37.511627 -0.96538502 0
36.99707 32.893753 -1.0257524 2
30.935898 23.712223 -1.0376991 11
33.344551 23.687983 -1.2110872 8
23.128086 23.783131 -1.0784849 3
25.551043 24.434177 -1.2555842 0
27.397959 24.35927 -1.4096516 0
30.935507 23.711926 -1.7283857 13
33.338146 23.683432 -1.9356756 13
23.158546 23.814455 -1.6676475 3
25.490593 24.376371 -1.8774387 1
27.225847 24.206247 -2.0457168 0
29.18796 24.103508 -2.238327 0
30.912857 23.694563 -2.4156687 11
33.350632 23.692303 -2.6612747 12
23.128836 23.783903 -2.2535381 8
25.436729 24.324862 -2.496917 0
27.254292 24.231537 -2.6934505 0
28.950005 23.907003 -2.8856554 1
15.959295 12.232726 -1.603384 2
18.481615 13.129347 -1.8765991 0
23.228207 23.886087 -2.8528528 8
14.017945 13.405205 -1.7194402 0
15.051146 13.381833 -1.8438503 0
16.197275 13.375759 -1.9867853 4
15.827063 12.131371 -1.9429897 4
17.566107 12.47897 -2.1655359 4
13.087206 13.457869 -1.9399008 0
13.646131 13.049643 -2.0085151 1
14.165881 12.594752 -2.0709112 2
13.232164 11.764594 -2.2483821 1
13.005695 11.563243 -2.5180109 0
11.799448 10.490779 -2.5668292 0
10.240043 9.1043272 -2.430599 0
9.0404205 8.0377541 -2.396565 0
5.1866326 4.6113868 -1.4979836 0
7.3676767 6.5505328 -2.3028777 0
6.7262001 5.9802017 -2.2613757 0
4.6449618 4.1297922 -2.1477716 0
0.65526158 0.58258694 -0.41018131 0
7.1116323 6.2785773 2.4901824 0
5.9216485 5.2279878 0.67484164 0
34.701283 30.636381 2.3174129 2
15.211703 12.472819 0.57902503 0
102.78124 104.95675 3.0181422 2
77.034683 68.010857 1.5048687 1
31.053078 25.461937 0.47101027 12
31.174704 23.722975 0.34255445 9
33.598026 23.692019 0.23965691 8
7.1005125 6.742847 -0.0008545132 0
15.091202 12.374014 -0.11683143 0
31.130095 23.689028 -0.34889224 9
33.592945 23.688437 -0.48930293 13
102.81123 104.98737 -2.1775508 2
42.312134 40.180794 -1.0378724 1
37.096672 32.751175 -1.0253382 4
54.019039 44.292854 -1.6560161 0
31.075756 23.647678 -1.0396153 9
33.570805 23.672823 -1.2162962 9
37.815018 38.615421 -1.7570543 1
25.714445 24.419163 -1.2594174 0
27.575706 24.345495 -1.4144161 0
13.400401 10.987644 -0.71782285 0
31.09441 23.661873 -1.7326385 10
33.557755 23.663622 -1.9436188 12
25.178717 23.910419 -1.8483098 0
27.175451 23.992125 -2.035625 0
30.979448 25.401566 -2.3688962 0
31.033504 23.615526 -2.4186401 10
33.586449 23.683853 -2.6734788 12
23.38204 23.876953 -2.2700744 2
25.68351 24.389784 -2.5127687 0
15.087189 12.370724 -1.4995354 0
16.030457 12.198676 -1.6062455 1
18.566427 13.09232 -1.8805588 0
23.475962 23.972862 -2.8729866 1
14.136884 13.424783 -1.7282705 0
15.166443 13.38985 -1.8522379 0
15.119884 12.397532 -1.849311 2
16.249491 12.365355 -1.9895377 1
17.60956 12.417575 -2.1655359 2
13.170292 13.449059 -1.945246 0
13.616609 12.930716 -1.9975144 5
14.379666 12.695236 -2.0956736 2
13.41296 11.841769 -2.2720652 1
13.093461 11.559695 -2.5271757 0
11.850793 10.462594 -2.5700386 0
10.256997 9.0554953 -2.4271057 0
9.0831289 8.0191336 -2.4004517 0
8.1718988 7.214644 -2.3528891 0
7.3788161 6.5144634 -2.2992382 0
6.7354002 5.9464169 -2.2574768 0
4.6508465 4.1060472 -2.1438525 0
0.64642686 0.57070452 -0.40340143 0
14.072716 12.337096 3.589685 0
30.93194 27.117033 5.6970282 0
36.975788 32.415478 4.2009063 0
34.132099 29.92251 2.2724125 1
15.230345 12.399449 0.57808352 8
34.353203 24.045437 0.98672712 1
5.8315368 5.1123199 0.11356947 0
15.235892 12.403966 0.2304385 5
31.378597 23.705629 0.34388354 9
33.847649 23.691576 0.2408461 9
102.95208 104.39968 0.41712812 2
10.176736 9.5967798 -0.0012206832 0
6.6713133 5.848525 -0.026943093 0
15.199444 12.374292 -0.11733429 5
31.368977 23.698362 -0.35064027 8
33.839268 23.685711 -0.49168351 13
41.116379 41.694515 -0.86776054 0
78.089798 73.639587 -1.9091448 2
34.783981 30.493994 -0.95846826 0
7.8923297 6.4253664 -0.24125943 0
31.330397 23.669216 -1.0453637 8
33.83012 23.679306 -1.222689 9
37.710976 38.241226 -1.746007 1
25.904224 24.427984 -1.2645283 0
27.759705 24.336037 -1.4194878 0
15.1588 12.341203 -0.80970281 5
31.301165 23.647131 -1.7395492 12
33.793999 23.654026 -1.9525076 10
23.975018 24.312128 -1.7141771 0
25.819981 24.348541 -1.8891329 0
27.751541 24.32888 -2.0724039 0
15.142248 12.327727 -1.1545801 5
31.262281 23.617756 -2.4300301 10
33.829151 23.678627 -2.6862023 12
23.958424 24.295301 -2.3177855 0
15.108629 12.300357 -1.4973897 8
16.127026 12.183505 -1.6116506 2
18.693661 13.08458 -1.8888084 0
4.835588 4.9035807 -0.58968055 0
14.198152 13.389022 -1.7300366 3
15.296959 13.410351 -1.8624492 0
15.08895 12.284336 -1.8402716 10
16.035255 12.114176 -1.9581178 6
17.675621 12.372006 -2.1683357 2
13.284207 13.470996 -1.9551141 0
13.65298 12.874919 -1.996245 2
14.501635 12.713115 -2.1069686 3
13.624294 11.943978 -2.3007872 1
13.181362 11.555675 -2.5363405 0
11.866461 10.402943 -2.5655453 0
10.291507 9.0222321 -2.4278045 0
9.0992641 7.9770312 -2.3973422 0
8.1793919 7.170609 -2.3478255 0
7.4073696 6.4938016 -2.3010581 0
6.7619505 5.9279838 -2.2594264 0
4.6765223 4.0997562 -2.1490781 0
0.62934399 0.55172557 -0.39153668 0
4.3794699 3.8137305 1.5243735 0
14.128363 12.303262 3.5934525 0
35.73381 31.11772 6.5623927 1
33.671722 29.322014 3.8144555 1
32.652443 28.434402 2.1676121 0
33.414886 29.098356 1.4342624 0
15.293141 12.366474 0.57890737 7
102.79304 96.293022 2.4831386 2
34.852463 30.350224 0.6767897 2
15.25517 12.33577 0.23011009 10
31.613811 23.719069 0.34559736 10
34.096825 23.697908 0.2420586 9
100.07954 93.751114 -0.011967024 2
34.853024 30.350714 -0.14035189 2
15.221733 12.308731 -0.11719061 12
31.604164 23.71183 -0.35238829 9
34.104839 23.70348 -0.49439737 12
41.124798 41.427368 -0.86503416 2
31.012495 27.006304 -0.85207307 2
15.195964 12.287893 -0.46327499 10
31.549446 23.670778 -1.0500476 8
34.082462 23.687929 -1.2289635 9
37.738998 38.016659 -1.7414581 1
26.081364 24.432135 -1.2692133 0
27.975897 24.361973 -1.4264039 0
15.177886 12.273275 -0.80854398 12
31.526445 23.653521 -1.7477003 11
34.046143 23.662685 -1.9625311 12
5.8766699 5.9199071 -0.41876704 0
25.641142 24.019749 -1.8702096 0
27.485706 23.935106 -2.0466137 0
15.170625 12.267404 -1.1536356 13
31.487328 23.62417 -2.4414201 10
34.061535 23.673384 -2.6984062 10
23.589008 23.762562 -2.2744119 0
26.055674 24.408068 -2.5328662 0
15.140031 12.242664 -1.4964701 52
16.132256 12.103636 -1.6081532 2
18.547091 12.890564 -1.8696694 0
24.132761 24.310316 -2.9330466 1
14.268644 13.36638 -1.7332156 1
15.37439 13.388327 -1.8664607 0
15.148182 12.249256 -1.8425314 13
15.973435 11.984477 -1.9457051 2
17.585827 12.222468 -2.1523361 2
13.30638 13.404282 -1.9518248 0
13.803006 12.930186 -2.0119002 2
14.486737 12.615342 -2.0987146 3
13.397493 11.666806 -2.2559404 2
13.29126 11.574296 -2.5500875 0
11.918757 10.379093 -2.5693967 0
10.318398 8.9854679 -2.4271057 0
9.1434212 7.9622746 -2.4020064 0
8.1765881 7.120337 -2.3402302 0
7.4200506 6.4615288 -2.2983284 0
6.7786455 5.9029808 -2.2584515 0
4.6957941 4.0891914 -2.151691 0
0.66942286 0.5829469 -0.41526619 0
13.552218 11.714481 3.4359705 0
35.239124 30.460552 6.4509983 1
35.223236 30.446819 3.9775479 2
35.047398 30.294825 2.3192129 1
34.005245 29.393993 1.4549682 1
34.520233 23.805023 0.98672712 2
31.12369 26.903189 0.60246289 12
15.328355 12.302305 0.23053232 2
31.838488 23.705753 0.34710133 11
34.522614 23.806667 0.24446031 4
101.17242 101.17242 0.40704584 1
31.123859 26.903336 -0.12493675 13
15.29482 12.275391 -0.11740612 1
31.825603 23.696159 -0.3538866 9
41.222626 41.222626 -0.86390805 2
68.175621 63.397064 -1.655901 0
31.023533 26.816612 -0.84967005 12
15.268967 12.254642 -0.46412817 3
31.76749 23.652891 -1.0544121 8
37.722603 37.722603 -1.7343097 1
26.223427 24.385378 -1.2717688 0
28.131529 24.316776 -1.4297851 0
15.269522 12.255087 -0.81102723 6
31.741137 23.63327 -1.7547882 11
45.398357 31.306536 -2.6102779 3
24.288229 24.288229 -1.7244056 0
26.211641 24.374416 -1.905292 0
31.053896 26.842857 -2.3049634 2
15.274652 12.259205 -1.1581217 7
31.7178 23.615894 -2.4525626 10
34.437241 23.747793 -2.7212565 1
24.327808 24.327808 -2.3370328 0
26.223846 24.385767 -2.540509 1
27.731802 23.971254 -2.7072978 0
16.214886 12.073002 -1.6119685 2
18.522015 12.772712 -1.8624099 0
23.931437 23.931437 -2.8978977 1
14.451756 13.438806 -1.7494633 0
15.498695 13.397008 -1.8755778 0
15.21782 12.213593 -1.8455446 2
16.1833 12.049484 -1.9658759 1
17.817263 12.286717 -2.1751356 3
2.9259822 2.9259822 -0.42761695 0
13.786222 12.81992 -2.0025916 1
14.409539 12.455545 -2.0809031 3
13.629293 11.781105 -2.2876859 1
13.378518 11.564335 -2.5586793 0
11.947758 10.327593 -2.567471 0
10.333385 8.9321346 -2.4229138 0
9.1606684 7.9184442 -2.3988969 0
8.2174206 7.1031041 -2.3444498 0
7.4260025 6.4190059 -2.2928691 0
6.8002357 5.8780956 -2.2584515 0
4.70503 4.067008 -2.1490781 0
0.64962667 0.56153458 -0.40170649 0
32.805103 28.157124 8.2922926 1
30.922573 26.541319 5.6438003 1
35.220428 30.230234 3.9652905 1
31.126364 26.716234 0.6007058 12
30.989525 24.694365 0.46477079 12
32.07222 23.706217 0.3487452 10
98.984161 67.750496 0.69924414 2
3.4996474 3.0038009 -0.014006035 0
31.153767 24.825243 -0.23847595 1
32.052868 23.691914 -0.35549194 8
68.078476 46.596851 -0.98203391 2
41.204502 40.917843 -0.86052972 2
31.041086 26.64304 -0.84759849 13
33.43169 26.640432 -1.0133843 2
31.984909 23.641684 -1.0588832 8
4.8303251 3.3061543 -0.17331688 0
37.743412 37.480831 -1.7292409 1
26.414116 24.391319 -1.2768798 0
28.376993 24.356407 -1.4379307 0
33.46244 26.664936 -1.7723734 2
31.971258 23.631594 -1.7629392 10
45.543629 31.172697 -2.6123583 1
23.973167 23.806385 -1.6961268 0
25.991369 24.000948 -1.8831794 0
31.017099 26.622452 -2.2953203 1
31.944511 23.611822 -2.4637048 10
34.681328 23.737909 -2.7339799 0
23.999144 23.83218 -2.2974541 0
25.87204 23.890755 -2.4983325 0
16.010134 12.757861 -1.5734087 0
16.298615 12.04714 -1.6161017 2
5.6712661 3.881743 -0.56888634 0
24.464466 24.294266 -2.9521565 2
4.5108643 4.1654215 -0.54430103 0
15.599774 13.389525 -1.8821422 0
15.852091 12.631924 -1.9171065 4
16.129217 11.921929 -1.9542388 1
17.817348 12.195225 -2.1699357 3
13.520535 13.426472 -1.9690939 0
13.798744 12.742035 -1.9979374 4
14.597761 12.529483 -2.1017554 2
13.838956 11.878188 -2.3159041 1
13.466868 11.55882 -2.5678442 0
11.971752 10.275538 -2.5649035 0
10.370479 8.9011412 -2.4243112 0
9.1733675 7.873642 -2.3950102 0
8.2243643 7.0590978 -2.3393862 0
7.460187 6.403193 -2.2965086 0
6.814826 5.8492699 -2.2565022 0
4.704854 4.0382481 -2.1425459 0
0.67907584 0.58286119 -0.41865611 0
12.299537 10.482542 4.242044 0
14.623306 12.463024 3.6853797 0
34.977474 29.810297 6.3648458 0
35.046673 29.869272 3.9339659 1
32.679123 27.851479 1.3898745 0
31.094624 26.501055 0.59830433 13
31.000256 24.526484 0.46364489 14
32.306343 23.705334 0.35038906 10
99.286224 67.449516 0.69971049 1
3.9033716 3.5792885 -0.00046216318 0
31.125216 26.527126 -0.12419575 8
30.951641 24.488022 -0.23627295 12
68.26387 46.374664 -0.98236716 2
41.386955 40.81308 -0.86135948 2
6.3257637 5.8005576 -0.1526576 0
31.039541 26.454109 -0.84502977 11
30.940367 24.479101 -0.93527132 14
32.202644 23.629244 -1.0633543 7
58.866013 39.990284 -2.1071496 1
37.919563 37.393764 -1.7313204 2
35.9921 33.003803 -1.7343076 2
31.044573 26.458399 -1.5684142 7
30.92881 24.469957 -1.6336429 6
32.217869 23.640413 -1.7719764 9
45.602589 30.979853 -2.6095214 2
24.625027 24.283573 -1.7362387 0
28.006449 23.869093 -2.0663488 0
30.237486 23.923002 -2.2798824 0
32.155491 23.594645 -2.4736092 10
36.206833 24.596903 -2.8474522 1
24.650499 24.308693 -2.3516715 0
26.599306 24.39086 -2.5603237 0
28.092785 23.942675 -2.7261536 0
16.01078 12.667255 -1.5691173 3
16.375931 12.016122 -1.6195991 1
18.47224 12.549009 -1.8485507 1
24.625742 24.284277 -2.9613705 1
14.642133 13.426449 -1.7611194 0
15.700985 13.381499 -1.8887066 0
16.045992 12.695113 -1.9351853 3
16.260607 11.9315 -1.9651 1
17.793964 12.088226 -2.1619358 3
13.643811 13.454624 -1.9801955 0
13.890043 12.736803 -2.0047073 2
14.565748 12.413969 -2.0908949 3
14.306167 12.192735 -2.3869534 1
13.561365 11.557962 -2.5781546 0
11.992522 10.220882 -2.5616941 0
10.377505 8.844449 -2.4187219 0
9.2067671 7.8466635 -2.396565 0
8.2430019 7.0252743 -2.3376982 0
7.4706345 6.3670073 -2.2928691 0
6.8381538 5.8279619 -2.2574768 0
4.7217984 4.0242534 -2.1438525 0
0.66731858 0.56873649 -0.41018131 0
14.624741 12.376375 3.6748307 0
13.885537 11.750814 2.5192695 0
36.404152 30.807482 4.0742459 1
75.401619 59.228748 2.8222764 1
4.7579188 3.2080483 0.13503274 0
31.080086 26.301922 0.59625435 11
30.99132 24.343998 0.46223748 13
32.544079 23.705462 0.35206792 10
66.53199 44.859501 0.46777168 2
8.9703541 8.1681194 -0.0010587167 0
31.110756 26.327877 -0.12377059 10
30.964584 24.322998 -0.23572218 12
32.482601 23.660679 -0.35841721 11
67.924576 45.798454 -0.97517782 2
41.54631 40.685154 -0.86171508 2
4.0364647 3.6754763 -0.097100474 0
31.021799 26.252598 -0.84204674 11
30.950155 24.311665 -0.93299615 14
32.459457 23.643822 -1.0691026 7
59.051659 39.815849 -2.1088071 1
38.06414 37.275162 -1.7319703 2
35.979992 32.762238 -1.7282029 2
31.026901 26.256914 -1.5628814 8
30.938608 24.302593 -1.6296698 10
32.435852 23.626627 -1.7794187 9
45.693886 30.809311 -2.6085758 2
24.355707 23.850872 -1.7113694 0
26.474308 24.106663 -1.9059299 0
31.010138 26.242727 -2.2811916 3
32.415142 23.61154 -2.4872277 10
24.398746 23.893019 -2.3196833 0
26.23291 23.886854 -2.5170147 0
16.058037 12.613752 -1.5694238 2
16.482235 12.005838 -1.625958 2
18.466354 12.451024 -1.843601 6
24.844187 24.329227 -2.9774091 1
14.75667 13.436954 -1.7692432 0
15.814495 13.38322 -1.8967296 0
16.121525 12.663623 -1.9389517 2
16.765543 12.212204 -2.0209575 1
17.91855 12.081665 -2.1719356 3
5.2534056 5.144515 -0.75984246 0
14.084411 12.824817 -2.0262859 1
14.718265 12.455521 -2.1065342 3
14.391047 12.178609 -2.3940079 1
7.2737436 6.155499 -1.3787198 0
12.028127 10.178957 -2.5616941 0
10.393283 8.7954493 -2.4152288 0
9.2281113 7.8094082 -2.3950102 0
8.2853832 7.0116119 -2.342762 0
7.4868674 6.3358579 -2.2910495 0
6.8673401 5.8115749 -2.260401 0
4.7387028 4.0101881 -2.1451588 0
0.67759699 0.57342517 -0.41526619 0
12.801914 10.757321 4.3893018 0
13.864836 11.650483 3.4736457 0
13.871868 11.656393 2.5093923 0
6.2062778 5.2150736 0.69254684 0
8.7459373 6.8207927 0.32646656 0
64.939354 43.456696 1.8387038 2
31.073719 26.110937 0.59438008 12
30.972023 24.154501 0.46068934 14
32.76276 23.690147 0.3535369 11
66.787903 44.693722 0.4684712 2
100.97501 98.193909 0.40069607 2
78.087608 70.607094 -0.0091870641 1
31.098345 26.13163 -0.12335758 10
30.964136 24.14835 -0.23507565 12
32.727058 23.664331 -0.36020091 9
59.697346 39.948799 -0.85505414 2
41.788433 40.637474 -0.8637895 1
37.232513 33.665775 -0.89282644 0
31.033644 26.077263 -0.83989233 9
30.952841 24.139542 -0.93053144 12
4.9899793 3.6081619 -0.16393688 0
58.934418 39.438259 -2.0996914 1
38.156765 37.105831 -1.7302806 1
36.07338 32.61768 -1.7272091 2
31.032682 26.076456 -1.5585779 8
30.928707 24.12072 -1.6247033 10
32.654133 23.611601 -1.7868609 10
45.791191 30.642958 -2.6080084 2
5.5877333 5.4338331 -0.39129049 0
36.296928 32.819813 -2.6048133 0
30.539152 23.816914 -2.2900352 5
32.649418 23.608192 -2.4988654 11
36.573395 24.474508 -2.8627722 0
26.922832 24.343721 -2.575043 0
16.076811 12.538004 -1.5669717 3
16.633902 12.027668 -1.636768 1
18.360619 12.286722 -1.8287519 15
24.906105 24.220127 -2.9746792 0
14.85077 13.42812 -1.7748946 0
15.937356 13.392002 -1.9058467 0
15.996059 12.475028 -1.9186131 3
16.501589 11.931994 -1.9841071 1
17.904385 11.981415 -2.1651359 2
5.6963463 5.5394545 -0.82110679 0
13.978624 12.639523 -2.0047073 5
14.801229 12.437325 -2.1121817 3
14.9317 12.546959 -2.4766467 1
13.73265 11.53941 -2.5953383 0
12.078698 10.149611 -2.5649035 0
10.429952 8.764185 -2.416626 0
9.2583189 7.7796736 -2.3957875 0
8.2948399 6.9700718 -2.3385422 0
7.5089378 6.3096857 -2.2910495 0
6.8786736 5.7800813 -2.2574768 0
4.7700391 4.0082164 -2.1529975 0
0.67682058 0.56872559 -0.41357124 0
14.186891 11.841062 3.5444748 0
35.973087 30.02487 6.4894099 1
7.8606009 5.2225709 0.22207476 0
31.055737 25.92061 0.59238869 11
30.969738 23.987982 0.45946959 13
33.00359 23.698023 0.3552857 10
60.53569 40.219814 0.42367834 1
8.2788067 7.4359765 -0.00097110117 0
31.221682 26.059116 -0.12350335 10
30.952339 23.974504 -0.23438123 13
32.9743 23.676991 -0.36205599 9
59.926102 39.814808 -0.85643488 1
41.868305 40.445877 -0.86266339 2
37.055336 33.28289 -0.88592625 1
31.193634 26.035707 -0.84188098 11
30.931555 23.958405 -0.92749792 13
32.918457 23.636894 -1.0788963 11
58.958309 39.171806 -2.0959029 1
4.0427494 3.9054015 -0.18273677 0
36.092125 32.41774 -1.72295 2
31.195702 26.037434 -1.5624202 10
30.916895 23.94705 -1.6199023 14
32.920517 23.638372 -1.7971385 10
45.889225 30.488729 -2.6078193 1
24.744478 23.903812 -1.7272135 0
27.08947 24.331606 -1.9382482 0
28.640144 23.904442 -2.09483 0
30.741081 23.810871 -2.2992435 7
32.863724 23.597593 -2.5092647 11
36.644375 24.346466 -2.8619933 0
24.948299 24.10071 -2.3562799 0
26.641266 23.929033 -2.540509 0
28.70841 23.96142 -2.7618032 0
16.023708 12.411355 -1.5577757 2
18.451832 13.249224 -1.8113184 0
18.404583 12.227976 -1.8290819 20
24.742641 23.902039 -2.9456728 3
14.951537 13.429385 -1.7816057 0
16.100945 13.438622 -1.9200695 0
16.034193 12.419476 -1.9182365 2
16.521662 11.863276 -1.9817797 2
17.983799 11.948407 -2.1699357 3
13.858897 13.388057 -1.991297 0
14.209847 12.763204 -2.0317864 2
14.75081 12.311735 -2.099149 3
14.440099 12.052402 -2.3884652 0
13.85594 11.564834 -2.6113765 0
12.106227 10.10444 -2.5636199 0
10.461981 8.7320728 -2.4173248 0
9.2931032 7.7564712 -2.3981197 0
8.3059006 6.9325047 -2.3351665 0
7.523839 6.279758 -2.2892296 0
6.8948259 5.7547531 -2.2565022 0
4.7716947 3.9826858 -2.1477716 0
0.70651847 0.58969432 -0.43052086 0
14.216038 11.781441 3.5414608 0
32.615124 27.029551 5.8665891 1
31.041327 25.725279 0.59039724 10
30.980358 23.82365 0.45839059 14
33.239197 23.691786 0.35692957 8
60.495388 39.889362 0.42241922 1
100.93674 96.828674 0.39791945 2
30.956568 23.805357 -0.23378259 12
33.196804 23.66157 -0.36358997 8
60.298458 39.75951 -0.85976768 2
42.170868 40.454536 -0.86598247 1
37.189198 33.169315 -0.88635308 1
32.186523 26.674351 -0.86615968 0
30.938917 23.791782 -0.92522281 13
33.150547 23.628599 -1.083793 9
4.7832518 3.1539736 -0.16964692 0
25.506582 24.468479 -1.1490582 0
36.327377 32.40065 -1.7287707 1
32.16658 26.657824 -1.6063758 1
30.917925 23.77564 -1.6155981 14
33.132992 23.616087 -1.8042263 10
46.068756 30.376749 -2.6119802 1
25.401472 24.367647 -1.7671248 0
20.279327 18.087278 -1.446457 0
30.943548 25.644247 -2.2567472 1
8.4672651 6.51126 -0.63159543 0
33.111698 23.60091 -2.5218928 11
36.612507 24.141502 -2.852905 0
25.372105 24.339476 -2.388268 0
27.320168 24.367056 -2.5971222 0
16.000542 12.30429 -1.5513387 2
18.4655 13.16159 -1.808139 0
18.370609 12.113187 -1.8214923 8
25.329233 24.298347 -3.0053916 1
15.051846 13.42485 -1.7879635 0
16.181494 13.410297 -1.9240811 1
16.042723 12.336727 -1.9140934 1
17.383179 12.390147 -2.0799184 7
17.845972 11.767251 -2.1483364 3
8.2893486 7.9519763 -1.1870482 0
14.322586 12.774418 -2.041518 3
14.922283 12.366736 -2.1173949 3
14.836496 12.295641 -2.4469171 1
13.969378 11.577024 -2.6251237 0
12.104946 10.031888 -2.5559175 0
10.474203 8.6804218 -2.4131327 0
9.3019953 7.7089629 -2.3934555 0
8.3270397 6.9009748 -2.3343227 0
7.5517125 6.2584281 -2.2910495 0
6.9088974 5.7256999 -2.2545526 0
4.776835 3.9587679 -2.1438525 0
0.69741404 0.57797694 -0.42374101 0
15.475288 12.734178 5.2606626 0
15.330907 12.61537 3.8082006 0
34.857056 28.682884 6.2518053 0
36.406914 29.95822 4.0279398 0
15.199077 12.50689 0.98540545 0
15.244102 12.543941 0.63903165 0
34.071896 24.106396 1.1031383 0
65.544014 42.890797 1.8432206 2
31.032106 25.535442 0.58852297 10
31.091944 23.737207 0.4588128 13
33.478428 23.686506 0.35860842 9
60.547241 39.621002 0.42181295 2
101.34653 96.544724 0.39820394 2
32.412853 26.671621 -0.12747557 0
31.083986 23.731133 -0.23411782 9
33.458782 23.672609 -0.36555204 8
60.06538 39.305683 -0.85448283 2
101.8368 97.011765 -2.0842612 2
37.26284 33.002174 -0.88535714 0
54.136688 44.54755 -1.452659 0
31.028137 23.688494 -0.92541242 10
33.389507 23.623594 -1.0889028 8
59.243729 38.768005 -2.0963764 0
6.122241 5.8321691 -0.27488497 0
9.0105619 7.9802861 -0.4274722 0
29.586582 24.345963 -1.4732796 0
31.051556 23.706373 -1.6182468 12
33.375072 23.613382 -1.812909 9
46.268124 30.277008 -2.6172755 0
25.14505 23.953678 -1.7434587 0
27.447058 24.308737 -1.9516432 0
31.023994 23.685331 -2.3079796 12
33.324245 23.577421 -2.5317972 10
36.355877 23.790617 -2.8264196 0
25.51181 24.303061 -2.3934186 0
27.040651 23.948801 -2.5625882 0
16.106794 12.296765 -1.5574692 2
18.530859 13.110871 -1.8100467 0
4.8900609 3.199966 -0.48375142 0
25.532206 24.322489 -3.019383 0
15.17915 13.443552 -1.7975003 0
15.163959 12.477993 -1.7978998 0
16.313585 12.454639 -1.9412116 2
17.627819 12.471956 -2.1039681 3
18.046793 11.809489 -2.1675358 3
14.049975 13.384287 -2.0052769 0
14.402822 12.755991 -2.0465953 2
14.999134 12.342364 -2.1221735 3
14.86094 12.228648 -2.4438937 1
14.040273 11.553344 -2.6308517 0
12.133792 9.9845552 -2.5546336 0
10.528769 8.6638269 -2.4187219 0
9.3409672 7.6864181 -2.396565 0
8.3510771 6.8718657 -2.3343227 0
7.5705047 6.2295542 -2.2901397 0
6.9318376 5.7040133 -2.2555273 0
4.7906241 3.9420695 -2.1438525 0
0.70502269 0.58014321 -0.42713094 0
15.447739 12.621331 5.236289 9
13.300127 10.866659 3.294312 0
15.313807 12.511905 2.738766 9
15.249548 12.459403 1.6823373 7
15.217893 12.433539 0.98380542 6
15.210398 12.427416 0.63579637 6
5.662281 4.291678 0.2091316 0
1.9261514 1.8221078 0.054474946 0
6.6791329 5.873961 0.15680902 0
30.990967 25.320683 0.58606297 8
31.308489 23.730005 0.46078315 13
33.701653 23.668348 0.36011237 10
65.985481 42.851467 0.45865455 0
78.384148 74.150124 0.30696288 1
6.6441259 5.8431745 -0.00077213364 0
15.202807 12.421214 -0.059619796 0
31.300518 23.723963 -0.23512354 9
33.691784 23.661415 -0.36719304 8
60.406837 39.228653 -0.85738713 3
78.445595 74.208252 -1.6002095 1
37.359795 32.856056 -0.88493031 0
15.165549 12.390773 -0.40577671 5
31.254047 23.68874 -0.92967826 11
33.632103 23.619503 -1.094119 7
60.042625 38.992134 -2.119817 1
25.836514 24.44092 -1.1562065 0
36.495655 32.096092 -1.7260734 2
15.148316 12.376694 -0.75216258 2
31.267891 23.699234 -1.6251999 12
33.627342 23.616161 -1.8221233 10
46.443901 30.161016 -2.6212471 1
25.765413 24.373661 -1.7805622 0
27.486753 24.173216 -1.9484539 0
15.129481 12.361304 -1.0970891 2
6.5108814 4.9348674 -0.48308197 0
33.586033 23.587149 -2.5454156 11
36.830368 23.917917 -2.8568001 0
27.579498 24.25478 -2.6056142 0
15.071995 12.314336 -1.4374694 2
16.127371 12.223604 -1.5553235 2
18.641773 13.091938 -1.8164055 0
4.978096 3.2328129 -0.49134097 0
14.206869 13.439466 -1.6745154 1
27.002262 23.747129 -3.187746 0
15.099459 12.336775 -1.7851359 6
16.00786 12.133022 -1.899781 2
17.931887 12.593391 -2.135 3
18.14465 11.783272 -2.1743355 3
14.139965 13.376176 -2.0114443 2
14.56076 12.805455 -2.0626736 2
14.992858 12.249679 -2.1152227 3
14.808276 12.098868 -2.4282727 1
14.138763 11.551854 -2.6417348 0
12.180801 9.9521322 -2.5572011 0
10.531498 8.6045952 -2.4124341 0
9.3616648 7.6488004 -2.3950102 0
8.3962088 6.8599901 -2.3402302 0
7.5801382 6.1932325 -2.2865 0
6.9456978 5.6748729 -2.2535779 0
4.813139 3.9324994 -2.1477716 0
0.70704347 0.57767874 -0.42713094 0
15.495516 12.574911 5.2383204 2
14.184084 11.510659 3.5037858 0
15.373672 12.476033 2.7420583 6
15.309348 12.423833 1.6843802 8
15.274549 12.395593 0.98480546 8
15.260838 12.384465 0.63618463 7
34.491024 24.052322 1.1113818 0
65.642868 42.32016 1.8378569 1
1.9438404 1.8266649 0.054803606 0
34.781986 30.385048 0.8142224 0
15.226821 12.35686 0.28717437 9
31.543592 23.743919 0.46308193 12
33.944 23.670856 0.36186117 6
7.9910722 5.1518688 0.055425614 0
99.885101 93.863991 0.38994241 3
6.6243048 5.7868981 -0.00076759577 0
15.200431 12.335444 -0.059449729 9
31.500454 23.711447 -0.23603348 11
33.947227 23.673107 -0.36911944 8
59.75333 38.523155 -0.84629363 2
78.192848 73.479355 -1.5900744 1
34.836105 30.432325 -0.82275754 1
15.153765 12.297574 -0.40436804 10
31.488976 23.702806 -0.93432337 10
33.874237 23.622206 -1.0994416 7
60.426991 38.957466 -2.1288142 1
25.98443 24.418079 -1.1591958 0
8.7967367 7.6847038 -0.41483685 0
15.161342 12.303723 -0.75077933 10
31.480415 23.696363 -1.632153 12
33.849693 23.605093 -1.8299199 9
27.765303 24.255373 -1.9624869 0
15.108368 12.260734 -1.0926038 12
31.449282 23.672928 -2.3275769 11
33.834351 23.594391 -2.5582912 11
36.882641 23.778351 -2.8547227 1
25.897669 24.336548 -2.4140213 0
27.335255 23.879688 -2.575043 0
15.115846 12.266802 -1.4377639 19
16.135952 12.146072 -1.5522583 3
18.547718 12.934256 -1.8030519 0
14.213602 13.356801 -1.6700791 3
5.5151935 4.8179946 -0.64920527 0
15.096985 12.251496 -1.7800303 15
15.97801 12.027184 -1.8914949 2
18.283773 12.750194 -2.1718507 3
18.250525 11.76617 -2.1823354 2
14.166847 13.312864 -2.0089774 3
14.498302 12.66551 -2.0478647 2
15.04266 12.20741 -2.1165259 12
14.802097 12.012189 -2.4207144 2
12.186145 9.8892927 -2.5514243 0
10.569149 8.5770693 -2.41453 0
9.3686972 7.602879 -2.3903461 0
8.4098024 6.824718 -2.3376982 0
7.6036587 6.1705165 -2.28741 0
6.9705024 5.6566982 -2.2555273 0
4.8173461 3.9093697 -2.1438525 0
0.72864842 0.59131235 -0.43899569 0
14.187469 11.4315 3.4947438 0
34.449837 23.845303 1.1073657 1
65.911453 42.168343 1.8412445 3
31.09634 26.974518 0.72573525 6
15.266747 12.301125 0.28711581 9
31.757641 23.731829 0.46500537 12
34.180996 23.65922 0.36350504 5
9.6465235 6.1715813 0.066757903 0
79.325722 74.024216 0.30866981 1
31.073978 26.95512 -0.0035897931 7
15.262085 12.297368 -0.059522614 7
31.724012 23.706699 -0.2370871 11
34.197388 23.670565 -0.37093881 7
60.022202 38.400558 -0.84819812 3
31.05698 26.940374 -0.73127681 7
15.246423 12.284749 -0.40569383 4
31.734892 23.714828 -0.93915802 10
34.130741 23.624434 -1.1050836 8
60.390846 38.636406 -2.1227765 2
26.192272 24.441786 -1.1646545 0
31.048359 26.932896 -1.4597373 7
15.222872 12.265773 -0.75170147 7
31.703802 23.691595 -1.6394372 13
34.086319 23.593685 -1.8382483 9
46.961124 30.044439 -2.6388357 1
36.848614 34.385941 -2.5302515 0
28.175669 24.440983 -1.9854499 0
15.20394 12.250518 -1.0964162 6
31.682058 23.675346 -2.3386741 12
34.087204 23.594299 -2.571167 10
37.032665 23.692484 -2.859916 0
27.840406 24.150158 -2.6146722 0
15.186529 12.236489 -1.4404156 6
16.242147 12.137421 -1.5583888 2
11.284828 7.8110719 -1.0943581 0
33.082508 21.165281 -3.2509677 0
25.935741 24.202398 -3.0374691 2
15.503384 13.448409 -1.8193995 0
15.16137 12.216218 -1.782583 9
16.121973 12.047618 -1.9035474 2
18.380545 12.722547 -2.178057 2
18.388708 11.764591 -2.1939349 0
14.425588 13.461494 -2.0389929 0
14.611531 12.674771 -2.0575962 3
15.156395 12.212209 -2.1265178 7
14.915006 12.017711 -2.4323039 1
14.284883 11.509992 -2.6543362 0
12.24826 9.8689899 -2.5572011 0
10.559155 8.5079994 -2.4054477 0
9.4073992 7.579977 -2.3934555 0
8.4305296 6.7928677 -2.3368545 0
7.6251512 6.1439371 -2.28741 0
6.9781218 5.6225958 -2.2516284 0
4.8309627 3.8925302 -2.1438525 0
0.72506553 0.58421886 -0.43560576 0
14.563683 11.646858 3.5768754 0
2.8468182 2.2766554 0.50484163 0
33.388485 26.701416 3.6523845 0
34.494148 23.689449 1.1059918 0
66.335686 42.0979 1.8487724 3
31.091953 26.771635 0.72333801 8
31.045141 24.827398 0.58213872 10
32.005051 23.734398 0.46735102 13
34.584007 23.751162 0.36686274 4
59.98679 38.068771 0.41416481 1
31.081627 26.762745 -0.0035793211 10
31.968122 23.707012 -0.23826045 10
59.230476 37.588799 -0.83505732 4
31.082775 26.763733 -0.72956955 12
33.356125 26.675537 -0.88496941 2
31.966139 23.705542 -0.94342393 10
63.994312 43.949192 -2.0667756 4
59.964909 38.054882 -2.1028876 1
26.340334 24.399958 -1.1672539 0
31.062046 26.745884 -1.4557621 11
31.934883 23.682364 -1.6468869 11
47.025978 32.295898 -2.5296733 1
47.124905 29.906372 -2.6418614 1
26.262489 24.327847 -1.7972085 0
27.717194 23.865808 -1.9469656 0
31.903332 23.658964 -2.3485906 11
37.358536 23.708445 -2.8783519 1
26.261456 24.326889 -2.4316418 1
30.912996 26.617544 -2.8940573 0
16.289728 12.080184 -1.5586953 3
18.623363 12.789915 -1.8014622 0
33.25074 21.101559 -3.2598772 0
14.507631 13.438918 -1.6932842 0
15.918438 12.730282 -1.866096 2
16.162825 11.986074 -1.9031708 5
18.312191 12.576211 -2.1644804 3
14.416451 13.354454 -2.0307693 0
14.724198 12.678228 -2.0669048 2
15.17621 12.136708 -2.1230423 2
14.962052 11.965442 -2.4328079 2
14.308425 11.442723 -2.6508996 0
4.6713834 3.7357953 -0.97242963 0
10.596419 8.4741611 -2.4068449 0
9.4167328 7.5307426 -2.3887916 0
8.4370489 6.7472706 -2.3317907 0
7.6202412 6.0940537 -2.2792211 0
2.2965376 1.8365854 -0.738846 0
4.8422446 3.8724365 -2.1425459 0
0.71305406 0.57024306 -0.42713094 0
35.597466 28.26482 6.295156 0
34.612976 23.593672 1.1071544 0
66.536362 41.900188 1.850278 2
31.084902 26.577173 0.72101128 9
30.993797 24.609451 0.57956159 11
32.226204 23.724497 0.46936831 11
61.222725 38.554012 0.42176631 0
99.562828 91.584785 0.38485575 1
31.083652 26.576105 -0.0035688491 12
6.0239706 4.7831059 -0.023359589 0
32.211739 23.713848 -0.23945773 10
68.00798 46.357121 -0.734065 1
59.300396 37.343456 -0.83420032 4
4.9305177 4.5354314 -0.099275932 0
31.066578 26.561506 -0.7270087 12
30.918434 24.549612 -0.81801665 11
32.190388 23.69813 -0.947595 10
64.081261 43.6805 -2.0646465 3
59.684616 37.585411 -2.0884447 2
35.952713 33.071796 -1.5880944 2
31.061029 26.556761 -1.4513611 9
30.933537 24.561604 -1.518772 6
3.3407731 2.4594324 -0.17184043 0
47.036068 32.061779 -2.5241804 1
47.469063 29.892866 -2.6552892 1
36.981998 34.018604 -2.5226302 0
27.897486 23.851974 -1.9537694 0
32.1465 23.665821 -2.3603961 11
37.135056 25.312828 -2.7873292 2
37.501862 23.616186 -2.8830259 0
25.93795 23.859522 -2.3939607 0
27.988245 23.929573 -2.6124077 0
30.163139 23.949898 -2.8445923 0
16.415302 12.084725 -1.5666651 3
5.633975 3.8403563 -0.54368168 0
14.595518 13.425968 -1.6980616 0
15.632533 13.365605 -1.8232847 0
16.227013 11.946109 -1.9058073 2
18.214527 12.415793 -2.1478007 7
14.419055 13.263645 -2.0246019 2
14.786504 12.642262 -2.0694435 2
15.062778 11.960029 -2.101321 6
15.121819 12.006907 -2.4519558 1
14.289373 11.345936 -2.6400163 0
12.266003 9.7393551 -2.5462894 0
10.638272 8.4469175 -2.4096396 0
9.4521809 7.5051465 -2.3911235 0
8.4054317 6.674015 -2.3166001 0
7.6658697 6.0867939 -2.2865 0
2.3120489 1.8357948 -0.74177021 0
4.8675756 3.8649144 -2.1477716 0
0.70936525 0.56324464 -0.42374101 0
14.089181 11.107015 2.484699 0
34.228226 26.983356 3.723546 0
65.303398 44.180492 2.0838938 1
66.051445 41.273521 1.8327755 1
31.095165 26.398621 0.71910757 8
30.982143 24.424353 0.57774585 11
32.434765 23.703903 0.47119793 12
8.5406494 5.7781081 0.090167999 0
60.552998 37.837711 0.41624007 0
99.88781 91.242081 0.38487852 2
31.075603 26.382013 -0.00355733 12
30.975899 24.419428 -0.11978623 15
32.433186 23.702749 -0.2404874 9
59.226871 37.00906 -0.83134365 5
31.061543 26.370077 -0.72473234 12
30.928568 24.382116 -0.81602794 12
32.402058 23.68 -0.95138687 10
59.252312 40.086678 -1.904542 2
35.946911 32.835548 -1.5827656 1
31.037737 26.349867 -1.4459662 8
30.921778 24.376762 -1.5140077 12
32.39307 23.673431 -1.6619519 11
47.131145 31.8862 -2.5232942 1
26.632263 24.327124 -1.8108466 0
31.056032 26.365398 -2.1685162 0
30.864594 24.331684 -2.2069609 1
2.8337717 2.070971 -0.20754108 1
37.312466 25.24345 -2.7940147 2
37.837948 23.643774 -2.9025006 1
26.613333 24.309832 -2.4484491 0
28.406187 24.11578 -2.6435447 0
16.180578 12.755738 -1.5217317 0
16.505686 12.062649 -1.571263 2
18.497536 12.514359 -1.7807959 2
14.704089 13.431385 -1.7052279 0
15.785402 13.40121 -1.8356472 0
16.216511 12.784067 -1.89053 2
16.310411 11.919939 -1.9107037 1
18.343485 12.410138 -2.1578863 3
14.49758 13.24275 -2.0291247 2
14.785061 12.551958 -2.0630968 2
15.13254 11.929532 -2.1052308 3
14.982896 11.811563 -2.42273 3
14.341327 11.305791 -2.6423075 0
12.312326 9.7062559 -2.548857 0
10.683158 8.4219227 -2.4131327 0
9.4752407 7.469677 -2.3903461 0
8.4747362 6.680943 -2.3292589 0
7.6840115 6.0575862 -2.2855902 0
7.0375867 5.5479856 -2.2516284 0
4.884006 3.85024 -2.1490781 0
0.72839892 0.5742234 -0.43391079 0
14.118505 11.050441 2.4830527 0
34.127621 26.711412 3.702436 0
34.640087 27.112518 2.2022121 0
6.8033547 5.3249311 0.27965721 0
65.175049 43.762802 2.0749104 2
67.286072 41.719131 1.8629814 1
31.077042 26.197121 0.7165693 10
30.966427 24.237171 0.57587159 13
32.698608 23.722069 0.47382507 10
66.467148 44.630402 0.70007861 2
63.615089 39.443024 0.43633974 0
77.905182 70.664879 0.29922479 1
31.060463 26.183146 -0.0035451127 11
30.975904 24.244589 -0.11945824 11
32.638756 23.678646 -0.24139734 10
67.855095 45.562359 -0.72896361 2
59.45768 36.865322 -0.83277196 4
5.2168293 4.7319908 -0.10437308 0
31.064724 26.186737 -0.72266936 12
30.909563 24.192667 -0.81329352 11
32.669014 23.7006 -0.95679033 10
59.016766 39.627728 -1.8925128 2
60.608177 37.578663 -2.1115298 2
36.090923 32.736729 -1.5840653 2
31.022552 26.151188 -1.4409972 9
30.934286 24.212017 -1.5104728 14
32.624313 23.668171 -1.6695672 13
47.189083 31.685844 -2.5204592 0
48.966988 30.360817 -2.7271562 0
36.046818 32.69672 -2.4432089 0
28.377886 23.921803 -1.9756694 0
30.452436 23.834877 -2.1715276 0
2.8571436 2.0727904 -0.20872164 0
37.579338 25.233231 -2.8073854 2
38.083084 23.612513 -2.9149642 1
26.293066 23.849457 -2.4113102 0
28.441385 23.97533 -2.6390157 0
16.133905 12.627877 -1.5131876 2
32.617611 23.663307 -3.0971599 7
18.574209 12.471942 -1.7839754 2
33.378407 20.69549 -3.2509677 0
