# .PCD v0.7 - Point Cloud Data file format
VERSION 0.7
FIELDS x y z intensity
SIZE 4 4 4 4
TYPE F F F F
COUNT 1 1 1 1
WIDTH 1347
HEIGHT 1
VIEWPOINT 0 0 0 1 0 0 0
POINTS 1347
DATA ascii
-10.175993 -6.920794 -2.0007019 1
-9.1415424 -6.2172546 -1.961107 0
-8.2896414 -5.6378679 -1.986125 1
-7.6139097 -5.1782961 -1.9874655 1
-7.0053101 -4.7643814 -1.9789644 0
-6.4990659 -4.4200797 -1.9748049 1
-4.7392459 -3.2232084 -1.9805486 2
-0.7429862 -0.50531232 -0.42035109 0
-14.773415 -9.9722986 4.67874 1
-17.321999 -11.692634 4.0086322 15
-17.073641 -11.524988 2.8529041 13
-17.141014 -11.570466 1.7667776 21
-22.205059 -14.98878 1.3412074 5
-12.959621 -8.7479572 0.50612652 0
-46.464584 -28.955437 1.6115019 8
-67.548462 -38.763695 2.0584235 7
-17.245777 -9.0811262 0.45864084 12
-9.7766819 -7.687963 0.25553104 0
-49.134304 -35.829361 1.0720688 2
-59.908932 -40.439514 1.0584979 28
-12.457982 -7.7634683 0.17217208 0
-67.201736 -38.564724 0.67751914 6
-27.949381 -14.717335 0.18413803 1
-52.135281 -40.996948 0.18868402 5
-60.398849 -44.043613 -0.0065233423 1
-60.365967 -40.74802 -0.22118117 12
-56.678211 -35.320286 -0.39979863 2
-50.178329 -28.795584 -0.51598954 5
-27.912485 -14.697906 -0.37551156 16
-51.928555 -40.834385 -0.97894961 20
-32.110901 -23.415676 -0.70687723 3
-23.709747 -16.004469 -0.59271407 42
-25.161821 -15.680148 -0.70282805 21
-25.192255 -14.456953 -0.77327108 6
-27.912846 -14.698096 -0.93406433 41
-20.122265 -15.823286 -0.83219314 33
-21.627563 -15.771094 -0.95063227 22
-12.811067 -8.6476803 -0.59432214 15
-12.797526 -7.9750628 -0.62461841 19
-13.160097 -7.5521188 -0.67281944 18
-17.287823 -9.1032667 -0.92481232 1
-21.005711 -16.517988 -1.3415387 15
-21.681606 -15.810504 -1.4283843 16
-12.575277 -8.4885187 -0.85197085 14
-12.681112 -7.9025168 -0.88352531 21
-12.985021 -7.4516482 -0.928532 20
-17.330715 -9.1258526 -1.2741609 2
-11.591444 -9.1150141 -1.0016629 0
-12.605278 -9.1919298 -1.1067845 8
-12.517894 -8.4497843 -1.1154456 14
-12.577904 -7.8382001 -1.1390584 25
-12.986099 -7.4522672 -1.1938741 25
-14.232399 -7.4943695 -1.3314713 25
-11.275047 -8.8662128 -1.2281599 13
-11.747349 -8.5663166 -1.2888738 14
-12.493109 -8.433054 -1.3799702 19
-12.437282 -7.7505679 -1.3860416 18
-13.072959 -7.5021133 -1.4685884 13
-14.709558 -7.7456269 -1.6707505 4
-11.062446 -8.6990328 -1.4543089 20
-10.573491 -7.7103243 -1.3920403 7
-11.736196 -7.9221253 -1.5469928 18
-11.45215 -7.7303901 -1.7545644 16
-10.972336 -7.406507 -1.9154296 1
-10.20009 -6.8852286 -2.0007019 1
-9.1697187 -6.1897111 -1.9625044 1
-8.3060198 -5.6066999 -1.9853476 1
-7.6416626 -5.1582479 -1.9899974 0
-7.0380421 -4.7507939 -1.9835138 0
-6.5208874 -4.4017062 -1.9767543 2
-4.7598691 -3.21299 -1.9844679 2
-0.74174267 -0.50068849 -0.41865611 0
-13.271714 -8.8913517 4.1932964 0
-16.918846 -11.334739 3.9061561 24
-17.064388 -11.432244 2.8446729 12
-17.207785 -11.528313 1.7695016 22
-53.381874 -35.763054 2.0798941 23
-54.941235 -33.972149 1.9013675 8
-67.787628 -38.586998 2.0615942 2
-17.245466 -9.0042181 0.45779395 16
-9.9862871 -7.7965312 0.26029658 0
-49.220207 -35.629478 1.0712228 27
-60.109531 -40.270229 1.0595522 11
-54.750332 -33.854107 0.75502384 9
-67.624474 -38.494125 0.68042213 10
-27.936758 -14.586366 0.18371831 16
-56.950645 -44.462723 0.20554848 2
-9.7107801 -7.0294304 -0.0010461503 0
-63.209545 -42.347076 -0.23105706 10
-5.6712718 -3.506752 -0.039917603 0
-56.271378 -32.031559 -0.57749158 0
-27.945889 -14.591134 -0.3752735 21
-59.391006 -46.367966 -1.1165727 5
-32.27668 -23.364412 -0.70872676 10
-24.184095 -16.202074 -0.60315472 11
-25.383066 -15.695267 -0.7074731 20
-25.437172 -14.479693 -0.77923244 7
-27.96398 -14.600578 -0.93406433 40
-20.338087 -15.878428 -0.83882159 19
-21.740774 -15.737691 -0.95318776 34
-12.764796 -8.5517435 -0.59078729 23
-12.82189 -7.9282374 -0.62445289 21
-13.262784 -7.5496221 -0.67671776 15
-17.386787 -9.0780058 -0.92840564 2
-20.480684 -15.989757 -1.3044353 42
-21.772261 -15.760484 -1.4307231 15
-12.558379 -8.4134541 -0.84883118 15
-12.654284 -7.8246007 -0.87974751 26
-13.05259 -7.4299731 -0.9315033 25
-17.373079 -9.0708485 -1.2749399 5
-11.689248 -9.1260729 -1.0073557 1
-12.650218 -9.1572285 -1.1079167 9
-12.490972 -8.3682947 -1.1104369 13
-12.618758 -7.8026342 -1.1402845 21
-13.088272 -7.450284 -1.2008688 15
-14.322078 -7.4778566 -1.3374109 28
-11.227391 -8.7654905 -1.2196287 14
-11.631945 -8.4201212 -1.2729791 10
-12.449663 -8.340621 -1.3719471 15
-12.508294 -7.7343302 -1.390938 14
-13.112909 -7.4643087 -1.47014 15
-14.785896 -7.7200255 -1.6763504 3
-11.120968 -8.6824036 -1.4580094 11
-11.612048 -8.4057188 -1.5248976 28
-11.625029 -7.7881589 -1.528747 10
-11.693348 -7.8339295 -1.7873176 17
-11.054033 -7.405622 -1.9251671 1
-10.224061 -6.8495841 -2.0007019 1
-9.1781797 -6.1488986 -1.9597098 1
-8.3418379 -5.5885935 -1.9892344 1
-7.6563725 -5.1293674 -1.9891534 1
-7.0416369 -4.7175269 -1.9798744 0
-6.5426574 -4.3832369 -1.9787037 3
-4.7522097 -3.1837311 -1.9766293 2
-0.71037507 -0.475914 -0.40001151 0
-13.309114 -8.8492508 4.1953278 0
-16.948498 -11.269081 3.9038954 25
-17.104193 -11.372603 2.8446729 12
-18.525671 -12.317746 1.9005883 16
-4.374671 -2.9087253 0.26300144 0
-10.526831 -6.9993057 0.40919766 0
-48.400269 -29.694607 1.6714052 5
-17.283895 -8.9476376 0.45798215 13
-54.242645 -42.044571 1.410022 4
-49.405979 -35.501804 1.0725625 14
-60.329674 -40.113289 1.0609579 10
-55.055676 -33.77784 0.75760406 32
-68.082344 -38.440742 0.68367487 21
-28.040791 -14.516335 0.18406807 8
-57.124477 -44.278339 0.20561676 1
-49.390919 -35.490978 -0.0053075464 24
-4.4567404 -2.9632933 -0.016253319 0
-11.019195 -6.7605128 -0.077392742 0
-38.974792 -22.005999 -0.39919266 7
-37.647366 -19.489529 -0.50463384 42
-59.590443 -46.189758 -1.1172839 0
-24.566511 -17.652832 -0.53807181 0
-24.180565 -16.077694 -0.60166317 23
-25.580853 -15.694403 -0.71145463 22
-25.529341 -14.414411 -0.78050983 0
-30.446987 -15.761992 -1.0151587 15
-20.443951 -15.846519 -0.84090108 14
-21.915686 -15.74802 -0.95844066 24
-12.794572 -8.5071306 -0.59078729 20
-12.852892 -7.8855252 -0.62461841 21
-13.320373 -7.5209665 -0.67831254 20
-17.581593 -9.1017513 -0.9371053 2
-21.079468 -16.339123 -1.3389314 19
-21.966619 -15.784619 -1.4398658 12
-12.564393 -8.354084 -0.84726131 12
-12.674711 -7.7762074 -0.87927532 28
-13.11321 -7.4039979 -0.93397939 22
-17.581875 -9.1018972 -1.287923 3
-11.743114 -9.1023254 -1.0092533 1
-12.685344 -9.115346 -1.1081998 18
-12.47028 -8.2915077 -1.1060176 17
-12.659514 -7.7668839 -1.1415106 20
-13.155862 -7.4280801 -1.2046841 14
-14.475539 -7.4937897 -1.3492903 27
-11.327221 -8.7799578 -1.2271361 13
-11.645085 -8.3678436 -1.2712131 16
-12.462119 -8.2860813 -1.3701236 20
-12.542003 -7.694788 -1.3916912 16
-13.208218 -7.4576411 -1.477898 17
-15.028356 -7.7799754 -1.7007496 3
-11.651222 -9.0310974 -1.5233854 8
-11.773751 -8.4603004 -1.5422453 10
-11.599166 -7.7123032 -1.5217961 11
-11.509145 -7.6524472 -1.7550683 19
-11.122674 -7.3954825 -1.9326135 1
-10.224896 -6.7985487 -1.9962087 1
-9.186471 -6.108098 -1.9569151 1
-8.3580294 -5.5572662 -1.9884571 1
-7.6612086 -5.0939488 -1.9857777 0
-7.0677934 -4.6993861 -1.9826039 0
-6.5546885 -4.358222 -1.977729 2
-4.7947774 -3.1880548 -1.9896936 1
-0.75427127 -0.5015161 -0.42374101 0
-17.659426 -11.648671 5.5531473 10
-17.130692 -11.299902 3.936296 15
-17.314436 -11.421106 2.8726587 8
-17.6192 -11.622137 1.8032095 11
-40.464832 -26.691782 2.4268134 8
-45.336662 -29.905382 1.7580488 4
-48.368748 -29.431786 1.66658 16
-15.006646 -8.4006891 0.4545505 0
-17.377058 -8.9152651 0.45958185 8
-2.5992088 -1.9994931 0.067374744 0
-49.29155 -35.146332 1.0672743 21
-58.957199 -38.889885 1.0343081 3
-55.158611 -33.563332 0.75732261 20
-15.025273 -8.4111166 0.15057147 1
-37.717018 -19.350641 0.2471185 15
-59.502499 -45.773483 0.21357104 5
-41.401302 -29.520353 -0.0044373251 2
-63.978416 -42.202023 -0.23275772 7
-54.156803 -32.953747 -0.37951654 9
-15.035722 -8.4169655 -0.15368383 3
-37.718544 -19.351423 -0.50463384 47
-60.881538 -46.834335 -1.1382653 6
-24.59849 -17.53945 -0.53736043 0
-24.192591 -15.958136 -0.60050309 9
-25.757772 -15.673286 -0.71477252 23
-27.933641 -15.637195 -0.85225886 15
-30.69309 -15.747028 -1.0214331 25
-20.590614 -15.83974 -0.84454024 16
-22.100199 -15.758095 -0.96397746 23
-12.765607 -8.4205656 -0.5880208 17
-12.864638 -7.8279734 -0.62379068 25
-13.421072 -7.5130877 -0.68203372 18
-17.696594 -9.0792027 -0.94145513 2
-21.189871 -16.30073 -1.3421403 13
-21.643814 -15.432679 -1.4149892 17
-12.591592 -8.3057804 -0.84703708 9
-12.747474 -7.75668 -0.88234472 28
-13.18206 -7.3792896 -0.93695068 17
-15.427431 -7.9150124 -1.1279712 0
-11.871289 -9.132226 -1.0173858 1
-12.656945 -9.0247755 -1.1028216 22
-12.497254 -8.2435522 -1.105723 16
-12.684491 -7.7183561 -1.1412041 22
-13.252584 -7.4187684 -1.211043 22
-14.573843 -7.4770808 -1.3558898 29
-11.286669 -8.6824942 -1.2192874 15
-11.753538 -8.38062 -1.2796901 20
-12.545605 -8.2754459 -1.3759587 16
-12.553114 -7.6384144 -1.3898081 20
-13.252831 -7.4189067 -1.4798374 16
-15.25507 -7.8265829 -1.7231489 9
-11.896214 -7.8470883 -1.5569847 10
-11.772294 -7.7653475 -1.7908449 17
-11.222404 -7.4026241 -1.945215 1
-10.279405 -6.7805943 -2.0019855 0
-9.2186575 -6.0808949 -1.9590111 1
-8.3455868 -5.5049915 -1.9806836 1
-7.6863532 -5.0701423 -1.9874655 0
-7.0589571 -4.6562934 -1.975325 0
-6.5641408 -4.3298984 -1.9757795 3
-4.7874937 -3.1579702 -1.981855 2
-0.72586012 -0.47879842 -0.40679136 0
-13.417416 -8.783453 4.2095456 1
-17.327797 -11.343309 3.9724641 14
-17.655869 -11.558075 2.9225941 2
-17.65633 -11.558376 1.8028691 22
-23.079887 -15.108804 1.3810077 4
-22.772236 -14.907406 0.88103026 7
-32.417946 -19.571198 1.1146232 20
-15.021896 -8.3404865 0.45412776 14
-55.463791 -42.359295 1.4338496 2
-49.430248 -34.985619 1.0676268 15
-58.577263 -38.346478 1.0252881 19
-54.799477 -33.08326 0.75080162 9
-7.3017163 -4.0540733 0.073029786 0
-72.056908 -36.651505 0.47126931 16
-57.732307 -44.091824 0.20666367 3
-27.667217 -19.582235 -0.0029579839 0
-59.707756 -39.086533 -0.21672305 13
-32.575226 -19.666151 -0.22779614 5
-15.023048 -8.3411264 -0.15325573 19
-73.864059 -37.570709 -0.98646176 25
-60.86982 -46.488033 -1.1350054 5
-24.447371 -17.303301 -0.5327366 0
-22.809389 -14.931727 -0.56487232 6
-25.938988 -15.659754 -0.71828002 23
-15.018325 -8.3385038 -0.45732 23
-31.022274 -15.779376 -1.0305488 17
-20.677549 -15.792039 -0.84583992 28
-22.357367 -15.824041 -0.97277963 23
-12.748105 -8.3453016 -0.58586913 24
-12.93294 -7.8078089 -0.6257773 18
-13.524078 -7.5088654 -0.68593204 18
-17.920488 -9.1151962 -0.95166779 2
-21.332363 -16.292139 -1.3475554 12
-21.987719 -15.562414 -1.4339124 12
-12.536975 -8.2070894 -0.84143054 16
-12.750542 -7.6976924 -0.88069195 24
-13.29151 -7.3797383 -0.94289327 18
-15.86055 -8.0674152 -1.1575726 2
-11.944324 -9.1222239 -1.02091 1
-12.629746 -8.9390516 -1.0977263 24
-12.589369 -8.2413874 -1.1113209 14
-12.68404 -7.6575441 -1.1387519 20
-13.327205 -7.3995566 -1.2154942 19
-14.681574 -7.4677339 -1.3634794 25
-11.434097 -8.7325487 -1.2319137 11
-11.737187 -8.3073177 -1.2747452 17
-12.507763 -8.1879654 -1.368665 14
-12.545607 -7.5739703 -1.3860416 18
-13.532735 -7.5136714 -1.5081542 21
-15.321317 -7.7931366 -1.7275488 8
-10.820672 -8.2640591 -1.4070243 10
-11.324268 -8.0150623 -1.4758165 6
-11.956803 -7.8272905 -1.5613289 8
-11.78605 -7.7155104 -1.7888293 17
-6.3229594 -4.1392035 -1.0934675 0
-10.273283 -6.7252069 -1.9962087 0
-9.2266483 -6.0400476 -1.9562165 1
-8.3942986 -5.4951658 -1.9876797 1
-7.6974635 -5.0389962 -1.9857777 0
-7.0947227 -4.6444235 -1.9807842 0
-6.588953 -4.3133311 -1.9787037 2
-4.7984886 -3.1412382 -1.981855 2
-0.74874663 -0.49015257 -0.41865611 0
-17.711119 -11.506132 5.5440073 8
-17.561647 -11.409026 4.016921 7
-17.440266 -11.330171 2.8803411 21
-17.709936 -11.505363 1.804231 15
-23.119083 -15.019447 1.3802077 10
-22.783903 -14.801695 0.87947732 13
-32.486069 -19.457911 1.1146232 18
-15.026399 -8.2745018 0.45338795 20
-16.789024 -8.4660387 0.44245574 7
-57.344902 -43.479839 1.478547 10
-27.610016 -19.397436 0.59487307 15
-22.8437 -14.840544 0.39892814 13
-32.556236 -19.499939 0.44511411 20
-15.048592 -8.2867222 0.15022171 21
-5.5394602 -2.79333 0.03616539 0
-57.812565 -43.834431 0.20640194 2
-27.620853 -19.40505 -0.0029457666 19
-22.792376 -14.807199 -0.082542077 15
-32.557892 -19.500931 -0.2271975 24
-15.052072 -8.2886391 -0.15325573 19
-46.570385 -23.483599 -0.62085336 5
-10.705253 -8.1168976 -0.19908528 0
-23.843311 -16.751135 -0.518296 2
-22.804359 -14.814984 -0.56346369 28
-26.165026 -15.671846 -0.7230199 16
-15.054344 -8.2898903 -0.45753291 29
-31.366346 -15.816804 -1.040138 14
-20.796265 -15.768068 -0.84843928 36
-22.445181 -15.768877 -0.9741993 24
-12.750341 -8.2833338 -0.58463961 24
-12.987546 -7.7790418 -0.62710166 22
-13.67272 -7.5290794 -0.69213396 16
-18.134148 -9.1443319 -0.96131307 13
-21.408207 -16.232052 -1.3487588 11
-12.772804 -8.9735432 -0.83092076 10
-12.575592 -8.1698065 -0.8421033 15
-12.825294 -7.681859 -0.8839975 27
-13.492045 -7.4295878 -0.95527369 17
-15.692593 -7.9131522 -1.1432912 2
-12.033337 -9.1238728 -1.0257896 2
-12.595579 -8.8490334 -1.0920651 26
-12.664891 -8.2278204 -1.1154456 12
-12.720959 -7.6193662 -1.1396714 24
-13.422808 -7.3914614 -1.221853 17
-14.832135 -7.4792576 -1.3750287 15
-11.407349 -8.6492376 -1.2257712 16
-11.779158 -8.2754555 -1.2761581 16
-12.456099 -8.0921774 -1.3599125 17
-12.595885 -7.5444522 -1.3886781 20
-13.54493 -7.4587092 -1.5066025 18
-15.266695 -7.6983886 -1.7183491 9
-11.375759 -8.6252861 -1.4752785 12
-11.062515 -7.7719784 -1.4381596 21
-11.787318 -7.6577001 -1.5356977 26
-11.806254 -7.6700015 -1.7878215 23
-11.366764 -7.3844843 -1.9612533 2
-10.283451 -6.6807041 -1.9936413 0
-9.2377663 -6.001369 -1.9541205 1
-8.4134283 -5.4658327 -1.9876797 1
-7.6854963 -4.9929276 -1.9781823 0
-7.0912919 -4.6068993 -1.975325 0
-6.6072221 -4.2924204 -1.9796785 1
-4.8157649 -3.1285896 -1.9844679 2
-0.76260602 -0.49543145 -0.42543599 0
-13.003657 -8.3834944 4.0612721 1
-17.690516 -11.405124 4.0372653 21
-18.095781 -11.666401 2.9818583 9
-18.785046 -12.110771 1.9094409 18
-39.388985 -25.394188 2.3462129 9
-22.862314 -14.739398 0.88051265 16
-32.581287 -19.360743 1.1155647 7
-15.107835 -8.2507439 0.45497322 3
-16.746933 -8.371624 0.44057375 13
-36.044231 -27.131708 0.92689574 0
-27.664431 -19.291796 0.59459102 18
-22.85503 -14.734702 0.39822528 20
-32.672241 -19.414789 0.44577089 19
-15.158168 -8.2782326 0.15102614 1
-72.139282 -36.06171 0.47015005 24
-58.000362 -43.658833 0.20652711 6
-27.658888 -19.287931 -0.002942625 20
-22.850653 -14.731879 -0.082566366 23
-32.677341 -19.41782 -0.22755668 21
-11.248013 -5.6227698 -0.14969042 0
-60.624088 -45.633801 -1.1244555 0
-27.68404 -19.305471 -0.60031569 31
-22.909716 -14.769958 -0.56478947 23
-26.432707 -15.707078 -0.72889733 18
-15.118285 -8.2564516 -0.45859745 4
-31.643091 -15.818065 -1.047478 25
-20.975746 -15.789152 -0.85350811 20
-22.673866 -15.811626 -0.98172373 14
-12.779181 -8.2387733 -0.58463961 32
-13.014619 -7.7336626 -0.62710166 13
-13.874279 -7.5770702 -0.70099384 12
-18.226711 -9.111351 -0.96452814 9
-21.515802 -16.195671 -1.3519677 11
-12.718863 -8.8695011 -0.82539266 20
-12.573826 -8.1063805 -0.84008497 15
-12.948144 -7.6941609 -0.89060861 16
-13.584474 -7.4188004 -0.95997828 18
-15.998602 -7.9975414 -1.1635449 8
-12.151197 -9.1466169 -1.0331088 12
-12.606752 -8.7913218 -1.0903667 19
-12.562779 -8.0992594 -1.1039553 14
-12.754333 -7.5789933 -1.1402845 22
-13.585009 -7.4190931 -1.2342528 15
-15.250374 -7.6235094 -1.4113265 20
-11.634886 -8.7579708 -1.2469287 14
-11.794897 -8.225174 -1.2747452 22
-12.521098 -8.0723867 -1.363924 24
-12.71115 -7.5533323 -1.3984709 19
-13.574378 -7.4132876 -1.5069904 15
-15.314831 -7.6557307 -1.720749 8
-11.42169 -8.5974913 -1.4773344 14
-11.680106 -8.1451244 -1.5147429 11
-11.824005 -7.6229692 -1.537001 12
-11.91967 -7.6846442 -1.8009228 12
-11.462344 -7.3898053 -1.973282 2
-10.296756 -6.6383467 -1.9917157 0
-9.2619705 -5.9712181 -1.9548192 1
-8.4357567 -5.4385557 -1.9884571 1
-7.689734 -4.957593 -1.9748065 0
-7.1237001 -4.592669 -1.9798744 0
-6.6058631 -4.2588181 -1.9748049 0
-4.8107696 -3.1015165 -1.9779357 3
-0.78564692 -0.50650877 -0.43730071 0
-13.291787 -8.500453 4.1415024 2
-17.659386 -11.293649 4.0206885 21
-17.497532 -11.190138 2.8764999 5
-18.839376 -12.048285 1.9104624 15
-22.435053 -14.347816 1.3332074 5
-43.03352 -27.521084 1.6534847 10
-49.975285 -29.44943 1.7074177 5
-17.289989 -9.3603678 0.51965237 12
-16.756006 -8.2995338 0.44000915 0
-36.249168 -27.07839 0.92960715 10
-27.800728 -19.235792 0.59600121 7
-22.949312 -14.676698 0.39892814 7
-54.590355 -32.168995 0.74320167 14
-71.404503 -38.656612 0.71001178 21
-17.925268 -8.8786898 0.11661065 5
-4.4383497 -3.3154793 0.015760651 0
-27.805048 -19.238781 -0.0029506537 8
-57.387917 -33.817543 -0.39876896 9
-58.270203 -31.546032 -0.59097636 9
-34.479462 -17.078262 -0.45802221 1
-65.353798 -48.819756 -1.2088548 2
-24.587444 -17.012466 -0.53181183 4
-24.904287 -15.926956 -0.61251813 11
-26.617575 -15.685202 -0.73240483 18
-28.971222 -15.684295 -0.87706226 23
-31.897913 -15.799577 -1.0539892 17
-21.14238 -15.793509 -0.85792702 29
-22.83357 -15.798932 -0.98612481 23
-12.778984 -8.1725016 -0.58325642 20
-13.135846 -7.7406898 -0.63157153 18
-28.826525 -15.60596 -1.4535522 10
-18.385298 -9.1065502 -0.97114748 2
-21.815065 -16.296009 -1.3670096 12
-12.685589 -8.7773724 -0.82114023 16
-12.586629 -8.0494852 -0.83896363 13
-12.904016 -7.6040773 -0.88565028 23
-13.780091 -7.460197 -0.97186345 12
-15.967003 -7.9087276 -1.1591307 12
-12.191037 -9.1067924 -1.0336511 13
-12.573266 -8.6996546 -1.0847054 20
-12.552052 -8.0273714 -1.1004198 14
-12.782028 -7.5321918 -1.1402845 21
-13.650679 -7.3901362 -1.2377502 13
-15.285359 -7.5710974 -1.4119865 20
-11.679682 -8.7248058 -1.2482938 12
-11.97896 -8.2884445 -1.2913462 14
-12.523753 -8.0092745 -1.3610065 23
-12.752475 -7.5147767 -1.3999774 20
-13.832523 -7.4885826 -1.5325918 7
-15.349923 -7.6030774 -1.721549 8
-11.478628 -8.5746174 -1.4806237 10
-11.660816 -8.0683155 -1.5083963 11
-12.032757 -7.6952691 -1.5604601 9
-11.934381 -7.6323557 -1.7989073 9
-11.546047 -7.3840051 -1.9830195 1
-10.337646 -6.6112008 -1.994925 0
-9.2937469 -5.9435997 -1.9569151 1
-8.4324923 -5.3928041 -1.9830157 1
-7.7374973 -4.9483361 -1.982402 0
-7.1503286 -4.5728259 -1.9826039 1
-6.6214275 -4.2345796 -1.9748049 0
-4.8189192 -3.0818274 -1.9766293 2
-0.76918405 -0.49191374 -0.42713094 0
-13.216844 -8.3876677 4.109004 0
-17.781618 -11.284564 4.039526 26
-17.442812 -11.069551 2.8611352 29
-18.928427 -12.012351 1.9152292 25
-22.427654 -14.233028 1.3298074 17
-43.031425 -27.308586 1.6497318 20
-6.7688522 -3.9569829 0.2307862 0
-17.431772 -9.3585854 0.5229286 12
-16.748978 -8.2233734 0.43906817 23
-36.16679 -26.820681 0.92508811 0
-55.227715 -37.928574 1.1811442 7
-54.689693 -34.70715 0.94855988 7
-54.981998 -32.141758 0.74700165 14
-39.03986 -20.959307 0.38746357 6
-17.923836 -8.8002033 0.11640079 0
-8.6299057 -6.3997922 0.030565422 0
-7.3826451 -5.0701571 -0.0007815584 0
-58.062469 -36.84758 -0.20883934 1
-50.026043 -29.244574 -0.3469024 4
-59.483006 -31.934607 -0.60214233 3
-4.473537 -2.1964068 -0.059323873 1
-65.074043 -48.257812 -1.2005571 1
-24.617014 -16.906153 -0.53117162 18
-24.942844 -15.829219 -0.61210382 23
-25.129002 -14.690086 -0.6900304 1
-29.230129 -15.692762 -0.88323653 16
-32.236401 -15.827353 -1.0633416 15
-21.2327 -15.745812 -0.8593567 32
-22.967669 -15.773438 -0.98953211 24
-12.783808 -8.112855 -0.58218056 23
-13.142082 -7.6826901 -0.63057822 25
-28.641417 -15.376701 -1.4415028 35
-18.578367 -9.121563 -0.97965801 3
-21.400106 -15.869958 -1.3375275 15
-12.614081 -8.6629353 -0.81454903 19
-12.580929 -7.9841037 -0.836721 17
-12.968398 -7.5811567 -0.88824749 28
-13.893988 -7.4592571 -0.97805369 15
-16.216658 -7.9620166 -1.1752297 9
-12.328533 -9.1426325 -1.0425969 2
-12.5312 -8.6060152 -1.078478 21
-12.583361 -7.9856477 -1.1007143 14
-12.859887 -7.5177226 -1.1448824 21
-13.859074 -7.4405127 -1.2542832 8
-15.218657 -7.4720201 -1.403407 28
-11.524392 -8.5462952 -1.2285012 20
-11.925712 -8.1901855 -1.2825159 15
-12.518001 -7.9441686 -1.3573596 18
-12.83707 -7.5043845 -1.4063803 18
-14.0059 -7.5193396 -1.5488836 13
-15.469254 -7.595058 -1.7319486 9
-10.453835 -7.752388 -1.3449376 1
-11.738093 -8.0613356 -1.5147429 9
-12.036042 -7.638308 -1.5574191 10
-11.957599 -7.5885267 -1.7984034 6
-11.66534 -7.4030542 -1.9990578 1
-10.347325 -6.5666156 -1.9923575 0
-9.2845078 -5.8921304 -1.9506273 1
-8.4413252 -5.3570304 -1.9806836 1
-7.7382159 -4.9108238 -1.9781823 0
-7.1563797 -4.5415788 -1.9798744 1
-6.6361675 -4.211442 -1.9748049 1
-4.8296466 -3.0649884 -1.9766293 2
-0.81372392 -0.51640517 -0.45086044 0
-12.928479 -8.1414976 4.0104938 0
-17.987114 -11.327089 4.0772009 23
-17.461233 -10.995924 2.8578427 11
-18.983736 -11.954696 1.9165912 20
-22.470442 -14.150392 1.3294073 12
-43.295643 -27.264719 1.6562023 11
-67.490746 -39.138737 2.2964463 8
-17.425507 -9.2770138 0.52176607 12
-16.763199 -8.157855 0.43869177 11
-36.22155 -26.66581 0.92410219 1
-55.61092 -37.906773 1.1865028 5
-54.837597 -34.533073 0.94902843 19
-66.716064 -38.689491 0.90458369 11
-71.732651 -38.189121 0.7106064 23
-47.051296 -22.897638 0.30503908 0
-58.204201 -42.849136 0.20561676 16
-71.233223 -48.555603 -0.0075230668 4
-56.603294 -35.644997 -0.20314218 0
-50.352737 -29.200191 -0.34845889 10
-42.579834 -22.668707 -0.4302291 1
-50.249603 -24.454103 -0.66522729 10
-10.529051 -7.7513428 -0.19375105 0
-25.045994 -17.072416 -0.53913879 7
-25.160385 -15.844338 -0.61608124 13
-25.038298 -14.520025 -0.6861437 8
-29.464733 -15.686473 -0.88866562 17
-32.737247 -15.931668 -1.0780215 17
-21.429199 -15.775882 -0.86507535 27
-23.105162 -15.749463 -0.99308133 16
-12.818816 -8.0724392 -0.58248794 26
-13.19648 -7.6528058 -0.63190264 20
-28.871281 -15.37053 -1.4503627 18
-18.735842 -9.1178465 -0.98627734 3
-21.593716 -15.896997 -1.3461516 14
-12.56833 -8.5671091 -0.80965877 20
-12.601964 -7.9358797 -0.83627248 14
-6.8324513 -3.9622252 -0.46702647 1
-13.969276 -7.4369812 -0.98152018 1
-16.154625 -7.861691 -1.1687381 20
-12.39894 -9.1279297 -1.0458499 2
-12.485333 -8.5105352 -1.0719675 21
-12.553777 -7.9055347 -1.0957057 12
-12.937803 -7.5027957 -1.1494803 26
-14.507936 -7.7237539 -1.310559 25
-15.330674 -7.4607129 -1.4113265 21
-11.66328 -8.5863466 -1.2401037 16
-12.375635 -8.4357605 -1.3277272 15
-12.555768 -7.9067883 -1.3584538 15
-12.911417 -7.4874945 -1.4116533 17
-14.692724 -7.8221316 -1.6218088 5
-15.535038 -7.5601673 -1.7363485 5
-10.564144 -7.7771778 -1.355628 25
-11.470362 -7.8186874 -1.4766628 10
-12.079456 -7.6068392 -1.5595912 12
-11.984017 -7.5467377 -1.7984034 4
-5.9829021 -3.7676342 -1.0230135 0
-10.353481 -6.5199342 -1.9891481 0
-9.3083525 -5.8617821 -1.951326 1
-8.4500141 -5.3212576 -1.9783515 1
-7.7420774 -4.8754458 -1.9748065 0
-7.1721907 -4.5165691 -1.9798744 1
-6.66396 -4.1965194 -1.9787037 1
-4.8339186 -3.0440807 -1.9740164 2
-0.78179711 -0.49232388 -0.43221584 0
-12.907602 -8.065568 3.99526 0
-18.056524 -11.282971 4.0839825 14
-17.442385 -10.899215 2.8485141 20
-19.126743 -11.951719 1.9268056 25
-42.972748 -26.85236 2.536814 11
-43.434624 -27.140974 1.6578847 0
-67.637337 -38.908905 2.2967994 1
-17.408279 -9.189992 0.52028644 14
-16.834793 -8.120142 0.43982095 7
-49.055283 -35.850483 1.2483226 6
-56.150349 -37.988056 1.1951752 7
-54.930664 -34.324497 0.94855988 16
-66.982445 -38.532169 0.90636641 14
-17.703747 -9.3459711 0.17505462 0
-14.619884 -7.0517964 0.094622277 0
-10.134097 -7.4061804 0.035708971 0
-60.257286 -40.766571 -0.0063488097 4
-56.740936 -35.455685 -0.20319077 1
-50.218586 -28.888632 -0.34683058 15
-42.538445 -22.456438 -0.42901617 2
-17.973059 -8.6691761 -0.23753355 15
-60.346073 -44.101994 -1.107623 5
-24.823877 -16.79439 -0.53309226 6
-25.215536 -15.75642 -0.61608124 14
-25.165085 -14.47641 -0.68822926 9
-29.681976 -15.669389 -0.89356244 16
-33.030338 -15.931948 -1.085835 8
-21.539005 -15.741092 -0.86728483 33
-12.922586 -8.7426691 -0.55410957 8
-12.840135 -8.0234089 -0.58218056 18
-13.226576 -7.6086903 -0.63206816 18
-17.181698 -9.0703764 -0.86153489 0
-18.88991 -9.111413 -0.99270749 3
-21.849047 -15.967676 -1.3585862 13
-12.555153 -8.4940853 -0.80689466 24
-12.68039 -7.9235902 -0.83963645 15
-13.010625 -7.4844627 -0.88753915 19
-17.158537 -9.0581493 -1.2033775 1
-16.099277 -7.7653713 -1.1627659 11
-12.485499 -9.1246271 -1.0504584 2
-12.531491 -8.4780769 -1.0733827 22
-12.540699 -7.8363008 -1.0921702 16
-12.956998 -7.4536138 -1.1488672 33
-14.513653 -7.6618915 -1.3086513 22
-15.399708 -7.4279389 -1.4152863 24
-11.644913 -8.5103111 -1.234985 18
-12.480912 -8.4438581 -1.3358511 25
-12.620448 -7.8861341 -1.3624653 12
-13.009963 -7.4840817 -1.4195628 16
-14.473495 -7.6406918 -1.5946558 13
-15.618689 -7.5335627 -1.7427484 7
-10.517341 -7.6862612 -1.3461711 16
-11.787498 -7.9747343 -1.5138967 8
-12.122796 -7.5751657 -1.5617633 10
-11.963174 -7.4754229 -1.7913488 3
-11.733526 -7.331923 -2.0019217 0
-10.382872 -6.4879403 -1.9904319 0
-9.3387766 -5.8355169 -1.953422 1
-8.4851742 -5.3021269 -1.9822383 1
-7.7756276 -4.8587527 -1.9790262 0
-7.1780019 -4.4853148 -1.9771447 1
-6.6555376 -4.1588426 -1.9718807 1
-4.8573389 -3.0352032 -1.9792421 2
-0.8050189 -0.50303179 -0.44408059 0
-15.612253 -9.6800051 4.8219357 1
-18.185947 -11.275763 4.1043272 15
-17.439917 -10.813204 2.8419292 10
-19.307226 -11.970985 1.9407655 14
-46.532753 -28.851524 1.772284 2
-72.696999 -41.482468 2.463681 5
-17.149757 -8.9771137 0.51162028 11
-16.830568 -8.0458012 0.43897405 17
-49.160713 -35.664921 1.2478296 27
-53.178108 -35.707275 1.1292505 0
-55.305088 -34.2906 0.95295268 14
-67.408348 -38.464653 0.91030711 11
-27.945683 -14.628286 0.27582034 8
-18.000574 -8.6051188 0.11630752 12
-8.1363297 -5.9027128 0.028596763 0
-60.366001 -40.533699 -0.0063453191 1
-56.871162 -35.261608 -0.20321506 10
-6.8891749 -3.9311113 -0.047484469 0
-27.938551 -14.624554 -0.28125423 18
-17.988779 -8.5994806 -0.2373431 16
-23.101755 -16.759771 -0.42294511 0
-25.051682 -16.821344 -0.53672022 6
-25.37575 -15.733629 -0.61864996 16
-25.305765 -14.440013 -0.69069397 8
-27.947481 -14.629228 -0.83980393 39
-18.06514 -8.6359844 -0.59287632 2
-21.726501 -15.762057 -0.87261355 28
-13.029354 -8.748764 -0.55737489 13
-12.861272 -7.9743247 -0.58187318 24
-13.319006 -7.600111 -0.63521361 19
-17.298222 -9.0548277 -0.86578763 0
-19.058586 -9.110898 -0.9998942 3
-22.244188 -16.137627 -1.3796449 17
-12.548246 -8.4257164 -0.80455583 23
-12.718156 -7.8855896 -0.8403092 17
-13.078287 -7.4627519 -0.89037251 22
-17.303236 -9.0574522 -1.211301 1
-16.047062 -7.6712484 -1.1570534 17
-12.575422 -9.123168 -1.0553379 2
-12.488132 -8.3853521 -1.0671554 20
-12.571368 -7.7945771 -1.0924649 16
-13.093782 -7.4715939 -1.1586761 26
-14.554438 -7.6185827 -1.3099231 28
-15.61616 -7.4652576 -1.4327753 10
-11.593903 -8.4110994 -1.2264537 19
-12.497077 -8.3913584 -1.3344382 22
-12.630974 -7.8315344 -1.3606418 21
-13.119017 -7.4859929 -1.4286022 16
-14.355463 -7.5144281 -1.5787519 5
-15.752616 -7.5304894 -1.754748 6
-11.397555 -8.2686539 -1.4551312 9
-11.79875 -7.9224553 -1.5117811 6
-12.162683 -7.541182 -1.563501 7
-12.006059 -7.4440703 -1.7938683 2
-11.782601 -7.305521 -2.0059314 0
-10.412169 -6.4558167 -1.9917157 0
-9.33566 -5.788353 -1.9485314 1
-8.4869576 -5.2621355 -1.9783515 1
-7.7858953 -4.8274584 -1.9773383 0
-7.1936159 -4.4602299 -1.9771447 1
-6.6865005 -4.1458054 -1.9767543 1
-4.8614788 -3.0142438 -1.9766293 2
-13.418344 -8.2550211 4.1354089 2
-15.581922 -9.5860634 3.5090601 2
-17.507925 -10.770949 2.8468678 9
-18.279612 -11.245694 1.8335127 25
-43.312283 -26.645899 2.545814 4
-47.899879 -29.468208 1.8204249 3
-13.817381 -7.8206801 0.4673391 0
-17.291008 -8.9743013 0.51489651 9
-16.873003 -7.993854 0.43935046 19
-49.434177 -35.600616 1.2516092 14
-59.066662 -39.362774 1.2513698 5
-55.543671 -34.1707 0.95500273 16
-67.827637 -38.390652 0.91415399 23
-27.978819 -14.521441 0.27564546 18
-18.026884 -8.5405245 0.1162842 1
-49.366512 -35.551884 0.1730713 22
-4.4603124 -2.9724088 -0.00046774824 0
-55.620918 -34.218224 -0.19831963 3
-39.175362 -22.173376 -0.26948574 4
-28.003628 -14.534316 -0.28139693 14
-18.02953 -8.5417767 -0.23748595 4
-49.332081 -35.527088 -0.90089202 29
-25.013737 -16.669472 -0.53465724 8
-25.658728 -15.785357 -0.62420171 15
-25.484783 -14.424466 -0.69420147 1
-28.005468 -14.535272 -0.84001684 45
-18.05904 -8.5557585 -0.59169245 25
-21.885199 -15.760888 -0.87677258 19
-12.90347 -8.5990362 -0.55070227 28
-12.885623 -7.92729 -0.58171952 19
-13.421974 -7.596879 -0.6388557 22
-17.496422 -9.0809135 -0.87411594 1
-18.104521 -8.5773058 -0.94826359 2
-22.083178 -15.903465 -1.3662075 12
-12.587555 -8.3885059 -0.80519372 21
-12.701384 -7.8139448 -0.83739382 15
-13.13206 -7.4327865 -0.89226139 25
-17.47294 -9.0687265 -1.2209576 2
-16.232456 -7.6903849 -1.1684785 12
-12.665482 -9.1211987 -1.0602175 2
-12.68002 -8.4501266 -1.0810256 18
-12.646066 -7.7799134 -1.0965897 11
-13.192674 -7.4670939 -1.1651133 17
-14.588021 -7.5714087 -1.310559 20
-15.721377 -7.4482532 -1.4400349 15
-11.662 -8.3985291 -1.2305487 17
-12.513031 -8.3388424 -1.3330253 22
-12.838047 -7.8980207 -1.3799702 18
-13.17626 -7.4578037 -1.4319919 15
-14.734962 -7.6476731 -1.6175419 2
-15.821965 -7.4959083 -1.7595478 4
-11.752446 -8.463665 -1.4966594 20
-11.763446 -7.8393092 -1.503742 16
-12.185545 -7.4965987 -1.5630666 12
-12.099565 -7.4437032 -1.8039461 2
-11.784426 -7.2498288 -2.0019217 0
-10.421187 -6.4111586 -1.9891481 0
-9.3692245 -5.7639866 -1.951326 1
-8.4952478 -5.2263122 -1.9760195 1
-7.7993674 -4.7982039 -1.9764944 0
-7.2058229 -4.433053 -1.9762349 1
-6.7009306 -4.1224408 -1.9767543 1
-4.8751903 -2.9992378 -1.9779357 2
-13.351311 -8.1496725 4.1059575 1
-15.581758 -9.5111437 3.5015252 1
-18.00536 -10.990516 2.9214966 18
-18.301748 -11.171432 1.8318104 4
-46.71608 -28.51561 2.740015 12
-7.2138476 -4.4033499 0.27357492 0
-14.9986 -8.4202671 0.50629383 1
-17.226233 -8.8644848 0.51204306 11
-16.75239 -7.8652325 0.43549237 16
-49.262089 -35.216213 1.2441322 26
-60.551357 -40.04768 1.2798549 2
-55.287098 -33.747379 0.94855988 17
-68.316971 -38.35339 0.91893917 5
-28.068466 -14.443813 0.27603018 2
-73.96067 -34.724472 0.47630587 2
-49.454506 -35.353771 0.17294613 26
-4.4439697 -2.9391692 -0.00046495569 0
-11.126838 -6.7918487 -0.039588612 0
-15.025755 -8.4355116 -0.10315839 0
-37.696049 -19.398092 -0.37810931 32
-35.021446 -16.442537 -0.46054563 1
-49.338654 -35.27095 -0.89875835 25
-24.818249 -16.414385 -0.52925092 7
-25.802425 -15.749863 -0.62635612 14
-27.871235 -15.64701 -0.75771576 22
-30.502188 -15.696188 -0.91325617 19
-18.085175 -8.4909735 -0.59157407 1
-22.018133 -15.740204 -0.87989187 27
-12.936741 -8.5561495 -0.55084425 19
-12.923452 -7.8885064 -0.58218056 22
-13.472803 -7.5636792 -0.64001453 24
-17.63106 -9.0728054 -0.87925464 1
-18.109034 -8.5021753 -0.94693971 35
-22.369301 -15.991244 -1.3804471 13
-12.556789 -8.3048553 -0.80136657 24
-12.718357 -7.7633157 -0.836721 19
-13.18926 -7.4044971 -0.89438635 24
-17.607439 -9.0606499 -1.2281383 2
-16.150805 -7.5827889 -1.1606886 15
-12.732953 -9.1024647 -1.0631994 12
-12.533056 -8.2891588 -1.0660231 21
-12.652718 -7.7232494 -1.0948219 13
-13.260389 -7.4444294 -1.1687917 26
-14.660454 -7.5441551 -1.3146923 19
-15.898836 -7.4644895 -1.453894 18
-11.681517 -8.3508196 -1.229525 15
-12.588588 -8.3258867 -1.3379704 19
-12.70234 -7.7535391 -1.3624653 18
-13.275131 -7.4527059 -1.4399014 16
-14.970425 -7.7036633 -1.6404279 22
-15.869647 -7.4507852 -1.7619478 2
-11.869309 -8.4850674 -1.507761 9
-11.8969 -7.8684158 -1.5172815 12
-12.384735 -7.5596724 -1.5852224 8
-12.149184 -7.4158912 -1.8074734 2
-11.755598 -7.1756458 -1.9927571 0
-10.446875 -6.3767977 -1.9897901 0
-9.3623953 -5.7148285 -1.9457368 1
-8.5000439 -5.1884475 -1.97291 1
-7.8194075 -4.772985 -1.9773383 0
-7.2345529 -4.4159884 -1.9798744 2
-6.7053466 -4.0929599 -1.9738301 1
-4.8888574 -2.9841704 -1.9792421 2
-13.174498 -7.9787602 4.0429921 0
-19.052351 -11.538515 4.2723579 14
-18.612984 -11.272426 3.0136852 8
-19.005394 -11.510077 1.8982049 19
-32.37434 -19.606598 1.8948104 3
-32.418434 -19.633305 1.2268165 4
-15.006945 -8.3561869 0.5055877 17
-16.872393 -8.6080475 0.50062907 5
-16.714483 -7.77634 0.43379858 11
-49.312969 -34.993114 1.2423246 21
-58.403851 -38.334965 1.2316277 5
-55.336132 -33.512756 0.94738847 15
-15.033378 -8.3709049 0.20182134 14
-37.784966 -19.277334 0.37091994 2
-8.0366421 -3.7390125 0.051671505 0
-42.44664 -30.120678 0.14807047 5
-59.743835 -39.2145 -0.0062364102 14
-52.755203 -31.94969 -0.18730187 7
-15.020164 -8.3635473 -0.10291893 14
-37.781342 -19.275486 -0.37828767 18
-36.579983 -17.018677 -0.48025677 48
-42.526958 -30.177671 -0.77275199 4
-25.179653 -16.527353 -0.53572428 33
-26.045383 -15.773647 -0.63091356 14
-15.005733 -8.3555117 -0.40715492 24
-30.74913 -15.687756 -0.91900456 13
-34.271851 -15.944828 -1.1192198 34
-22.275091 -15.806688 -0.88794994 14
-12.85959 -8.4407434 -0.54630125 21
-13.019287 -7.8847613 -0.58525437 13
-13.617846 -7.5827065 -0.64564323 19
-17.74449 -9.0529785 -0.88333023 2
-18.171207 -8.4540749 -0.94864184 8
-22.284891 -15.813643 -1.3718231 16
-12.589044 -8.2631636 -0.80157918 24
-12.748794 -7.7209449 -0.8369453 12
-13.333643 -7.4244566 -0.90241414 19
-17.770538 -9.066268 -1.2372998 2
-16.122892 -7.5011053 -1.1567937 16
-12.732105 -9.0348644 -1.0604886 17
-12.531897 -8.2256527 -1.0634755 21
-12.659126 -7.6666403 -1.0930542 17
-13.32811 -7.4213753 -1.17247 20
-14.700904 -7.5001855 -1.315964 22
-15.982627 -7.4358473 -1.4591737 12
-11.769101 -8.3515043 -1.2356675 18
-12.537633 -8.2294188 -1.3294932 19
-12.67822 -7.6782036 -1.356995 25
-13.450673 -7.4896216 -1.456097 15
-15.42987 -7.8720932 -1.6877518 6
-15.946081 -7.4188442 -1.7675476 2
-11.830716 -8.3952274 -1.4991264 8
-11.907669 -7.8159242 -1.515166 8
-12.41785 -7.5205178 -1.5860912 11
-12.225909 -7.4042745 -1.8150319 2
-11.733167 -7.1058593 -1.9847379 0
-10.462316 -6.3362041 -1.9885063 0
-9.3789177 -5.6800752 -1.9450381 1
-8.5348835 -5.1689095 -1.9767969 1
-7.8427091 -4.7497139 -1.9790262 0
-7.2432599 -4.3866749 -1.9780546 2
-6.7195921 -4.06953 -1.9738301 1
-4.8863087 -2.959254 -1.9740164 2
-0.70969367 -0.42980582 -0.38814676 0
-14.452523 -8.6839476 4.4258628 4
-15.66125 -9.410224 3.5045393 2
-19.147945 -11.50524 1.9084195 8
-25.056196 -15.055275 1.4634081 0
-10.541067 -6.3337088 0.39806831 0
-15.06402 -8.3192186 0.50652921 21
-17.09145 -8.6447458 0.50623035 22
-17.525944 -8.0795746 0.45412406 13
-27.617451 -19.453115 0.69404203 11
-22.817751 -14.863358 0.48008659 4
-32.551731 -19.559042 0.55613315 3
-15.044998 -8.308713 0.20158677 25
-71.788574 -36.3102 0.7034713 19
-18.231571 -8.4048729 0.11703036 8
-27.593735 -19.436411 0.09602049 17
-22.797836 -14.850385 -0.0023743459 10
-32.579067 -19.57547 -0.11542528 13
-15.035258 -8.3033342 -0.10282315 23
-73.951431 -37.40416 -0.73913074 12
-18.274178 -8.4245148 -0.23953323 5
-27.590818 -19.434357 -0.50011361 39
-22.797583 -14.85022 -0.48393738 14
-26.189415 -15.73618 -0.63306797 14
-15.041807 -8.3069515 -0.40734449 31
-31.064177 -15.712061 -0.92677563 15
-34.632294 -15.965714 -1.1291642 11
-22.402035 -15.779492 -0.8908093 23
-12.828682 -8.3565331 -0.54374576 18
-13.06729 -7.8516159 -0.58617651 17
-13.749185 -7.5930905 -0.65060973 20
-17.915054 -9.0613194 -0.89024091 2
-19.768122 -9.1132326 -1.0303431 3
-12.789949 -9.008955 -0.78538877 3
-12.617809 -8.2191715 -0.80157918 22
-12.833865 -7.71136 -0.84075773 19
-13.492301 -7.4512248 -0.91138631 29
-7.4599867 -3.7732134 -0.51849228 1
-16.308472 -7.518312 -1.1682189 13
-12.678734 -8.9306173 -1.0534403 22
-12.553844 -8.1775055 -1.0629094 19
-12.723425 -7.6450014 -1.096295 21
-13.420265 -7.4114428 -1.1782939 20
-14.908461 -7.5406036 -1.3321791 22
-16.272757 -7.5018473 -1.4832623 20
-11.739532 -8.2690639 -1.229525 17
-12.50285 -8.1442871 -1.3227822 21
-12.687874 -7.6236401 -1.3551716 25
-13.511593 -7.4618788 -1.4598634 25
-15.453704 -7.8163838 -1.6873639 15
-16.033323 -7.3914661 -1.7743474 2
-11.124799 -7.83606 -1.406202 9
-11.728242 -7.6397123 -1.4889331 18
-12.604221 -7.5733762 -1.6065092 11
-12.319709 -7.4024243 -1.8251098 2
-11.740934 -7.0546613 -1.9818739 0
-10.467449 -6.289475 -1.985297 0
-9.3919363 -5.6432419 -1.9436408 1
-8.5528755 -5.1390834 -1.9767969 0
-7.8558903 -4.720293 -1.9781823 0
-7.2518516 -4.3573499 -1.9762349 2
-6.7304325 -4.0440497 -1.9728553 1
-4.8868876 -2.9363368 -1.9700972 3
-0.73914045 -0.44412017 -0.40340143 0
-14.775192 -8.8077822 4.515233 2
-15.741241 -9.3836632 3.5150883 2
-18.119463 -10.801368 2.9214966 5
-19.19141 -11.440377 1.90876 21
-25.160067 -14.99841 1.4664081 10
-4.5878787 -2.7349246 0.17289314 0
-16.835567 -8.4416542 0.49777558 7
-17.510393 -7.9984055 0.45299488 21
-27.626194 -19.315338 0.69256312 19
-22.839264 -14.764082 0.47945204 18
-7.2797632 -4.3396101 0.12411228 0
-15.140564 -8.2926474 0.20247813 8
-6.2858028 -3.1518137 0.061487719 0
-18.337206 -8.3760777 0.11752003 0
-27.645027 -19.328506 0.09596359 24
-22.8193 -14.751176 -0.0023712043 20
-32.633453 -19.453444 -0.11537669 21
-15.137827 -8.2911491 -0.10332601 5
-46.635723 -23.383984 -0.46529669 4
-18.281645 -8.3506985 -0.23924758 17
-27.648657 -19.331043 -0.49993581 46
-22.832483 -14.759699 -0.48358169 24
-26.436548 -15.759346 -0.63770831 14
-15.081237 -8.2601538 -0.40762889 10
-31.422659 -15.755882 -0.9358241 12
-18.318573 -8.3675661 -0.59630948 23
-22.633911 -15.824896 -0.89782763 30
-12.857772 -8.3117046 -0.54374576 18
-13.132382 -7.8284712 -0.58786714 15
-13.849218 -7.5853639 -0.65408623 1
-18.146616 -9.0990372 -0.90016401 13
-18.313375 -8.3651924 -0.95299166 6
-12.752564 -8.9161797 -0.78117704 18
-12.690029 -8.203269 -0.80434322 21
-12.860703 -7.6665177 -0.84075773 12
-13.563759 -7.4290152 -0.91445577 21
-18.151026 -9.1012487 -1.2593369 13
-16.378187 -7.481236 -1.1713347 12
-12.65096 -8.8451405 -1.0485607 27
-12.528698 -8.0989799 -1.0583804 22
-12.750032 -7.6005449 -1.096295 16
-13.537004 -7.4143605 -1.1862637 19
-15.084393 -7.5635843 -1.3455327 20
-16.407625 -7.4946828 -1.4931617 13
-11.797722 -8.2485847 -1.2325962 24
-12.527854 -8.0984335 -1.3224289 20
-12.755465 -7.6037831 -1.3595477 17
-13.555023 -7.4242306 -1.4617467 16
-15.374128 -7.7088623 -1.6757268 8
-16.174873 -7.3883662 -1.787147 1
-11.62817 -8.1300392 -1.4662328 12
-11.768198 -7.6073661 -1.4906255 15
-12.613501 -7.5191555 -1.6043371 17
-12.444317 -7.4183021 -1.8397228 4
-11.758686 -7.0095835 -1.9807283 0
-10.49612 -6.2569437 -1.9865807 0
-9.4284916 -5.6205091 -1.947134 1
-8.5775013 -5.1132174 -1.9783515 0
-7.879035 -4.6968474 -1.9798702 1
-7.2837453 -4.3419838 -1.9807842 2
-6.7511716 -4.0245061 -1.9748049 1
-4.9068489 -2.9250691 -1.9740164 2
-14.755892 -8.726615 4.4999995 3
-15.736702 -9.3066645 3.5067997 0
-18.04451 -10.671499 2.9033883 13
-22.593088 -13.361522 2.2424355 9
-46.972111 -27.779243 2.7320151 6
-49.790222 -29.445869 1.8724482 11
-17.303562 -9.3989782 0.57961345 13
-16.750351 -8.3258772 0.49439368 21
-17.414335 -7.8811784 0.44979551 6
-27.755873 -19.262114 0.69412422 13
-22.910864 -14.69722 0.47987509 18
-32.687473 -19.331327 0.55613315 3
-71.393974 -38.7799 0.95295137 28
-7.1026673 -3.5304296 0.069357306 0
-32.858967 -14.870932 0.21025358 14
-27.751757 -19.259258 0.096100144 15
-22.911057 -14.697343 -0.0023753929 11
-32.766571 -19.378107 -0.11560749 9
-58.297672 -31.666229 -0.39716458 8
-46.921227 -23.322519 -0.4673301 4
-32.893639 -14.886622 -0.42978862 70
-27.761967 -19.266344 -0.50076556 35
-22.900702 -14.690701 -0.48393738 14
-26.687601 -15.783011 -0.64243144 13
-28.912764 -15.704885 -0.77999318 21
-31.677982 -15.745759 -0.9417854 15
-18.340382 -8.3002777 -0.59607273 12
-22.764553 -15.798222 -0.90081692 22
-12.863156 -8.2516594 -0.54275197 19
-13.156186 -7.780551 -0.58771342 21
-28.941763 -15.720636 -1.3642938 68
-18.231945 -9.0623131 -0.90282196 4
-18.320621 -8.2913351 -0.95185691 35
-12.70484 -8.8169479 -0.77636361 19
-12.617727 -8.0942173 -0.79796463 20
-12.883945 -7.6195483 -0.84053349 17
-13.782592 -7.4864521 -0.92744184 33
-18.204136 -9.0484915 -1.2608227 8
-16.527842 -7.4799795 -1.1801633 18
-12.648971 -8.7781754 -1.0458499 21
-12.536745 -8.0422678 -1.056682 20
-12.797085 -7.5681787 -1.0980628 13
-13.636396 -7.4070411 -1.1927009 16
-15.253529 -7.581871 -1.3582504 12
-16.46274 -7.4505162 -1.4958016 20
-11.872281 -8.2391663 -1.2373737 21
-12.509098 -8.0245323 -1.317484 23
-12.785357 -7.5612426 -1.3599125 18
-13.70683 -7.4452996 -1.4753058 11
-15.390249 -7.6498294 -1.6745632 7
-16.323845 -7.3876572 -1.8007467 1
-11.734927 -8.1438446 -1.4761008 24
-11.84825 -7.6006012 -1.4973953 12
-12.848447 -7.5985546 -1.6308371 12
-12.521368 -7.4051199 -1.8472812 4
-11.789895 -6.972528 -1.9818739 0
-5.6888394 -3.364372 -1.0744866 0
-9.4412718 -5.5835557 -1.9457368 0
-8.5817871 -5.0752578 -1.9752421 1
-7.8852849 -4.6633468 -1.9773383 0
-7.3022089 -4.3185163 -1.9816941 1
-6.7418032 -3.9870934 -1.9679817 1
-4.9072661 -2.9021506 -1.9700972 2
-0.86072886 -0.50903392 -0.46781006 0
-14.345782 -8.4166193 4.3659439 0
-15.789426 -9.2635994 3.5113208 0
-18.136333 -10.640522 2.912168 13
-25.375872 -14.887933 2.5134616 8
-25.319294 -14.854739 1.4696081 1
-51.43063 -30.174168 1.9301654 7
-17.315142 -9.3271484 0.57890737 18
-16.764963 -8.2602911 0.49397093 18
-17.281191 -7.7483521 0.44565514 15
-54.807236 -34.889183 1.1453968 9
-4.964097 -2.9124179 0.084283896 0
-71.261269 -38.386307 0.94938594 20
-17.921917 -8.8303356 0.17470486 4
-32.881485 -14.743042 0.21006705 17
-69.318115 -47.747963 0.23945948 9
-58.007858 -36.926632 -0.0060007907 9
-57.539749 -33.758366 -0.20259555 4
-80.117981 -43.15715 -0.54479027 3
-46.883949 -23.100264 -0.46615288 3
-32.912556 -14.756974 -0.42936012 57
-25.539528 -16.25795 -0.53849858 12
-26.849464 -15.752484 -0.64500016 15
-29.182159 -15.719554 -0.78577578 17
-32.066326 -15.79945 -0.95168549 11
-32.856689 -14.731925 -1.0661829 46
-22.928213 -15.793497 -0.90510589 13
-12.834553 -8.1702175 -0.54033846 22
-13.197058 -7.7426662 -0.58832818 20
-29.608688 -15.949312 -1.3930994 9
-18.417603 -9.0745659 -0.91044146 1
-20.299971 -9.1018801 -1.0530378 2
-12.623682 -8.6954918 -0.7695446 20
-12.652642 -8.0544167 -0.79838985 19
-12.931134 -7.5866504 -0.84187907 15
-13.938709 -7.5083642 -0.93617791 24
-16.362627 -8.0620556 -1.1313233 1
-16.604843 -7.4450989 -1.1837986 13
-12.564508 -8.6547308 -1.0363619 24
-12.537812 -7.981319 -1.0544174 23
-12.83719 -7.5315337 -1.0992413 15
-13.795593 -7.4312725 -1.2043489 12
-15.194058 -7.4862885 -1.3506198 23
-16.590498 -7.4386668 -1.505041 16
-11.996153 -8.2632341 -1.24727 9
-12.540392 -7.9829607 -1.3178372 17
-12.846031 -7.5367203 -1.3635594 18
-13.999185 -7.5409408 -1.5039306 17
-15.377574 -7.5767088 -1.6702962 10
-16.443956 -7.3729625 -1.8111463 2
-11.91729 -8.2089119 -1.4954258 15
-11.90155 -7.5762868 -1.5007802 7
-12.943488 -7.5938983 -1.6395257 8
-12.605326 -7.3954997 -1.8558475 3
-11.793677 -6.9193087 -1.9784372 1
-10.505494 -6.1635356 -1.980162 0
-9.4742947 -5.5585351 -1.9485314 1
-8.5960684 -5.0432825 -1.9744648 0
-7.8677921 -4.6160059 -1.968899 0
-7.2870035 -4.275259 -1.9735053 0
-6.7791033 -3.9772758 -1.9748049 1
-4.9271502 -2.8907416 -1.9740164 1
-0.7343756 -0.43085554 -0.39831656 0
-14.328259 -8.3392487 4.3517256 4
-18.548014 -10.795205 4.1163831 7
-18.18021 -10.581138 2.9132655 14
-24.521765 -14.272012 2.423914 9
-25.270859 -14.707995 1.4638081 24
-51.608196 -30.036697 1.9328831 6
-17.389917 -9.2892513 0.58031958 16
-16.772139 -8.1911879 0.49333683 8
-17.362949 -7.7123361 0.44706661 3
-52.804836 -36.102112 1.3142184 2
-54.671719 -34.535309 1.1400383 8
-54.85828 -31.928289 0.92952424 13
-11.578686 -6.1850395 0.15396969 0
-72.856422 -35.581665 0.70899749 10
-19.038042 -8.4563837 0.12143736 6
-71.369804 -48.794781 0.2459572 10
-59.370766 -37.503628 -0.0061281999 0
-49.982506 -29.090521 -0.17562816 2
-59.547531 -31.808775 -0.40415674 10
-8.8163652 -4.3057418 -0.087508455 0
-18.945631 -8.4153366 -0.24677017 6
-34.769867 -23.771791 -0.62416404 0
-25.667133 -16.213547 -0.53999245 10
-26.959587 -15.690858 -0.64632595 17
-29.402639 -15.706141 -0.79023129 20
-32.326088 -15.787435 -0.9577533 11
-18.792515 -8.3473253 -0.60885841 20
-23.026104 -15.742703 -0.9067955 15
-12.852858 -8.1189585 -0.53991258 24
-13.293094 -7.7367673 -0.59140205 19
-29.586632 -15.804426 -1.3894573 47
-18.553301 -9.0610723 -0.91558015 2
-18.666527 -8.2913637 -0.96679765 24
-12.601191 -8.6153011 -0.76633567 23
-12.619897 -7.9718008 -0.7945627 18
-12.981698 -7.5555305 -0.84344888 14
-17.018433 -9.0908136 -1.1408857 4
-16.745819 -8.1783333 -1.1558366 16
-16.725574 -7.429224 -1.1905497 18
-12.56499 -8.5905514 -1.0339222 15
-12.568972 -7.9396324 -1.0547005 22
-12.925459 -7.5227985 -1.1045445 15
-14.897901 -7.9580793 -1.2981465 21
-15.248763 -7.4472003 -1.3531632 16
-16.747513 -7.4389691 -1.5169203 15
-12.396691 -8.4754868 -1.2858312 8
-12.558078 -7.9327502 -1.3167776 22
-12.896358 -7.5058618 -1.3661121 17
-14.506638 -7.7490764 -1.5555304 4
-15.589951 -7.6138296 -1.690467 7
-16.625994 -7.3849926 -1.8283458 2
-11.814487 -8.0774403 -1.478979 10
-12.018722 -7.5920477 -1.5122042 17
-13.210482 -7.6886859 -1.6699356 16
-12.72366 -7.4053493 -1.8694526 6
-11.851972 -6.8980145 -1.9841651 1
-10.540592 -6.1347733 -1.9827296 0
-9.4902353 -5.5234499 -1.9478327 0
-8.6170111 -5.0152211 -1.9752421 0
-7.8973727 -4.5963821 -1.9722748 0
-7.2985148 -4.247838 -1.9725953 0
-6.7761798 -3.9438319 -1.9699311 1
-4.9339428 -2.871624 -1.97271 2
-14.524813 -8.3859024 4.4025044 0
-18.534555 -10.700928 4.1050806 20
-19.222422 -11.098068 3.0740466 10
-24.813044 -14.325814 2.4477479 10
-25.629969 -14.797465 1.4816082 12
-51.903164 -29.966299 1.9400007 2
-17.556498 -9.299614 0.58479172 14
-16.779032 -8.1221418 0.49270272 13
-19.179621 -8.43923 0.49308127 16
-53.023201 -35.980427 1.316519 5
-55.24263 -34.626778 1.1494157 9
-55.204933 -31.872576 0.93350708 1
-71.640625 -37.947788 0.9508872 28
-72.825356 -35.252209 0.70749348 10
-19.11138 -8.4092035 0.12171717 11
-60.180202 -40.837021 0.20690264 2
-56.708588 -35.545654 -0.0058405697 10
-50.426701 -29.113861 -0.17683075 7
-42.560986 -22.544403 -0.28833106 4
-17.972298 -8.6997604 -0.17808488 8
-18.98954 -8.3555927 -0.24696063 5
-26.105558 -17.714682 -0.46751556 0
-25.557526 -16.019779 -0.53650677 9
-27.159657 -15.680632 -0.6498062 14
-29.704639 -15.734443 -0.79686707 19
-32.79129 -15.873116 -0.96988887 13
-18.847158 -8.292943 -0.60968709 11
-23.190088 -15.736305 -0.91108447 19
-12.898053 -8.0846624 -0.54062241 19
-13.344251 -7.7043052 -0.59247786 24
-27.900482 -14.778788 -1.3078414 5
-18.717896 -9.0606785 -0.92213649 2
-18.680731 -8.2197132 -0.96604115 16
-12.591519 -8.5443401 -0.76392895 18
-12.715333 -7.9701309 -0.79881507 23
-13.001078 -7.5061736 -0.84300035 19
-17.170033 -9.0949049 -1.1489135 2
-16.734735 -8.1007004 -1.1531129 31
-16.89024 -7.431879 -1.2004169 15
-12.528856 -8.5018187 -1.0285004 26
-12.569563 -7.8787599 -1.052436 21
-12.930913 -7.4656644 -1.1027768 15
-14.967877 -7.928432 -1.3018248 27
-15.367975 -7.4390993 -1.3614298 17
-17.039742 -7.4976616 -1.5410089 5
-12.538328 -8.5082455 -1.2974337 24
-12.558682 -7.8719401 -1.3139518 23
-12.943179 -7.4727464 -1.3683002 29
-14.45266 -7.6555223 -1.5468676 12
-15.60568 -7.5541639 -1.6893033 9
-16.768246 -7.3782005 -1.8411454 4
-11.622025 -7.8864617 -1.4514307 11
-12.08559 -7.5754004 -1.5172815 9
-13.275121 -7.6643925 -1.6747142 15
-12.811292 -7.3966007 -1.8785228 4
-11.855409 -6.8447218 -1.9807283 1
-10.575621 -6.1058359 -1.985297 0
-9.4992256 -5.4843793 -1.9457368 0
-8.6106787 -4.9713764 -1.9698007 0
-7.9099846 -4.5668306 -1.9714308 1
-7.3369122 -4.2359672 -1.9789644 0
-6.7831869 -3.9162738 -1.9679817 1
-4.963582 -2.8657248 -1.9805486 3
-18.774149 -10.752059 5.6790786 9
-18.745649 -10.735737 4.1435094 30
-19.226662 -11.011215 3.0685592 18
-24.734934 -14.165833 2.4351501 8
-51.182655 -29.31259 2.9528162 11
-51.927654 -29.739254 1.9370242 13
-17.043736 -8.9519548 0.5666678 26
-16.843332 -8.0808229 0.49375957 2
-53.121933 -35.777264 1.3158617 17
-55.291859 -34.389362 1.1479352 21
-67.206429 -38.489494 1.1341718 8
-17.867918 -9.3848438 0.23672488 8
-10.429381 -5.0036407 0.10115045 0
