# .PCD v0.7 - Point Cloud Data file format
VERSION 0.7
FIELDS x y z intensity
SIZE 4 4 4 4
TYPE F F F F
COUNT 1 1 1 1
WIDTH 1349
HEIGHT 1
VIEWPOINT 0 0 0 1 0 0 0
POINTS 1349
DATA ascii
-3.0418305 -7.9574308 -1.5111773 9
-3.0906639 -8.0851793 -1.7148304 6
-2.9792895 -7.7938232 -1.800956 6
-2.8567352 -7.4732218 -1.8688704 1
-2.8313518 -7.4068184 -1.99235 4
-2.1004922 -5.4948893 -2.0328057 2
-1.548548 -4.051003 -2.028872 1
-6.10181 -15.796789 4.4451585 6
-4.0369678 -10.451182 2.1489885 14
-2.9395583 -7.6101322 1.1298575 6
-2.9783864 -7.7106533 0.70616627 2
-3.0416362 -7.8743992 0.42260233 7
-2.9977541 -7.7607937 0.26930434 20
-3.3058746 -7.7094679 0.24690945 9
-3.809294 -8.0622663 0.2356772 4
-26.105709 -50.427639 1.3362125 2
-2.2864776 -7.4974446 0.16104208 11
-2.5728884 -7.455297 0.1390411 11
-2.8894765 -7.4804773 0.11743516 6
-20.488756 -47.780823 0.60978001 10
-9.2442551 -19.565214 0.18921989 1
-30.7778 -59.452579 0.39026442 5
-2.3091204 -7.571691 0.022520093 9
-3.0365322 -8.798769 -0.00081227621 0
-23.038912 -59.644737 -0.19417734 2
-21.311094 -49.698555 -0.3237229 5
-3.9420452 -8.3432312 -0.082300045 7
-32.418198 -62.621288 -0.83938998 5
-2.6507158 -8.6917953 -0.13465965 3
-11.990253 -34.743404 -0.65373874 6
-11.795867 -30.53796 -0.67831081 8
-12.412312 -28.946142 -0.74662447 19
-13.55111 -28.680553 -0.84448785 7
-14.616838 -28.234919 -0.94140422 18
-4.5120292 -14.79511 -0.50285107 12
-10.203206 -29.565189 -1.1107746 11
-3.1396918 -8.128252 -0.33504584 3
-7.210618 -16.815529 -0.75788581 6
-7.5420675 -15.96258 -0.78285915 9
-8.2310696 -15.899718 -0.84746093 13
-2.5742557 -8.4410791 -0.44303468 9
-5.5171909 -15.986816 -0.90023506 7
-3.141387 -8.1326408 -0.48956364 3
-3.6351557 -8.4773674 -0.54541516 1
-7.4906573 -15.853771 -1.0874966 20
-8.2651119 -15.965476 -1.1695172 8
-2.5704074 -8.4284611 -0.59855795 6
-5.4916253 -15.912737 -1.1942515 5
-6.1275296 -15.863374 -1.2559811 7
-3.6166513 -8.4342146 -0.70532113 5
-7.6380167 -16.165653 -1.4256542 4
-8.2855053 -16.004869 -1.4918418 20
-4.5212059 -14.825201 -1.3271226 27
-5.7516832 -16.666292 -1.5629669 8
-6.1645589 -15.959238 -1.5663245 14
-6.6793885 -15.576674 -1.6029873 13
-4.3283992 -9.1609383 -0.98720479 0
-4.7426386 -9.1612177 -1.0367693 10
-2.790168 -9.1490641 -0.98845303 2
-3.1791005 -9.2118797 -1.0366257 0
-5.9216151 -15.330288 -1.7954848 6
-3.5330555 -9.1466188 -1.245126 12
-3.2537003 -8.4234047 -1.3065475 13
-3.2392886 -8.386095 -1.4615328 15
-3.0312724 -7.8475685 -1.4923137 3
-3.1867311 -8.2500305 -1.7521431 10
-3.0163388 -7.8089075 -1.8068635 5
-2.8856118 -7.4704719 -1.8706901 1
-2.8571894 -7.3968906 -1.99235 2
-2.1155736 -5.476944 -2.0288866 2
-1.5652902 -4.0523319 -2.0322618 1
-6.245533 -16.002455 4.5091395 4
-4.0791378 -10.451664 2.1520026 15
-2.9776292 -7.6293526 1.1342475 7
-3.2646592 -8.3647881 0.76711315 3
-3.0255299 -7.7520852 0.41660231 17
-3.0379081 -7.7838006 0.27046904 10
-3.3486514 -7.7345724 0.24808633 3
-3.739327 -7.8431854 0.22965315 10
-23.918085 -45.80949 1.2160475 7
-2.5486162 -8.2536449 0.17747495 12
-2.6068041 -7.4689264 0.13946414 11
-2.9126623 -7.462893 0.11731803 13
-20.726931 -47.874184 0.61189115 5
-3.9522157 -8.2897167 0.080304779 0
-7.4459128 -14.260901 0.09378285 0
-2.343796 -7.5903392 0.022599749 2
-3.048774 -8.7352438 -0.00080738927 10
-3.1238348 -8.0039644 -0.02609277 3
-3.4755886 -8.0277662 -0.052369405 0
-9.3038731 -19.514742 -0.19281827 6
-26.01116 -49.818283 -0.66898859 0
-2.7518399 -8.9117823 -0.13821581 10
-3.1304488 -8.0209103 -0.17840254 2
-12.49898 -28.86961 -0.74577129 6
-13.847314 -29.044544 -0.85662341 7
-14.717157 -28.187267 -0.9415226 19
-2.6433506 -8.560442 -0.29126111 7
-10.301077 -29.514294 -1.1102067 10
-7.2883263 -16.834265 -0.75987244 8
-7.5977416 -15.936155 -0.78285915 8
-8.3253546 -15.945268 -0.8514325 15
-2.6013455 -8.4244089 -0.44263357 14
-5.5361075 -15.861866 -0.89428169 14
-3.166852 -8.1141834 -0.48911512 7
-3.6631389 -8.4609623 -0.54517901 6
-7.5407968 -15.816715 -1.0867538 16
-8.3521976 -15.996678 -1.1739314 7
-2.603343 -8.4308777 -0.59937125 11
-5.6181369 -16.096893 -1.2095371 5
-3.1472716 -8.0640144 -0.63933355 0
-6.8690639 -15.86587 -1.3287992 7
-7.6703749 -16.088503 -1.421203 3
-8.3837585 -16.057125 -1.4994314 17
-4.5764523 -14.820754 -1.3281463 20
-5.9529371 -17.056152 -1.6014671 6
-6.2202301 -15.937622 -1.5663245 13
-6.7558718 -15.604425 -1.6082603 12
-4.3569241 -9.138586 -0.98642898 0
-4.7782731 -9.1516628 -1.0375693 5
-2.8303025 -9.1658812 -0.99133122 1
-5.3503141 -15.329537 -1.7271454 6
-3.167536 -8.1159363 -0.95182848 3
-3.2042816 -8.2100868 -1.1191521 12
-3.2427828 -8.3087358 -1.2905092 14
-3.2771549 -8.3968048 -1.4653841 11
-3.0844223 -7.9029808 -1.5048894 15
-3.1941109 -8.1840267 -1.7404829 11
-3.0521085 -7.8201852 -1.8119272 6
-2.9088385 -7.4530954 -1.8688704 1
-2.8872235 -7.3977132 -1.9952742 2
-2.1360536 -5.4730477 -2.0301929 2
-1.5715225 -4.0265923 -2.0220921 2
-6.2942586 -15.962561 4.5040617 3
-4.1746788 -10.587198 2.1828961 16
-3.0115101 -7.6373429 1.1369911 3
-3.3040721 -8.3792953 0.7694965 3
-3.1302414 -7.9384518 0.42720237 10
-3.0606608 -7.761992 0.2700808 9
-3.3772314 -7.7265005 0.24820402 7
-3.9348221 -8.1796093 0.23990458 6
-24.124426 -45.814178 1.2184 14
-2.5857642 -8.2714176 0.17805009 15
-2.6608107 -7.5389814 0.14094479 18
-2.9460309 -7.4712844 0.11761088 12
-25.392126 -58.092636 0.74362391 8
-3.9811285 -8.2758703 0.080304779 8
-26.266449 -49.88205 0.32863635 7
-2.3320856 -7.4599423 0.022235604 12
-3.0938892 -8.7660398 -0.00081122899 11
-2.9507353 -7.4832153 -0.024428567 10
-22.939142 -52.480648 -0.34287953 10
-9.3493958 -19.435287 -0.1923545 21
-26.143902 -49.649323 -0.66794109 23
-2.3413858 -7.4896927 -0.1162862 4
-11.030554 -31.253309 -0.58950305 0
-3.1481593 -7.983892 -0.1778225 13
-12.641319 -28.921074 -0.748236 23
-9.3568563 -19.450796 -0.57463068 16
-14.806147 -28.118034 -0.94093066 18
-2.6839523 -8.5855045 -0.29243082 1
-1.1920732 -3.3775489 -0.12720527 0
-3.1538408 -7.998301 -0.33058882 8
-7.3006258 -16.702524 -0.75507146 8
-7.7000952 -16.006765 -0.78764349 10
-8.3660717 -15.887827 -0.8499195 12
-2.6355047 -8.4305286 -0.44343579 3
-5.6020732 -15.872579 -0.89598262 9
-3.1746471 -8.0510664 -0.48597547 7
-3.7038457 -8.4737358 -0.54683179 6
-7.6098075 -15.819077 -1.0887347 14
-8.4228649 -15.995681 -1.1760087 9
-2.6387105 -8.4407835 -0.60072666 5
-5.5946112 -15.851436 -1.1925532 12
-1.2760139 -3.2360361 -0.25691193 0
-6.8972497 -15.779672 -1.3235883 13
-7.8232851 -16.262848 -1.4390078 16
-8.4936199 -16.130051 -1.5090008 19
-2.6541753 -8.4902525 -0.76167071 8
-5.7498708 -16.291338 -1.531531 5
-3.1854014 -8.0783405 -0.79501456 6
-6.8804765 -15.741298 -1.6248325 11
-4.3922491 -9.130497 -0.98720479 1
-8.0645781 -15.315267 -1.7395484 6
-2.857532 -9.1407557 -0.98968655 1
-3.2234747 -9.1331997 -1.030279 1
-3.1900125 -8.0900345 -0.95009077 8
-3.2270987 -8.1840868 -1.1171365 16
-3.2659576 -8.2826347 -1.288218 13
-3.293411 -8.3522587 -1.4596072 10
-3.2882497 -8.3391685 -1.5901246 27
-3.2442496 -8.227582 -1.7521431 11
-3.0822561 -7.8167582 -1.8136151 7
-2.9391236 -7.4537673 -1.8715999 1
-2.9187214 -7.4020262 -1.999173 3
-2.1593056 -5.476109 -2.0341122 2
-1.5895555 -4.0311937 -2.0271771 2
-6.2883739 -15.785938 4.460392 8
-4.1970725 -10.536067 2.1753612 17
-3.4765718 -8.7273674 1.3010647 7
-3.3023283 -8.289958 0.76234633 11
-3.1815879 -7.9868588 0.43040237 15
-3.2253313 -8.0966692 0.28211603 9
-3.9808104 -8.2017984 0.24096143 0
-24.299204 -45.757942 1.2191528 16
-2.6206541 -8.2814054 0.17846091 10
-2.9210062 -8.1850538 0.15321313 5
-3.1230657 -7.8399477 0.12358514 0
-25.660957 -58.153679 0.74554735 7
-9.4206886 -19.409761 0.18866028 26
-26.43103 -49.772396 0.32851976 7
-2.3701794 -7.489892 0.0223494 10
-3.1190925 -8.740118 -0.00080983277 9
-2.9886811 -7.5025973 -0.024525747 3
-25.999754 -58.921471 -0.38555089 7
-9.4189272 -19.406134 -0.19239017 21
-2.7898552 -8.8160896 -0.13703042 7
-11.467573 -32.133686 -0.60686016 2
-9.3845387 -19.335281 -0.5721823 24
-14.981091 -28.21096 -0.94578451 11
-4.6992774 -14.849965 -0.50636023 4
-1.1769842 -3.2980688 -0.12436587 0
-3.1832204 -7.9909563 -0.33074251 8
-3.7576935 -8.5158052 -0.38556489 0
-7.7803512 -16.030121 -0.79012424 10
-8.4402189 -15.893816 -0.85181075 17
-4.7006674 -14.854358 -0.78217983 10
-5.7124901 -16.007168 -0.9047001 6
-3.1938636 -8.0176744 -0.4846299 9
-6.9735308 -15.803638 -1.0214138 16
-7.776547 -16.022282 -1.1045816 8
-8.4561834 -15.923879 -1.1728927 11
-4.6933584 -14.83126 -1.0566933 27
-5.6606388 -15.861875 -1.1948177 9
-3.1783957 -7.9788451 -0.63432497 10
-7.1889701 -16.291874 -1.3686479 6
-8.5012627 -16.008766 -1.5004213 26
-2.6825933 -8.4771366 -0.76132947 8
-5.7209964 -16.031004 -1.5089253 12
-3.1885209 -8.0042629 -0.7888149 9
-6.9144835 -15.669823 -1.6199362 14
-7.4714165 -15.393612 -1.6671931 6
-4.8681803 -9.1672926 -1.043169 0
-2.9194324 -9.2255602 -0.99996579 1
-5.4732432 -15.336765 -1.7322228 7
-3.2138183 -8.0677681 -0.94878751 10
-3.2556469 -8.1727715 -1.1171365 13
-3.296315 -8.2748613 -1.2887908 13
-3.3108573 -8.311368 -1.4544723 13
-3.2386324 -8.1300592 -1.5523975 12
-3.2671411 -8.2016258 -1.7490338 14
-3.1080761 -7.802319 -1.8127711 4
-2.969449 -7.454318 -1.8743296 2
-2.9459774 -7.3953967 -2.0001478 3
-2.164417 -5.4334164 -2.0210478 3
-1.5955727 -4.0054255 -2.0170071 1
-6.2784414 -15.602379 4.4146914 2
-4.2836838 -10.645262 2.2009802 8
-3.4197443 -8.4983101 1.268689 11
-3.4100986 -8.4743404 0.78039205 12
-3.2183948 -7.9979424 0.43160239 11
-3.2401404 -8.0519819 0.28095135 12
-16.23789 -36.453766 1.1746441 10
-3.8423569 -7.8466916 0.23092137 1
-24.441792 -45.641113 1.2183059 22
-2.4287505 -7.5828557 0.16358916 12
-2.9101961 -8.0657101 0.15116841 14
-18.272387 -45.408195 0.71679384 7
-3.8375809 -8.6152983 0.11062174 0
-9.5112524 -19.423458 0.18911496 14
-31.22912 -58.315357 0.38562426 10
-2.3938699 -7.4739542 0.022326641 10
-3.134649 -8.687789 -0.00080599304 15
-2.987972 -7.4253254 -0.024307093 3
-3.8540516 -8.6522751 -0.05670359 0
-9.4901285 -19.38032 -0.19246152 22
-33.576385 -62.698502 -0.84662694 4
-12.267855 -34.000786 -0.6429261 16
-13.158648 -32.700188 -0.73034835 4
-12.921021 -29.007454 -0.75278628 16
-9.4660425 -19.331133 -0.57303393 29
-15.164414 -28.317102 -0.95111185 2
-9.5802183 -29.910612 -1.0210384 7
-10.543097 -29.220558 -1.1032503 15
-11.582018 -28.782148 -1.1929476 11
-3.7873969 -8.502636 -0.38556489 3
-7.8292298 -15.988507 -0.78941548 9
-8.5352592 -15.938224 -0.85578233 14
-5.1838713 -16.184679 -0.85317767 8
-5.7303729 -15.881927 -0.89874673 12
-6.351223 -15.783246 -0.95535553 5
-7.0757723 -15.884978 -1.0282609 12
-7.7569313 -15.840862 -1.0939344 15
-8.528677 -15.925932 -1.1752297 11
-5.1370773 -16.038582 -1.1439831 5
-5.7376399 -15.902068 -1.1993468 8
-3.2151616 -7.9899077 -0.63609272 3
-7.0461922 -15.818572 -1.330945 15
-8.5589743 -15.982508 -1.5007513 20
-2.7194624 -8.4904938 -0.76337701 5
-5.7606936 -15.965962 -1.5046868 9
-3.21644 -7.9930844 -0.7888149 8
-6.9237695 -15.543736 -1.6093901 14
-4.4803963 -9.1496668 -0.99263543 1
-4.9020295 -9.1537514 -1.0435691 1
-2.927345 -9.1395292 -0.99174243 1
-3.3101075 -9.174078 -1.037472 1
-3.246412 -8.0675678 -0.95009077 6
-3.6663418 -9.1111231 -1.2471416 9
-3.3576906 -8.3441029 -1.3013923 7
-3.3472168 -8.3180752 -1.4576817 12
-3.3228614 -8.2575493 -1.5789462 14
-3.2723122 -8.1319313 -1.7365962 8
-3.1338313 -7.7877965 -1.8119272 4
-3.0027204 -7.4619761 -1.878879 2
-2.9732211 -7.3886681 -2.0011225 3
-2.1918368 -5.4468722 -2.0288866 4
-1.6176589 -4.0199986 -2.0271771 1
-4.2947526 -10.56612 2.993906 1
-4.3030663 -10.586574 2.1919382 13
-3.0689411 -7.5503302 1.1287601 7
-3.5462105 -8.7245274 0.8045665 3
-3.2327545 -7.9533501 0.42980239 5
-3.2381196 -7.9665494 0.27836311 10
-3.9104917 -8.697176 0.2806859 1
-3.9210839 -7.9371963 0.23398623 11
-24.578159 -45.513298 1.2171767 16
-2.4576712 -7.5819402 0.16375349 16
-2.9725957 -8.1494331 0.15293109 1
-18.423252 -45.325611 0.71650094 2
-2.1486838 -4.7788057 0.06145652 0
-31.483803 -58.301014 0.3862538 6
-2.4150107 -7.4503322 0.022281123 3
-3.1635857 -8.6730356 -0.00080564397 12
-3.8940721 -8.6606569 -0.056847267 6
-9.561264 -19.354248 -0.19253287 3
-32.514088 -60.208874 -0.81453681 0
-11.739559 -36.216656 -0.56418365 1
-12.456361 -34.149372 -0.64655399 9
-13.147727 -32.346558 -0.72347075 3
-3.8946879 -8.6620274 -0.22514386 2
-9.5458612 -19.323069 -0.57377905 21
-16.777325 -31.067883 -1.0454654 21
-9.816473 -30.283916 -1.0349451 4
-10.725852 -29.405148 -1.1116265 5
-11.637264 -28.630457 -1.188337 12
-3.8268871 -8.5112343 -0.3865582 5
-7.9080024 -16.007658 -0.79171902 9
-8.5775528 -15.883723 -0.85445845 18
-5.2058425 -16.060076 -0.84756202 9
-5.7666135 -15.809291 -0.89577001 11
-3.3790865 -8.3133621 -0.50391638 0
-7.1246285 -15.845614 -1.0273166 13
-7.7980332 -15.785053 -1.0919536 14
-8.5823202 -15.892552 -1.17497 15
-5.2188735 -16.100277 -1.1496758 12
-5.764401 -15.803226 -1.1934024 15
-6.4725456 -15.924011 -1.2695338 4
-7.1095443 -15.812067 -1.3324776 14
-7.8183193 -15.826118 -1.4075315 11
-8.6488066 -16.015671 -1.506691 18
-2.7441676 -8.4657841 -0.762012 0
-5.873735 -16.102966 -1.5195217 8
-3.2458217 -7.9854984 -0.78917956 5
-6.9616556 -15.483153 -1.6056237 15
-4.5458107 -9.2017899 -1.0000055 0
-8.2680101 -15.310519 -1.7487482 7
-2.8083246 -8.6637087 -0.94116849 0
-5.5910845 -15.328074 -1.7356076 6
-6.2376728 -15.346169 -1.8098209 3
-3.6936412 -9.0872421 -1.2456299 6
-3.3793433 -8.3139935 -1.2985283 14
-3.3598788 -8.2661066 -1.4506211 12
-3.3531487 -8.2495489 -1.5796448 16
-3.2932909 -8.1022844 -1.7327094 10
-3.171303 -7.8021646 -1.8178347 5
-3.0228829 -7.4370155 -1.8752394 2
-3.0062983 -7.3962135 -2.0059962 3
-2.2079897 -5.4321833 -2.0262737 4
-1.6194031 -3.9841194 -2.0119224 1
-4.3257318 -10.536747 2.9898438 3
-4.3355184 -10.560585 2.1896777 15
-3.0576594 -7.4479384 1.1150416 3
-3.6144836 -8.8042669 0.81307864 0
-3.2969105 -8.0307131 0.43460241 6
-3.2659085 -7.9551978 0.27836311 7
-3.881341 -8.5524025 0.27644914 11
-24.759832 -45.469368 1.2183059 3
-2.4841223 -7.5733151 0.16375349 10
-2.7547441 -7.4710755 0.14038074 6
-3.4556189 -8.4172993 0.13324939 5
-3.9373019 -8.6757107 0.11174766 0
-23.935467 -48.028099 0.46923733 5
-31.725382 -58.261021 0.38672018 0
-15.445138 -47.087414 0.14098102 4
-3.0125616 -8.1702967 -0.00075991632 7
-3.4453399 -8.3922625 -0.027550466 6
-3.9242778 -8.6470127 -0.056847267 0
-29.33589 -58.864403 -0.5865885 6
-32.425667 -59.547035 -0.80710942 1
-11.40967 -34.784531 -0.54249108 0
-15.043822 -40.799992 -0.77346039 0
-3.432466 -8.3609037 -0.18726881 6
-3.9166358 -8.6301737 -0.22466987 6
-9.6275215 -19.318258 -0.57463068 3
-16.925825 -31.082867 -1.0479515 7
-9.7788305 -29.812609 -1.0199987 18
-10.804921 -29.303768 -1.109213 4
-3.4094155 -8.3047562 -0.34518942 7
-3.8714368 -8.5305786 -0.38804814 8
-8.0244341 -16.101559 -0.79774374 8
-8.6386786 -15.864213 -0.85502583 17
-5.2357235 -15.96209 -0.84335029 10
-5.8383455 -15.834038 -0.89832145 14
-3.4141521 -8.3162937 -0.50481343 11
-7.1831937 -15.827922 -1.0277888 12
-7.9154119 -15.882798 -1.1006199 9
-8.7961826 -16.153458 -1.196522 5
-5.3994241 -16.461163 -1.1767845 6
-5.8581796 -15.887829 -1.2013282 7
-3.4132721 -8.3141499 -0.66378736 7
-7.2157855 -15.899737 -1.34198 8
-7.9482136 -15.948617 -1.4208851 6
-8.7313499 -16.034397 -1.5113107 22
-5.1996045 -15.851974 -1.4284738 12
-5.9547205 -16.149656 -1.5258796 7
-3.4264684 -8.3462934 -0.82601279 9
-7.0699639 -15.578424 -1.618053 12
-7.6464128 -15.343034 -1.6702962 3
-4.9943652 -9.1717358 -1.0495689 1
-2.774065 -8.4572601 -0.91978765 8
-3.3795781 -9.1656733 -1.0391644 1
-3.4113848 -8.3095531 -0.9813695 13
-3.3937962 -8.2667103 -1.1347729 19
-3.3842888 -8.2435522 -1.2893636 22
-3.3227377 -8.0936232 -1.4223789 13
-3.3774374 -8.2268629 -1.5775489 16
-3.3409252 -8.1379251 -1.742815 6
-3.2014885 -7.7982812 -1.8195226 5
-3.0488248 -7.4264183 -1.8752394 2
-3.0291512 -7.3784966 -2.0040467 3
-2.2312458 -5.4349351 -2.0301929 4
-1.6443084 -4.0052557 -2.0254819 1
-4.3565588 -10.507288 2.9857814 2
-4.4084659 -10.632479 2.2077618 18
-3.188349 -7.6897621 1.1529046 5
-3.2849491 -7.9227452 0.73272413 11
-3.7487626 -9.0413857 0.49000272 5
-3.2262838 -7.7812543 0.27266905 8
-3.824589 -8.3497782 0.27032936 17
-3.8794131 -7.716712 0.22827925 2
-16.863752 -30.713129 0.82449961 9
-2.5155818 -7.5797801 0.16408215 9
-2.8115335 -7.5438609 0.14193191 11
-1.7723613 -4.2746377 0.06776683 0
-22.089758 -48.225986 0.62216514 0
-28.754314 -57.196476 0.55979007 6
-16.646744 -30.317902 0.20162612 1
-2.9344029 -8.8417435 0.02650293 0
-2.8203518 -7.5675225 -0.00070476392 18
-3.4761455 -8.3838787 -0.027562615 11
-26.799892 -58.509071 -0.38526353 4
-29.507038 -58.693748 -0.58591068 1
-11.586833 -21.102533 -0.28657335 0
-15.970587 -48.121487 -0.75135583 5
-0.75700295 -2.031178 -0.038555644 0
-3.3957675 -8.1900206 -0.18370573 9
-3.895113 -8.5037451 -0.22173116 5
-14.447149 -28.737461 -0.85630405 18
-17.474895 -31.826172 -1.0750618 27
-9.8916531 -29.804855 -1.0209085 16
-10.86666 -29.157246 -1.1050959 17
-3.423075 -8.2558823 -0.34365252 10
-7.541081 -16.46356 -0.75010502 6
-8.0608425 -16.034178 -0.79579461 8
-8.7170782 -15.875988 -0.85729533 14
-5.3077693 -15.993009 -0.84595758 12
-5.9047408 -15.843506 -0.90002245 8
-3.4462199 -8.3117037 -0.50526196 10
-7.253365 -15.835423 -1.0299138 12
-7.9546628 -15.82297 -1.0983914 12
-8.7564592 -15.947711 -1.1835389 15
-5.2758374 -15.896793 -1.1377481 11
-5.9428644 -15.945798 -1.2072725 14
-3.4392178 -8.2948151 -0.66319811 12
-7.2911725 -15.917965 -1.3456583 21
-8.7930231 -16.014303 -1.5123006 31
-5.2963338 -15.958552 -1.4397352 15
-6.0152316 -16.139973 -1.5269392 9
-3.4433763 -8.3048449 -0.82309532 12
-7.1408839 -15.589857 -1.6218194 14
-4.60815 -9.1662741 -0.99961758 1
-5.0550833 -9.2065763 -1.0555687 0
-2.8123429 -8.4739599 -0.92266583 5
-3.4226644 -9.1836376 -1.0425493 0
-3.4403698 -8.2975941 -0.9813695 14
-3.4317508 -8.2768059 -1.1377962 15
-3.4312387 -8.2755709 -1.2962372 16
-3.3313115 -8.034564 -1.4140347 13
-3.4121683 -8.2295761 -1.5803435 15
-3.2926681 -7.9413624 -1.7031702 7
-3.1972418 -7.7112098 -1.8018 6
-3.0836804 -7.4373193 -1.8806987 3
-3.0727184 -7.4108806 -2.0157435 3
-2.2400675 -5.4026666 -2.0210478 5
-1.6555041 -3.9927979 -2.0220921 1
-4.3917155 -10.488448 2.984766 3
-4.4318981 -10.584414 2.2009802 18
-3.2901571 -7.8576684 1.179793 6
-15.202178 -36.306374 3.3626318 9
-3.3559813 -8.0148716 0.43500242 15
-3.222544 -7.6961918 0.2700808 12
-3.6490307 -7.8936086 0.25597143 11
-16.885639 -30.500143 0.82035923 17
-2.5178397 -7.4989209 0.16252103 3
-2.8674545 -7.612597 0.14341256 12
-3.4015319 -8.1236572 0.12897369 6
-23.775173 -51.430618 0.66457486 13
-24.275599 -47.870537 0.46934226 3
-16.68079 -30.130129 0.20076337 15
-2.9614296 -8.8200712 0.026468791 2
-2.8256006 -7.501482 -0.00069952797 14
-3.401881 -8.1244917 -0.026748734 37
-26.967041 -58.335293 -0.38473675 14
-29.729828 -58.62606 -0.58626741 3
-21.333212 -38.533695 -0.52429736 10
-18.763496 -55.883614 -0.87356889 5
-0.79087394 -2.0996339 -0.039907228 0
-3.4227908 -8.1744289 -0.18362287 10
-3.8928914 -8.4211302 -0.21993001 10
-14.64684 -28.882998 -0.86215895 9
-17.580074 -31.754486 -1.0747067 23
-10.024899 -29.857313 -1.0238978 10
-11.009236 -29.227621 -1.109213 3
-3.4565041 -8.2549438 -0.34411359 7
-7.5029149 -16.230358 -0.74066865 21
-8.1113415 -15.995251 -0.79526299 16
-8.8440466 -15.9748 -0.86429286 10
-5.3750076 -16.008469 -0.84776258 9
-5.9600096 -15.822797 -0.90002245 13
-3.4798398 -8.3106747 -0.50593477 1
-7.315299 -15.824507 -1.0308583 17
-8.0784616 -15.930412 -1.1078006 4
-8.8430071 -15.972922 -1.1876935 11
-5.3211331 -15.848014 -1.1355795 14
-5.9717674 -15.854012 -1.2018943 12
-3.4789362 -8.3085165 -0.66526043 2
-7.5675955 -16.370275 -1.3861201 7
-8.2090397 -16.187906 -1.4472742 2
-8.8160467 -15.924223 -1.506691 19
-5.3482018 -15.928632 -1.4387114 6
-6.1052418 -16.208364 -1.5354164 4
-3.4800372 -8.3111467 -0.82491875 6
-7.1752081 -15.52146 -1.6172997 14
-7.7677417 -15.317684 -1.6733994 3
-8.4818621 -15.320594 -1.7599479 7
-3.0736651 -9.1543446 -0.99790996 0
-5.7793326 -15.343131 -1.7440699 6
-3.4723847 -8.2928705 -0.98223835 9
-3.4698174 -8.2867393 -1.1408195 5
-3.5457284 -8.4680328 -1.3283137 8
-3.4081335 -8.1394234 -1.4345745 12
-3.4469588 -8.2321472 -1.5831381 5
-3.2900596 -7.8574352 -1.6876233 6
-3.216589 -7.6819701 -1.7975804 11
-3.1066139 -7.4193239 -1.878879 3
-3.0895789 -7.3786402 -2.0098951 3
-2.2603729 -5.3983016 -2.0223544 4
-1.6652335 -3.9769688 -2.0170071 1
-4.4132328 -10.437419 2.9746103 2
-4.4688182 -10.568879 2.2009802 21
-3.1509159 -7.4520035 1.1205289 9
-3.5838642 -8.4759388 0.78618032 0
-3.4695089 -8.2054853 0.44600245 14
-3.2805285 -7.7585411 0.27266905 15
-3.6867049 -7.9025631 0.25667757 11
-28.674059 -56.058159 1.6642191 1
-17.075804 -30.591164 0.82440549 8
-2.5388544 -7.4749398 0.16219237 9
-2.8940103 -7.6025414 0.14341256 11
-3.4345412 -8.1227856 0.12914939 11
-22.483397 -48.193836 0.62376022 3
-29.865124 -58.386703 0.57346565 4
-16.692274 -29.904074 0.19964413 18
-3.0140662 -8.8740673 0.026662242 5
-3.4395671 -8.1346722 -0.026821619 9
-1.5879197 -3.403754 -0.022485081 0
-30.384197 -59.401501 -0.59507889 0
-21.418844 -38.371685 -0.52310705 26
-19.057484 -56.109379 -0.87813264 2
-1.7585973 -4.6198206 -0.087923944 0
-3.4684362 -8.2029486 -0.18453434 2
-3.9324071 -8.4292336 -0.2204988 4
-14.869574 -29.07021 -0.86929125 5
-17.753162 -31.804646 -1.078495 5
-10.113626 -29.776712 -1.0223382 7
-3.1045356 -8.1555891 -0.30992088 4
-12.037434 -28.468864 -1.1884906 19
-7.5865593 -16.262018 -0.74331748 7
-8.2108011 -16.052223 -0.79951572 10
-8.9620695 -16.055475 -0.87034482 10
-5.4205737 -15.959348 -0.84615815 11
-6.0919414 -16.003479 -0.91150397 5
-6.6692624 -15.772991 -0.96163487 11
-7.4262028 -15.91829 -1.0386499 6
-8.1103859 -15.855909 -1.1045816 16
-8.9337254 -16.004696 -1.1923673 9
-5.3725677 -15.818007 -1.1347661 11
-6.0355892 -15.855443 -1.2035928 10
-3.5747199 -8.4543123 -0.67792928 1
-7.4223571 -15.910047 -1.3493366 21
-8.1184177 -15.871612 -1.4215209 15
-8.9046059 -15.952528 -1.5123006 21
-5.4153032 -15.94383 -1.4417826 13
-6.0526371 -15.900229 -1.5082189 15
-3.5369511 -8.3649874 -0.83148307 7
-7.2596498 -15.561277 -1.6240792 15
-4.6992249 -9.1870461 -1.0054361 0
-5.1056533 -9.1467361 -1.0527688 1
-3.106879 -9.1473274 -0.99832112 2
-3.4895251 -9.166954 -1.0433955 1
-3.5090539 -8.2990103 -0.98441046 2
-3.8448856 -9.0932617 -1.2536922 14
-3.5968502 -8.5066509 -1.3363329 14
-3.4165363 -8.0802031 -1.4262302 13
-3.8238544 -9.0435228 -1.7417313 7
-3.3526132 -7.9290233 -1.7055023 5
-3.2540436 -7.6959038 -1.8034879 8
-3.1461458 -7.4407225 -1.8870677 4
-3.1228707 -7.3856764 -2.0147688 3
-2.2762582 -5.3834143 -2.0197415 5
-1.6847497 -3.9844799 -2.023787 2
-4.4177375 -10.347228 2.9532833 1
-4.4763756 -10.484571 2.1866636 22
-3.1877999 -7.4664679 1.1243701 7
-3.2597544 -7.6349993 0.70923066 4
-3.5044053 -8.2080212 0.44680247 4
-3.2730553 -7.6661534 0.269822 13
-3.7261887 -7.9149675 0.25750136 5
-25.972891 -50.343117 1.4972371 0
-17.233477 -30.621975 0.82685208 6
-2.5532372 -7.4319925 0.1614529 14
-2.9190948 -7.5886602 0.14334206 1
-22.615711 -48.039066 0.62277502 13
-30.697781 -59.501343 0.58546245 4
-16.820101 -29.887453 0.19992395 17
-3.0203316 -8.7916155 0.026446031 4
-2.8621054 -7.4405069 -0.00069568824 0
-3.9321821 -8.3525276 -0.055266846 3
-30.17507 -58.488174 -0.58698088 1
-21.552658 -38.29668 -0.52310705 30
-12.106039 -35.2384 -0.55215198 0
-13.017433 -33.840927 -0.64491785 7
-13.951488 -29.634995 -0.77648562 13
-14.833459 -28.751614 -0.86130732 5
-17.944473 -31.88534 -1.0833489 39
-10.174639 -29.616457 -1.0180491 9
-3.1329851 -8.1447029 -0.30992088 7
-12.133596 -28.419321 -1.1881832 15
-7.7845683 -16.535557 -0.75705808 19
-8.2594547 -16.009256 -0.79880697 16
-8.9769087 -15.950971 -0.86637324 14
-5.4866333 -15.970555 -0.84776258 12
-3.1448689 -8.1755962 -0.46627668 1
-6.7650528 -15.845112 -0.9674657 6
-7.4409046 -15.805566 -1.0329832 17
-8.1858196 -15.866529 -1.1073053 14
-9.0130301 -16.015156 -1.1954833 8
-5.4251566 -15.791608 -1.1342239 15
-6.0951962 -15.84545 -1.2044419 10
-3.5963778 -8.42344 -0.67645615 7
-7.5474968 -16.031982 -1.3619043 8
-8.2980862 -16.084137 -1.443141 12
-8.9797878 -15.956087 -1.5156004 22
-5.6301966 -16.388441 -1.4837564 5
-6.1567388 -16.005442 -1.5202281 6
-3.5583084 -8.3342733 -0.82965964 0
-7.2816973 -15.467386 -1.6169231 12
-4.7385664 -9.1847382 -1.0069877 9
-5.1453581 -9.1427307 -1.0543687 0
-3.149132 -9.1665297 -1.0016105 0
-5.9020152 -15.343246 -1.7487241 7
-3.9408283 -9.2302113 -1.0964925 0
-3.8781621 -9.0834351 -1.254196 5
-3.6280766 -8.4976845 -1.3369057 12
-3.4183662 -8.0065002 -1.4153184 11
-3.3218603 -7.7804642 -1.5006975 8
-3.4434388 -8.0652256 -1.7373736 12
-3.2854934 -7.6952853 -1.8060197 6
-3.1736298 -7.4332781 -1.8879776 3
-3.1532023 -7.3854337 -2.017693 3
-2.2965207 -5.3789129 -2.0210478 4
-1.6829988 -3.9419215 -2.0051425 1
-8.4680958 -19.643816 5.6150975 0
-3.4041491 -7.8967547 1.6494166 2
-3.5526381 -8.2412109 1.2428982 2
-3.2690308 -7.5833149 0.70548528 8
-3.4587054 -8.0233116 0.43740243 30
-3.3393612 -7.7464633 0.27305725 7
-3.7417853 -7.8766327 0.25667757 5
-26.238907 -50.425953 1.5024157 2
-4.6710372 -8.2325468 0.22273347 1
-2.5896649 -7.4532557 0.16211021 15
-2.8774676 -7.4032226 0.14002819 7
-20.794994 -48.239063 0.76927358 5
-9.2746325 -19.523535 0.25351986 15
-5.9100213 -11.357884 0.11195801 0
-17.011177 -29.98163 0.20094992 17
-3.0562532 -8.796133 0.026491549 12
-2.8909566 -7.4379277 -0.00069638633 1
-21.394093 -49.628819 -0.1641245 10
-3.9561648 -8.3279114 -0.055195007 2
-21.721735 -38.283836 -0.52396411 24
-18.915787 -54.441097 -0.85406935 0
-13.141268 -33.810192 -0.6452024 5
-13.051282 -30.275635 -0.68311679 0
-13.969055 -29.405512 -0.7717458 6
-14.754697 -28.355589 -0.85098141 3
-10.267462 -29.550549 -1.0170094 12
-3.1642909 -8.1411695 -0.31020483 0
-12.261207 -28.442863 -1.1909497 11
-7.9108367 -16.652679 -0.76368004 10
-8.3687811 -16.08313 -0.80394566 8
-9.0542231 -15.957766 -0.86845356 8
-5.5567708 -15.992816 -0.84996873 9
-3.1560216 -8.1198931 -0.46372524 8
-3.6583736 -8.4864912 -0.51894194 4
-7.5354385 -15.86245 -1.0384138 18
-8.2669544 -15.887442 -1.1107719 13
-9.0393324 -15.931521 -1.1915884 8
-5.490726 -15.802733 -1.1363927 13
-3.1569023 -8.122159 -0.61821413 1
-3.6383927 -8.4401398 -0.67881316 2
-7.5144248 -15.818214 -1.3459649 14
-8.3357754 -16.019701 -1.4399616 14
-9.0570698 -15.962784 -1.5192302 24
-5.5866499 -16.07881 -1.4574802 31
-6.2342186 -16.039558 -1.5255264 10
-6.7568879 -15.674251 -1.5626776 15
-4.3675532 -9.193903 -0.96269631 1
-4.7669234 -9.1610785 -1.0062119 10
-8.6968222 -15.327859 -1.7711475 7
-3.1771929 -9.144207 -1.0003769 1
-3.5548763 -9.1460772 -1.0438186 1
-3.9557085 -9.1762314 -1.0917138 1
-3.9035623 -9.0552654 -1.2521806 13
-3.6702545 -8.5140514 -1.341488 19
-3.4212863 -7.9365091 -1.4050485 12
-3.4238369 -7.9424257 -1.5342326 9
-3.4871035 -8.0891876 -1.745147 10
-3.3324568 -7.7304473 -1.8169909 5
-3.2057252 -7.4364619 -1.8916171 2
-3.1789634 -7.3743815 -2.017693 3
-2.3122892 -5.3639197 -2.018435 5
-1.7067884 -3.9593127 -2.0170071 1
-1.7693895 -4.0654373 1.1638454 0
-3.4599102 -7.9496613 1.6629796 3
-3.4343321 -7.890892 1.1918653 11
-3.3018425 -7.5864768 0.70684725 7
-3.5520551 -8.1613779 0.44560248 13
-3.374357 -7.7530899 0.27370432 10
-3.9420798 -8.2240696 0.26844636 11
-23.949066 -45.635597 1.3621719 0
-4.6918035 -8.2023067 0.22235706 28
-2.6488092 -7.538496 0.16416432 19
-2.9135256 -7.4191914 0.14052175 11
-21.07976 -48.433903 0.77354926 0
-3.9711776 -8.2847748 0.10776002 3
-29.105055 -55.460476 0.54768842 16
-4.6910367 -8.2009659 0.055075854 15
-3.073679 -8.747673 0.026377754 15
-2.9783111 -7.5841651 -0.00071104715 9
-21.576767 -49.575851 -0.16419739 3
-9.3259115 -19.455961 -0.1291635 18
-26.105106 -49.743992 -0.50104207 4
-4.6947556 -8.207468 -0.11255348 12
-14.536778 -41.37159 -0.64982766 0
-3.1444938 -8.0073442 -0.15301327 7
-13.753757 -31.601315 -0.71410733 23
-9.3303738 -19.465269 -0.51171649 17
-14.82014 -28.240181 -0.8490653 3
-4.6870756 -8.1940413 -0.27950898 6
-10.365249 -29.499439 -1.0164895 9
-3.1459322 -8.0110064 -0.30566177 2
-12.352436 -28.381569 -1.1901813 12
-7.9257302 -16.534866 -0.75954133 17
-8.4025879 -16.01136 -0.80181932 16
-4.6957893 -8.2092752 -0.44765455 4
-5.5874004 -15.90171 -0.84615815 9
-3.1931067 -8.131135 -0.46500096 5
-3.6943483 -8.4883184 -0.51983899 6
-7.5976672 -15.850451 -1.0393581 11
-8.3576097 -15.925653 -1.1154764 10
-4.6792397 -8.1803427 -0.61306173 10
-5.5709906 -15.855007 -1.1415433 8
-3.1721091 -8.0776653 -0.61566657 6
-6.8962851 -15.845247 -1.2763101 10
-7.6178641 -15.892588 -1.3545476 8
-8.5231972 -16.241184 -1.4625355 9
-4.6850228 -8.1904526 -0.78106385 10
-5.5568652 -15.814807 -1.4352989 4
-3.173485 -8.0811691 -0.76965082 1
-6.8656044 -15.774753 -1.5750769 17
-4.3875709 -9.1534653 -0.96005982 1
-4.8062725 -9.1584835 -1.0077635 2
-4.6873646 -8.1945467 -0.94877189 3
-3.2090929 -9.1330605 -1.0003769 0
-3.1651487 -8.0599403 -0.92111599 9
-4.0051694 -9.2024755 -1.0964925 0
-3.9763181 -9.1361856 -1.2652818 13
-3.8421345 -8.827879 -1.3930397 6
-3.4662991 -7.9643407 -1.412109 9
-3.6464345 -8.3782291 -1.6208651 9
-3.4667764 -7.9654374 -1.7210492 10
-3.3516176 -7.7008429 -1.8127711 6
-3.2332165 -7.4287987 -1.892527 3
-3.2155211 -7.3881407 -2.0245161 3
-2.3385415 -5.3731494 -2.0249672 6
-1.7162602 -3.9433646 -2.0119224 1
-6.8401308 -15.56749 4.4634385 1
-3.5113425 -7.9914832 1.6742821 3
-3.6610878 -8.3322887 1.2604579 6
-3.3747976 -7.6807199 0.7167213 10
-3.6367693 -8.2769423 0.45260251 7
-3.4142656 -7.7705455 0.27473962 4
-3.9237621 -8.1130753 0.26526877 2
-4.2421789 -8.0154629 0.23969321 2
-4.724402 -8.1928082 0.22254527 32
-2.894686 -8.1472168 0.17763928 11
-3.0264225 -7.6283083 0.14468171 3
-4.0052972 -8.2816639 0.10790076 4
-26.381536 -49.84708 0.4931609 11
-4.7236314 -8.1914711 0.055122487 33
-3.1229439 -8.7896585 0.026537068 9
-2.9546134 -7.4473085 -0.0006991789 14
-25.769127 -58.64809 -0.19454177 5
-9.3815794 -19.398083 -0.12899588 23
-26.289816 -49.673775 -0.50125611 11
-4.7173829 -8.1806355 -0.11241065 32
-14.685122 -41.331902 -0.65000546 3
-3.1753755 -8.0037546 -0.15315555 6
-14.121379 -32.13892 -0.72736531 6
-9.3721485 -19.378584 -0.5102945 31
-14.929851 -28.20948 -0.84970397 2
-4.7056637 -8.1603127 -0.27891704 34
-10.441389 -29.387735 -1.0138901 10
-3.1694541 -7.9888296 -0.30523586 14
-12.536649 -28.532225 -1.1983268 8
-7.9642591 -16.467522 -0.75772029 9
-8.50142 -16.063164 -0.80589485 7
-4.712441 -8.1720657 -0.44651979 36
-5.6856737 -16.002571 -0.85257602 9
-3.1728609 -7.9974165 -0.45798448 15
-3.7352016 -8.5009651 -0.52140886 8
-7.6738124 -15.866971 -1.0421915 14
-8.4075489 -15.885798 -1.1147336 10
-4.7077665 -8.1639595 -0.61306173 32
-5.622293 -15.824183 -1.14073 12
-3.1767435 -8.0072031 -0.61113751 11
-6.9531589 -15.824731 -1.2766048 5
-7.6732941 -15.865899 -1.3545476 8
-8.5089617 -16.077414 -1.4504536 15
-4.7135849 -8.1740494 -0.78106385 31
-5.7107739 -16.073215 -1.4605514 4
-3.1840422 -8.0255995 -0.76541227 8
-6.9526739 -15.823627 -1.5823706 15
-4.4385681 -9.1775284 -0.96420288 1
-4.8586979 -9.180356 -1.0120304 0
-4.7020235 -8.1540003 -0.94597197 34
-3.2516108 -9.1517963 -1.0036664 0
-3.19033 -8.0414486 -0.92026979 16
-4.0276704 -9.1665955 -1.093886 0
-3.9650865 -9.0241613 -1.2516767 13
-3.8633711 -8.7926664 -1.3896029 20
-3.5258431 -8.0244846 -1.4249464 8
-3.5013812 -7.968812 -1.5440137 12
-3.5277061 -8.0287247 -1.7373736 10
-3.3769057 -7.6855173 -1.8119272 9
-3.2685297 -7.4388638 -1.8979862 3
-3.241291 -7.3768711 -2.0245161 3
-2.3572831 -5.364953 -2.0249672 5
-1.7329298 -3.943984 -2.0153122 1
-6.9054112 -15.568274 4.4705477 0
-3.5328457 -7.9648132 1.6712681 1
-3.574482 -8.0586824 1.2209486 10
-3.5211687 -7.938488 0.74191719 8
-3.5765495 -8.063344 0.44160244 22
-3.7609406 -7.7076583 0.25244078 10
-24.366867 -45.654251 1.3677732 17
-4.7509623 -8.1728096 0.22245117 15
-2.7148936 -7.5574565 0.16498597 15
-17.828699 -44.484833 0.84489322 8
-23.168781 -52.2341 0.83680612 4
-9.4908457 -19.450506 0.25384825 16
-26.566675 -49.77586 0.49337074 4
-4.7582273 -8.1853065 0.055192441 33
-3.1373789 -8.73353 0.026400514 6
-2.9820797 -7.4406624 -0.00069952797 8
-26.460239 -59.654705 -0.19818601 11
-9.4685249 -19.40476 -0.12925929 20
-32.141369 -60.220718 -0.60881341 2
-4.7398801 -8.1537447 -0.11226781 31
-21.277834 -59.231163 -0.93266034 5
-13.529752 -30.502872 -0.69140303 2
-9.4379778 -19.342157 -0.51019973 33
-15.086596 -28.26655 -0.85300404 3
-4.7381392 -8.1507502 -0.27915382 40
-10.510118 -29.257046 -1.010641 11
-3.204757 -7.9962697 -0.30594572 1
-7.6705127 -17.2932 -0.72741836 0
-8.0251951 -16.446808 -0.7580514 10
-8.5913076 -16.096848 -0.80908442 6
-4.7389302 -8.1521111 -0.44633067 45
-5.7631087 -16.04278 -0.85578495 7
-3.2081881 -8.0048304 -0.45904759 9
-3.7632334 -8.4842234 -0.52118456 1
-7.7361522 -15.854444 -1.043136 18
-8.4798679 -15.888051 -1.1169621 13
-4.7342296 -8.1440248 -0.61280203 28
-5.6734481 -15.793193 -1.1399168 14
-3.204675 -7.9960651 -0.61113751 5
-7.0115905 -15.807656 -1.277194 11
-7.7338729 -15.849772 -1.3554672 10
-8.5988255 -16.110931 -1.4561766 9
-4.7380824 -8.1506529 -0.78040385 46
-5.9689546 -16.615795 -1.511739 4
-3.2090733 -8.0070391 -0.76470584 9
-6.9997916 -15.781055 -1.5805472 11
-4.4740667 -9.169137 -0.96495616 2
-8.1880569 -15.341308 -1.694346 5
-4.7304583 -8.137537 -0.94597197 43
-3.2821918 -9.1366453 -1.0032551 0
-3.2376173 -8.0782604 -0.92577022 8
-4.0757661 -9.1888294 -1.0982302 1
-4.0367861 -9.1009493 -1.264274 15
-3.7303171 -8.4100132 -1.3311777 14
-3.5282195 -7.9543834 -1.4146765 13
-3.5978434 -8.111351 -1.5740557 9
-3.5620739 -8.0307083 -1.7404829 9
-3.4211512 -7.7129979 -1.8212105 11
-3.2976353 -7.4345307 -1.8998059 2
-3.2764592 -7.3867893 -2.0303645 3
-2.3759961 -5.3566918 -2.0249672 6
-1.7599077 -3.9677184 -2.0305669 1
-7.8909421 -17.623917 5.0687194 1
-5.1274309 -11.45179 2.4066863 17
-3.5621121 -7.95575 1.2072301 11
-3.4755681 -7.7624593 0.7265954 2
-3.5932462 -8.0252857 0.44020244 12
-3.8278542 -8.5492678 0.30321005 0
-3.9167323 -7.956347 0.26103202 12
-24.546928 -45.607647 1.3689357 16
-2.7303364 -7.5178628 0.16432865 6
-3.4127784 -8.4299726 0.16033441 0
-3.8931909 -8.6951933 0.13951649 0
-23.528385 -47.794945 0.62483925 11
-31.337255 -58.22393 0.57818741 3
-4.7867703 -8.1686478 0.055192441 4
-3.150095 -8.6736498 0.026252579 8
-3.8854175 -8.6778316 -0.028874541 2
-9.5468025 -19.393124 -0.12940295 8
-32.387402 -60.175079 -0.60949123 2
-4.7905569 -8.1751099 -0.11279154 9
-12.618161 -34.743557 -0.54776603 0
-13.473985 -33.282364 -0.63865793 3
-3.8813329 -8.6687088 -0.19679797 1
-9.5195665 -19.337797 -0.51095808 24
-15.145376 -28.139774 -0.85076851 0
-4.7685828 -8.1376104 -0.2792722 14
-10.695431 -29.449404 -1.018569 9
-11.598537 -28.649782 -1.0977134 17
-3.8270307 -8.5474291 -0.36009744 4
-8.0313683 -16.314711 -0.75325042 8
-8.6019917 -15.98231 -0.80483168 13
-4.7754383 -8.1493092 -0.44708717 22
-5.834075 -16.063871 -0.8579911 14
-6.4017735 -15.81315 -0.90810204 10
-7.0862532 -15.826694 -0.97374499 12
-7.7896848 -15.823761 -1.0428998 15
-8.5523052 -15.889994 -1.1191906 14
-4.7767553 -8.151557 -0.61461967 13
-5.7489777 -15.829559 -1.1439831 11
-6.4097362 -15.832819 -1.2118016 10
-7.0879192 -15.830416 -1.2810241 10
-7.9512057 -16.151871 -1.3836678 8
-8.6739082 -16.115929 -1.4593561 18
-4.7785974 -8.1547003 -0.78238374 21
-5.9330454 -16.336382 -1.4881927 10
-3.239994 -8.0031748 -0.76541227 8
-7.0466967 -15.738347 -1.5787238 11
-4.5148406 -9.1713285 -0.96683937 1
-4.933991 -9.1672459 -1.0143578 2
-4.7628589 -8.1278419 -0.94677192 26
-5.5768652 -15.355655 -1.6882646 4
-6.2121778 -15.344826 -1.7609944 4
-4.1126909 -9.1854324 -1.0995336 0
-4.0523143 -9.0505857 -1.259235 6
-3.7952414 -8.476429 -1.3437792 10
-3.6221142 -8.0897608 -1.4409931 10
-3.5601475 -7.9513621 -1.545411 9
-3.6365843 -8.1220789 -1.763026 11
-3.4432609 -7.6903033 -1.8186786 8
-3.321975 -7.4194193 -1.898896 2
-3.3022242 -7.3753071 -2.0303645 3
-2.3900454 -5.3380141 -2.0210478 6
-1.75598 -3.9218693 -2.0102274 1
-7.9683466 -17.631519 5.0788755 1
-4.7499723 -10.510239 2.2122829 19
-3.3924186 -7.5063872 1.1408324 7
-8.9978867 -19.909578 1.8665398 17
-3.6261737 -8.0236158 0.44080243 11
-3.9021282 -8.6342192 0.30670413 5
-3.9515951 -7.9569507 0.26150277 4
-1.9111698 -3.5214031 0.10589621 0
-30.7897 -52.124798 1.424572 1
-2.7565622 -7.508286 0.16432865 7
-3.4497521 -8.4365177 0.16068694 8
-3.9202247 -8.6742611 0.13939935 8
-23.837402 -47.999107 0.62859231 15
-32.250046 -59.42194 0.5911985 18
-17.556255 -29.721504 0.20122972 9
-2.9887319 -8.140666 0.024670824 8
-3.4306073 -8.389698 -0.00079098321 7
-3.9107432 -8.6532812 -0.0288381 6
-29.442886 -59.286331 -0.39627859 5
-32.578167 -60.026512 -0.6091345 4
-12.784852 -34.823204 -0.54972196 0
-3.4300647 -8.3883715 -0.16119391 0
-3.9000404 -8.6295986 -0.19621794 6
-9.5870113 -19.304451 -0.51095808 3
-16.927691 -31.189915 -0.9447661 10
-18.252443 -30.900103 -1.0626314 10
-10.818831 -29.468182 -1.0205185 9
-11.690908 -28.590622 -1.0970036 7
-3.8535516 -8.5267334 -0.35979006 6
-8.0527163 -16.214987 -0.74993944 17
-8.6691608 -15.97326 -0.80589485 10
-9.3882465 -15.893641 -0.87374902 13
-5.8446774 -15.919652 -0.85137266 10
-3.4091272 -8.3371677 -0.47945917 4
-7.1743503 -15.874648 -0.97823024 7
-8.0189266 -16.14695 -1.0660387 7
-8.6267595 -15.895133 -1.1216667 12
-9.531189 -16.135632 -1.2191125 5
-5.7918196 -15.775678 -1.1415433 14
-3.4129455 -8.3465052 -0.63972706 9
-7.2121348 -15.958254 -1.2933983 4
-7.8762679 -15.859691 -1.3609847 14
-8.7263031 -16.078547 -1.4587202 11
-9.3525286 -15.833174 -1.5222 23
-5.9639368 -16.244488 -1.4817089 5
-3.3960936 -8.3052931 -0.79543537 4
-7.1163554 -15.746323 -1.582006 9
-4.5468273 -9.1555128 -0.96683937 1
-8.3158445 -15.32226 -1.6986129 4
-9.0702887 -15.355362 -1.7923468 8
-3.363724 -9.1620646 -1.0086004 1
-3.405339 -8.3279037 -0.95708054 10
-4.1496425 -9.1818914 -1.1008368 2
-4.029953 -8.9170561 -1.2426065 11
-3.849262 -8.5172424 -1.3523712 17
-3.5739095 -7.9079709 -1.4108254 12
-3.6998003 -8.1865282 -1.5936178 8
-3.6600661 -8.098609 -1.760694 11
-3.4733045 -7.6853628 -1.8203665 9
-3.3494577 -7.4113278 -1.8998059 3
-3.3375351 -7.3849468 -2.0362129 3
-2.40555 -5.3227482 -2.018435 4
-1.7741357 -3.9256208 -2.0153122 1
-8.0266323 -17.596556 5.0768442 0
-4.7654366 -10.44713 2.2024872 36
-3.6126335 -7.9198732 1.2055838 6
-3.9531043 -8.6662769 0.81375957 0
-3.768559 -8.2617044 0.45460251 6
-3.8774908 -8.5005121 0.30243358 9
-3.9399464 -7.8644633 0.25891364 9
-24.849365 -45.407112 1.3680903 18
-30.699356 -51.560028 1.4120568 10
-2.7994511 -7.5436101 0.16531461 20
-3.4761271 -8.4170313 0.16054593 0
-23.69956 -51.955868 0.83627898 8
-24.07826 -48.062225 0.63051575 8
-28.724392 -52.487926 0.52320522 1
-35.804756 -60.134624 0.40798569 4
-2.7888973 -7.5151706 0.022804581 15
-3.4659796 -8.3924599 -0.00079237943 12
-29.570824 -59.025845 -0.39522499 17
-32.568596 -59.512424 -0.60506761 6
-36.011543 -60.481926 -0.83791405 8
-3.0349011 -8.178071 -0.12926616 0
-3.3997867 -8.2321825 -0.15841959 6
-3.9500558 -8.6595945 -0.19721228 0
-14.689281 -29.321037 -0.77743363 15
-17.094049 -31.235865 -0.94795966 11
-18.442003 -30.973619 -1.0673667 18
-10.818701 -29.152878 -1.0109009 8
-3.4149668 -8.268939 -0.31772923 7
-3.8866096 -8.520503 -0.36009744 6
-8.1880331 -16.344 -0.75722361 10
-8.7728262 -16.030539 -0.81032479 9
-9.5090742 -15.970633 -0.87980098 12
-5.8877029 -15.865444 -0.84956765 11
-3.4260116 -8.2956829 -0.4777582 15
-7.2578964 -15.911279 -0.98204273 5
-7.9411016 -15.851105 -1.0483304 12
-8.680275 -15.861421 -1.1214191 10
-9.5935764 -16.112555 -1.2198915 18
-5.8885069 -15.86761 -1.1496758 10
-3.4420595 -8.3345413 -0.63972706 16
-7.2164745 -15.82047 -1.2842649 12
-7.970881 -15.910546 -1.3677284 9
-8.8302307 -16.135433 -1.4666687 14
-9.4709568 -15.906614 -1.5324295 28
-5.9998064 -16.167526 -1.4765902 13
-3.4372311 -8.3228493 -0.79826105 14
-7.2059932 -15.797493 -1.5896643 15
-4.6019459 -9.1858702 -0.97173572 2
-5.0150695 -9.16401 -1.0178488 0
-5.4404988 -9.1373987 -1.0687683 0
-5.6936221 -15.342459 -1.6911428 6
-3.4237602 -8.2902308 -0.95411879 17
-4.1915693 -9.1890574 -1.1034434 1
-4.1565709 -9.1123304 -1.2718325 12
-3.9167569 -8.5865936 -1.3655455 12
-3.5965762 -7.8846707 -1.4088998 14
-3.7120085 -8.1377296 -1.5866313 5
-3.6182926 -7.9322791 -1.727268 6
-3.5082238 -7.6909785 -1.8245862 8
-3.3850069 -7.4208536 -1.9052651 3
-3.3649032 -7.376781 -2.0371876 2
-2.4194086 -5.3039999 -2.0145159 6
-1.795346 -3.9358857 -2.023787 2
-5.2356057 -11.372562 3.2863908 0
-3.7422757 -8.1288137 1.7164782 10
-3.5458128 -7.7020655 1.1743056 3
-3.9766648 -8.6379442 0.81239766 1
-4.0095472 -8.7093706 0.48000264 5
-3.8670149 -8.3997669 0.2993277 4
-17.104542 -30.997616 0.93573356 10
-31.14872 -51.901722 1.4243838 7
-2.8482358 -7.5937037 0.16662925 11
-3.3854046 -8.1169329 0.15504633 2
-22.16975 -48.1562 0.77636069 3
-24.395617 -48.274174 0.63440955 6
-16.692453 -30.250809 0.30212227 5
-7.56639 -12.607538 0.085715003 0
-2.8179209 -7.5128808 0.02282734 14
-3.410567 -8.1772633 -0.00077318086 15
-27.029631 -58.712631 -0.196291 1
-29.621532 -58.615246 -0.39316565 8
-32.915272 -59.650524 -0.60763615 4
-36.228622 -60.366135 -0.83805686 2
-0.76129198 -2.0296865 -0.032123912 0
-3.4084883 -8.1722794 -0.15749483 13
-3.8832617 -8.4350576 -0.19240627 4
-15.339844 -30.354565 -0.80625206 11
-17.500483 -31.715155 -0.96435338 15
-18.572645 -30.946768 -1.068669 11
-10.909159 -29.084993 -1.0098611 10
-3.4330387 -8.231142 -0.31673545 8
-12.975867 -28.185635 -1.1931013 12
-8.2738762 -16.372391 -0.75987244 10
-8.7843256 -15.919346 -0.80624926 9
-9.5277567 -15.875676 -0.87639678 14
-6.004776 -16.00938 -0.85839224 14
-3.4749367 -8.3315973 -0.48052225 9
-7.3100529 -15.878591 -0.9815942 13
-8.0270004 -15.883872 -1.0523443 15
-8.8262434 -15.995312 -1.1330566 10
-9.6928959 -16.150841 -1.2253444 9
-6.0938182 -16.246777 -1.1786821 6
-3.4742038 -8.3298407 -0.64029324 6
-7.4001055 -16.074198 -1.306951 5
-8.0407619 -15.911102 -1.3701806 6
-8.8402662 -16.020725 -1.4590381 14
-9.5448866 -15.904219 -1.5353992 18
-5.9316335 -15.814375 -1.4462188 8
-3.4693301 -8.3181553 -0.79896748 7
-7.249433 -15.746914 -1.5871116 12
-4.6285949 -9.1590881 -0.97060579 1
-5.0277934 -9.1115913 -1.0139699 1
-5.5071783 -9.1763659 -1.0755681 1
-3.4262059 -9.134634 -1.0081892 1
-3.4526777 -8.2782288 -0.95411879 7
-2.4210985 -5.2590089 -0.63252503 0
-4.2149043 -9.1554375 -1.2798948 9
-3.9632611 -8.6088295 -1.3712734 15
-3.6455412 -7.9186916 -1.417244 12
-3.6876876 -8.0102406 -1.5642745 5
-3.7033892 -8.0443468 -1.7544752 8
-3.5334141 -7.6751337 -1.8237423 7
-3.4108901 -7.4089923 -1.9052651 3
-3.3987441 -7.3826094 -2.0420613 2
-2.4442322 -5.3092585 -2.0197415 5
-1.7908924 -3.8901012 -2.0034475 1
-5.2165852 -11.227904 3.2498302 5
-3.7755938 -8.1263905 1.7187388 16
-3.4624913 -7.4524841 1.1380887 4
-9.0648232 -19.510649 1.837939 2
-9.1335955 -19.658672 1.085206 24
-3.6318414 -7.8169847 0.27901018 9
-28.557051 -56.02219 1.8508794 2
-2.587534 -4.6507907 0.14066651 0
-31.242771 -51.648968 1.4204316 11
-2.8874836 -7.6173706 0.16736872 11
-3.4090586 -8.0940094 0.15483481 17
-22.381529 -48.172829 0.77788353 6
-28.621948 -56.149502 0.73921406 0
-16.655989 -29.937199 0.29956901 17
-31.486902 -52.052551 0.35463533 0
-2.8412933 -7.4955177 0.022804581 0
-3.432878 -8.1505632 -0.00077178457 14
-1.6179861 -3.4824681 -0.011661573 0
-29.871372 -58.600578 -0.39376429 5
-21.418421 -38.497116 -0.39291403 22
-7.3408208 -12.135472 -0.16883023 0
-3.0961719 -8.1679039 -0.12944396 2
-3.4432018 -8.1750746 -0.15777938 9
-3.9042568 -8.4033175 -0.19199196 7
-15.534697 -30.475405 -0.81089711 8
-17.574146 -31.587481 -0.96233076 16
-19.54143 -32.304901 -1.1179175 7
-3.0920427 -8.157011 -0.28359291 3
-3.4617481 -8.2191086 -0.31673545 6
-13.080912 -28.154667 -1.193716 14
-8.347312 -16.375454 -0.76136237 12
-8.8922977 -15.98287 -0.81103355 10
-9.6637669 -15.97565 -0.88377255 7
-6.0492949 -15.958437 -0.85678774 11
-6.6529417 -15.795849 -0.91235441 17
-7.4680839 -16.073912 -0.99527419 5
-8.1984568 -16.083435 -1.0674553 5
-8.8315582 -15.873698 -1.1266187 11
-9.6479836 -15.949557 -1.212621 14
-6.0146966 -15.867164 -1.1526579 15
-6.6580472 -15.807971 -1.2168968 10
-7.3788519 -15.881854 -1.2933983 10
-8.0799522 -15.850958 -1.3674219 8
-8.8728733 -15.947957 -1.4552228 13
-9.5838394 -15.843517 -1.5327594 21
-5.9995146 -15.827113 -1.4492902 12
-3.5416472 -8.4088097 -0.80885744 11
-7.2741446 -15.656487 -1.5805472 10
-4.6695809 -9.160615 -0.972489 1
-8.518424 -15.310875 -1.7071466 8
-5.5453558 -9.1673012 -1.076768 0
-5.8175135 -15.346981 -1.6960769 6
-3.4923592 -8.2917871 -0.95708054 3
-4.2673469 -9.1848125 -1.1064843 2
-4.1465182 -8.9247484 -1.2496611 6
-3.9832792 -8.5734015 -1.3678367 16
-3.7031047 -7.9703684 -1.4287976 7
-4.1354804 -8.9009905 -1.7410327 5
-3.7446728 -8.0598373 -1.760694 9
-3.5684211 -7.6804824 -1.8279619 6
-3.4400144 -7.4041061 -1.9070848 3
-3.41959 -7.3601456 -2.0391371 2
-2.4595644 -5.2938371 -2.0171287 5
-1.8166735 -3.9101126 -2.0170071 1
-5.2560596 -11.205206 3.2488146 12
-3.8220363 -8.1480627 1.7262738 16
-3.811166 -8.1248884 1.2428982 6
-9.1108847 -19.42317 1.8328317 12
-3.7120945 -7.9136815 0.43760243 7
-3.7097046 -7.9085865 0.28276309 7
-23.701786 -46.079113 1.5252367 0
-17.104794 -30.480387 0.92379117 14
-31.627598 -51.855026 1.4292769 5
-3.5937252 -8.4457893 0.16181506 4
-22.580023 -48.137547 0.77864498 6
-29.389212 -57.136147 0.75361645 5
-16.68339 -29.729452 0.29810002 17
-32.673058 -53.569103 0.36578107 11
-2.8587263 -7.4589081 0.022724925 0
-27.325073 -58.253349 -0.19540423 6
-30.05485 -58.430229 -0.39335722 3
-21.500652 -38.313713 -0.39184383 24
-31.852797 -52.224247 -0.72816962 0
-3.488801 -8.1992016 -0.15849073 3
-15.069282 -32.125664 -0.73523724 5
-15.004269 -29.170095 -0.77762324 1
-17.726982 -31.589111 -0.96435338 14
-3.1219189 -8.1456232 -0.28359291 10
-12.095479 -28.426174 -1.0971454 11
-13.226453 -28.197002 -1.1975584 14
-8.405447 -16.341196 -0.76119679 12
-8.9508181 -15.950171 -0.81103355 8
-9.7638655 -16.008345 -0.887555 14
-3.1239285 -8.1508665 -0.43822128 1
-7.4251866 -15.829491 -0.98181844 13
-8.178813 -15.900593 -1.0573026 15
-8.9775991 -15.997894 -1.1377612 9
-9.7188473 -15.934535 -1.2141789 21
-6.0728126 -15.845013 -1.1526579 16
-3.5946457 -8.4479523 -0.65133274 8
-7.4691997 -15.92332 -1.2989962 6
-8.3514318 -16.236185 -1.4032856 18
-9.024929 -16.082235 -1.470484 10
-9.6522226 -15.8253 -1.5344093 20
-6.0845842 -15.875726 -1.4557739 12
-3.5740032 -8.3994398 -0.80921066 5
-7.3179474 -15.600871 -1.5776298 12
-4.7377334 -9.210721 -0.97964519 10
-5.1396251 -9.1587048 -1.0232794 0
-5.6017151 -9.1842918 -1.0811679 0
-3.5114191 -9.1618967 -1.0139456 0
-3.9011624 -9.1683121 -1.0598969 0
-4.3077369 -9.1835108 -1.108222 1
-4.2027936 -8.9597855 -1.2567155 14
-4.0482998 -8.6304255 -1.3792926 11
-3.6819923 -7.8495078 -1.4095416 14
-3.6295047 -7.7376113 -1.5160677 10
-3.7491941 -7.9927731 -1.7490338 9
-3.6048503 -7.6850519 -1.8321816 6
-3.4753997 -7.4090805 -1.9116342 2
-3.4580758 -7.372148 -2.0459602 1
-2.4869785 -5.3019009 -2.0236609 7
-1.8309927 -3.9034278 -2.0170071 3
-5.2852073 -11.165811 3.2427213 17
-3.7832255 -7.9926438 1.6961337 2
-3.6293042 -7.6674609 1.1748543 9
-3.6165452 -7.6405058 0.7221691 0
-3.7345665 -7.8898439 0.43700242 36
-3.7218924 -7.8630681 0.28159839 8
-4.3195524 -8.3261452 0.27609608 0
-17.28591 -30.55274 0.92780721 11
-31.921503 -51.928272 1.4343584 3
-2.8740389 -7.4212375 0.163507 6
-9.2521381 -19.54656 0.31669423 8
-30.227623 -58.265198 0.76989537 6
-16.865849 -29.810282 0.29949906 13
-32.94783 -53.597847 0.3667604 8
-1.8547888 -4.7893672 0.014611319 0
-21.336691 -49.662502 -0.0047169267 8
-3.9394503 -8.3226929 -0.027963482 1
-30.253105 -58.314316 -0.39328536 0
-21.665775 -38.294125 -0.3924146 22
-32.064224 -52.160446 -0.72883618 15
-3.1097648 -8.0299206 -0.12760662 0
-3.5095067 -8.1685991 -0.15813506 1
-15.905221 -30.658079 -0.81876528 23
-17.82139 -31.499197 -0.96350175 11
-18.942938 -30.815407 -1.0710367 7
-12.163072 -28.310322 -1.0943061 19
-13.323082 -28.147053 -1.1974046 20
-8.4808416 -16.347231 -0.76285231 11
-9.0339899 -15.967521 -0.81351435 11
-9.8196869 -15.974165 -0.887555 11
-3.1437054 -8.1175604 -0.43701792 7
