# .PCD v0.7 - Point Cloud Data file format
VERSION 0.7
FIELDS x y z intensity
SIZE 4 4 4 4
TYPE F F F F
COUNT 1 1 1 1
WIDTH 1350
HEIGHT 1
VIEWPOINT 0 0 0 1 0 0 0
POINTS 1350
DATA ascii
-7.2517133 -17.067402 -0.76814991 6
-7.528079 -16.070732 -0.78693467 7
-8.1564016 -15.884274 -0.84519142 17
-4.473515 -14.845079 -0.77836919 26
-5.4189768 -15.87272 -0.89279336 9
-6.0704417 -15.871974 -0.95423424 6
-6.8080611 -16.023237 -1.0294416 8
-7.4990091 -16.008675 -1.0964105 4
-8.15378 -15.879169 -1.1612079 14
-4.4815168 -14.871633 -1.0550668 20
-5.3898392 -15.787374 -1.183495 8
-6.0862899 -15.913411 -1.2583381 7
-3.5699468 -8.402113 -0.70164281 6
-7.6435661 -16.317272 -1.4367821 8
-8.2068968 -15.98261 -1.4872221 16
-4.4754682 -14.85156 -1.3281463 26
-5.6088467 -16.428867 -1.5389484 17
-6.1258311 -16.016798 -1.5699713 11
-3.5598958 -8.378458 -0.86100304 3
-4.2895517 -9.1572151 -0.98526531 1
-4.7213249 -9.1945963 -1.0387692 7
-2.7586651 -9.1544571 -0.98804188 6
-3.1241179 -9.1508512 -1.0285866 0
-3.5000038 -9.1512232 -1.0704269 1
-3.5055394 -9.1656971 -1.2461338 13
-3.1932228 -8.3491039 -1.2933732 8
-3.2199237 -8.4189167 -1.4653841 7
-3.0460334 -7.9642577 -1.5125746 9
-3.0794599 -8.0516558 -1.7078342 7
-2.9904268 -7.8188667 -1.8068635 5
-2.8580396 -7.472723 -1.8688704 2
-2.8284869 -7.3954539 -1.9894258 4
-2.1028018 -5.4980536 -2.0341122 2
-1.549255 -4.0507326 -2.028872 1
-6.0934091 -15.766852 4.4370337 7
-4.0586176 -10.501778 2.1595376 13
-2.9551697 -7.6465769 1.135345 7
-2.9768584 -7.7026973 0.70548528 3
-3.0473311 -7.885047 0.42320234 7
-2.9991086 -7.7602701 0.26930434 19
-3.3087966 -7.7125649 0.24702714 2
-3.7748151 -7.9856849 0.2334578 4
-26.09429 -50.384014 1.3351774 2
-2.2924552 -7.5123463 0.16137074 10
-2.5768003 -7.4624085 0.13918211 11
-2.896549 -7.4948945 0.11766946 6
-20.51129 -47.810326 0.61020225 13
-9.2374125 -19.541903 0.18901004 1
-30.769793 -59.411682 0.39003125 5
-2.2999346 -7.5368562 0.022417678 11
-3.0524294 -8.8398294 -0.00081611593 1
-23.131512 -59.853378 -0.19486976 3
-21.315037 -49.683804 -0.32365108 6
-3.943501 -8.3425426 -0.082300045 6
-32.421783 -62.601418 -0.83919954 4
-2.6463959 -8.6722059 -0.13436331 2
-12.000234 -34.752651 -0.65395212 6
-11.801197 -30.535898 -0.67831081 9
-12.429976 -28.973375 -0.74738282 18
-13.602253 -28.775795 -0.84736204 6
-14.610738 -28.211061 -0.94069391 18
-4.5169449 -14.80197 -0.503111 11
-10.210976 -29.570963 -1.1110586 11
-3.1439922 -8.1351604 -0.33535323 3
-7.2403398 -16.876707 -0.76070017 5
-7.5482683 -15.968489 -0.78321356 9
-8.2411985 -15.912473 -0.84821743 13
-2.5815587 -8.4597349 -0.44403747 7
-5.5369291 -16.034935 -0.9029991 8
-3.1543236 -8.1618929 -0.49135774 3
-3.6445067 -8.4950809 -0.54659569 1
-7.4917169 -15.848853 -1.087249 17
-8.2697372 -15.967575 -1.1697768 8
-2.5765376 -8.4432812 -0.59964234 7
-5.5048208 -15.941949 -1.196516 5
-6.1346121 -15.873466 -1.256865 9
-3.6102612 -8.4152565 -0.70378852 5
-7.6408377 -16.16432 -1.4256542 5
-8.2754688 -15.978643 -1.489532 19
-4.5226297 -14.8206 -1.3267813 27
-5.7532916 -16.66152 -1.5626137 8
-6.1687803 -15.961876 -1.5666891 15
-6.678967 -15.568187 -1.602234 13
-4.3265948 -9.1529846 -0.98642898 0
-4.7497306 -9.1709909 -1.0379692 10
-2.7952485 -9.1599941 -0.98968655 2
-3.1638312 -9.1624479 -1.0311253 0
-5.9242907 -15.329254 -1.7954848 6
-3.5360823 -9.149703 -1.2456299 11
-3.2480352 -8.4043741 -1.3036835 14
-3.2450221 -8.3965778 -1.4634585 17
-3.0993714 -8.0197029 -1.5251502 3
-3.1895854 -8.2531338 -1.7529205 11
-3.026159 -7.8302636 -1.8119272 5
-2.8939364 -7.4881339 -1.8752394 1
-2.8570821 -7.3927732 -1.9913752 3
-2.1124408 -5.4659948 -2.0249672 2
-1.5607733 -4.0385404 -2.0254819 1
-6.2722492 -16.062632 4.5264044 6
-4.1081114 -10.52048 2.1663191 13
-2.9789605 -7.6288333 1.1342475 7
-3.2559712 -8.3382311 0.76472974 2
-3.0268829 -7.7515574 0.41660231 19
-3.0407205 -7.7869945 0.27059847 11
-3.3531795 -7.7413259 0.24832171 2
-3.740696 -7.8425331 0.22965315 11
-23.922377 -45.798225 1.2158593 6
-2.317482 -7.5004773 0.16128857 9
-2.6133821 -7.4835749 0.13974617 10
-2.9139647 -7.4623852 0.11731803 13
-20.806826 -48.035728 0.61400223 5
-3.9519405 -8.2854166 0.080269806 0
-29.00284 -55.524525 0.36517483 1
-2.3474824 -7.5975728 0.022622509 2
-3.0555735 -8.7498169 -0.00080878555 11
-3.0364795 -7.7761335 -0.025351774 3
-21.472437 -49.572392 -0.32341161 14
-9.2917814 -19.480627 -0.19249719 8
-25.984671 -49.746387 -0.66808397 0
-2.7557569 -8.9189444 -0.13833433 10
-11.670526 -33.419243 -0.62962365 2
-3.1274848 -8.0091896 -0.17815395 2
-12.537395 -28.944487 -0.74776202 5
-13.874761 -29.089045 -0.85800731 7
-14.723927 -28.188244 -0.94164097 16
-2.6413043 -8.548521 -0.2908712 9
-10.307546 -29.51627 -1.1103487 11
-7.2753782 -16.79632 -0.75821692 16
-7.6022429 -15.938437 -0.78303635 8
-8.3188887 -15.926107 -0.85048687 14
-2.6004574 -8.4163208 -0.44223243 14
-5.5375581 -15.857127 -0.89406908 10
-3.1668155 -8.1099119 -0.48889086 7
-3.6662023 -8.4639874 -0.54541516 6
-7.5487142 -15.82621 -1.0874966 12
-8.3808622 -16.044752 -1.1775666 7
-2.6095271 -8.4456749 -0.60045558 12
-5.6169996 -16.084612 -1.2086879 4
-3.151581 -8.0708971 -0.6399228 0
-6.8702469 -15.861012 -1.3284928 7
-7.6594501 -16.058372 -1.4186594 4
-8.3902521 -16.062729 -1.5000913 17
-4.5766859 -14.812339 -1.3274637 18
-5.9572272 -17.058874 -1.6018203 6
-6.2273579 -15.947668 -1.5674186 14
-6.7617598 -15.610554 -1.6090136 14
-4.3619466 -9.1450129 -0.98720479 0
-4.77987 -9.1508293 -1.0375693 4
-2.8213313 -9.1311741 -0.98763072 1
-5.3516779 -15.324847 -1.7267222 6
-3.1689525 -8.1153841 -0.95182848 3
-3.2057142 -8.209528 -1.1191521 13
-3.241353 -8.3007946 -1.2893636 16
-3.2814925 -8.4035883 -1.4666678 11
-3.0729079 -7.8694234 -1.4986016 14
-3.195539 -8.1834698 -1.7404829 12
-3.0620062 -7.8415055 -1.8169909 6
-2.9073057 -7.4453316 -1.8670506 1
-2.8885145 -7.3972096 -1.9952742 3
-2.1383839 -5.4761963 -2.0314994 1
-1.573543 -4.0296931 -2.023787 2
-6.3127089 -16.009352 4.5172639 6
-4.1458583 -10.514108 2.1678262 13
-2.9940689 -7.593111 1.1304063 3
-3.6096258 -9.1541948 0.84065795 3
-3.1302414 -7.9384518 0.42720237 9
-3.0621274 -7.7657108 0.27021024 8
-3.3788326 -7.7301636 0.24832171 5
-3.9365556 -8.1832132 0.24001028 5
-24.118835 -45.803562 1.2181177 14
-2.5881507 -8.2790518 0.17821442 17
-2.6621418 -7.5427527 0.14101531 18
-2.9504325 -7.4824471 0.11778659 12
-25.403339 -58.11829 0.74395227 8
-3.9828625 -8.2794743 0.08033976 8
-26.258995 -49.867893 0.3285431 6
-2.3332789 -7.4637599 0.022246985 13
-3.0978832 -8.7773561 -0.00081227621 11
-2.9522026 -7.4869361 -0.024440713 10
-22.93754 -52.476982 -0.34285557 9
-9.3389921 -19.413662 -0.19214046 21
-26.147629 -49.656403 -0.66803634 23
-2.3401923 -7.4858751 -0.11622693 1
-12.090084 -34.255318 -0.64612716 21
-3.15256 -7.9950528 -0.17807108 13
-12.646123 -28.932064 -0.74852043 24
-9.3551226 -19.447195 -0.57452422 15
-14.817324 -28.139261 -0.94164097 16
-2.6708307 -8.5435305 -0.29100117 2
-10.384076 -29.421618 -1.1080772 12
-3.1567731 -8.0057373 -0.3308962 8
-7.3390412 -16.790411 -0.75904465 6
-7.7052927 -16.017569 -0.78817511 10
-8.360487 -15.877222 -0.84935212 13
-2.6438487 -8.4572191 -0.44483972 3
-5.5994148 -15.865046 -0.8955574 11
-3.1746471 -8.0510664 -0.48597547 7
-3.7070444 -8.4810534 -0.54730403 6
-7.6167307 -15.833468 -1.0897251 15
-8.4303036 -16.009808 -1.1770474 8
-2.6410923 -8.4484024 -0.60126883 5
-5.5893002 -15.836387 -1.1914209 11
-3.1754014 -8.0529795 -0.63933355 7
-6.9020419 -15.790635 -1.3245078 14
-7.8353853 -16.288002 -1.4412334 16
-8.4824762 -16.108889 -1.507021 18
-2.6541753 -8.4902525 -0.76167071 7
-5.7366104 -16.253767 -1.5279988 6
-3.1897848 -8.0894566 -0.7961086 6
-6.8836665 -15.748596 -1.6255858 11
-4.3870711 -9.1197338 -0.98604113 1
-8.0534515 -15.294137 -1.7371485 6
-2.8705909 -9.1825294 -0.99420941 1
-3.2261224 -9.1407022 -1.0311253 1
-3.1841779 -8.0752373 -0.94835311 9
-3.2256429 -8.1803951 -1.1166326 14
-3.2601488 -8.2679033 -1.2859268 13
-3.2948594 -8.3559313 -1.4602492 11
-3.3373713 -8.4637442 -1.6138786 5
-3.2456887 -8.2312317 -1.7529205 11
-3.0779533 -7.8058467 -1.8110833 7
-2.937695 -7.4501443 -1.8706901 1
-2.9144521 -7.3911991 -1.996249 3
-2.1579189 -5.4725924 -2.0328057 2
-1.5842392 -4.0177116 -2.0203972 2
-6.3485084 -15.936896 4.503046 8
-4.2188792 -10.590809 2.1866636 21
-3.4619088 -8.6905584 1.2955773 7
-3.3052781 -8.2973623 0.76302731 12
-3.1875021 -8.0017052 0.43120238 16
-3.2297697 -8.107811 0.28250426 6
-4.0139837 -8.2701464 0.24296944 0
-24.301079 -45.761475 1.2192469 20
-2.6025558 -8.2242136 0.17722845 20
-2.9129407 -8.1624537 0.15279008 5
-3.1556284 -7.9216914 0.12487371 0
-25.667416 -58.168316 0.74573499 7
-9.4171953 -19.402565 0.18859032 24
-26.442287 -49.793594 0.32865968 10
-2.3677659 -7.482265 0.022326641 13
-3.1217813 -8.747653 -0.00081053091 11
-2.9931221 -7.5137453 -0.024562189 4
-26.006212 -58.936108 -0.38564667 7
-9.4101944 -19.388142 -0.19221181 23
-2.7886484 -8.8122759 -0.13697115 9
-11.470262 -32.14122 -0.60700244 1
-9.3845387 -19.335281 -0.5721823 28
-14.984841 -28.218023 -0.94602126 14
-4.7004838 -14.853776 -0.50649017 4
-10.474623 -29.351305 -1.1067995 11
-3.1861784 -7.9983826 -0.33104989 9
-3.7706013 -8.5450563 -0.38688928 0
-7.7960553 -16.062475 -0.79171902 10
-8.438345 -15.890286 -0.85162163 14
-4.6994624 -14.850549 -0.78197926 9
-5.7071195 -15.992119 -0.9038496 6
-3.1923859 -8.0139647 -0.48440564 9
-6.9638586 -15.781718 -1.0199971 19
-7.7329664 -15.932491 -1.0983914 9
-8.4486952 -15.909777 -1.171854 9
-4.6969705 -14.842674 -1.0575067 27
-5.6633205 -15.869389 -1.1953838 9
-3.1843009 -7.993669 -0.63550347 9
-7.0698247 -16.021862 -1.3459649 6
-7.780766 -16.030975 -1.4208851 4
-8.4956532 -15.998204 -1.4994314 23
-2.6825933 -8.4771366 -0.76132947 8
-5.7156396 -16.015993 -1.5075125 7
-3.1796763 -7.9820595 -0.78662676 9
-6.9353824 -15.717184 -1.6248325 12
-7.4748926 -15.400774 -1.6679689 6
-4.871913 -9.1743221 -1.043969 0
-2.8918226 -9.1383123 -0.99050891 1
-5.4812651 -15.359244 -1.7347615 6
-3.2152898 -8.0714617 -0.94922191 11
-3.2629893 -8.1912031 -1.119656 13
-3.2948499 -8.271184 -1.288218 15
-3.309396 -8.3077002 -1.4538305 14
-3.2196848 -8.0824947 -1.5433151 11
-3.2671411 -8.2016258 -1.7490338 16
-3.1095231 -7.8059516 -1.8136151 4
-2.9737735 -7.4651742 -1.8770592 1
-2.9445417 -7.3917923 -1.999173 3
-2.1770089 -5.4650264 -2.0328057 3
-1.5955727 -4.0054255 -2.0170071 1
-4.262176 -10.591815 2.9969528 1
-4.2440882 -10.546865 2.1806357 18
-3.4153068 -8.4872828 1.2670428 11
-3.4071229 -8.4669456 0.77971107 13
-3.2198861 -8.0016489 0.43180239 12
-3.2431252 -8.0593996 0.28121015 13
-16.233009 -36.44281 1.174291 10
-3.8265302 -7.8143706 0.22997022 1
-24.432354 -45.623489 1.2178354 20
-2.4372895 -7.6095157 0.16416432 11
-2.9156258 -8.0807581 0.15145044 11
-18.255964 -45.367382 0.71614951 7
-3.8587379 -8.662796 0.11123161 0
-9.5006971 -19.401903 0.1889051 13
-31.246113 -58.347088 0.3858341 9
-2.3950901 -7.4777637 0.02233802 10
-3.1400793 -8.7028389 -0.00080738927 13
-2.9819989 -7.4104819 -0.024258502 5
-3.8670721 -8.6815062 -0.056895155 0
-9.4901285 -19.38032 -0.19246152 23
-33.580162 -62.705547 -0.84672213 4
-12.276 -34.023361 -0.64335287 19
-13.187013 -32.770676 -0.73192275 4
-12.935664 -29.040329 -0.75363946 16
-9.4660425 -19.331133 -0.57303393 31
-15.143652 -28.278334 -0.94980961 2
-9.5741205 -29.891573 -1.0203886 8
-10.548523 -29.235598 -1.1038181 13
-11.550683 -28.704279 -1.1897202 17
-3.7906494 -8.5099382 -0.385896 4
-7.8345027 -15.999275 -0.78994703 9
-8.5409174 -15.94879 -0.85634971 14
-5.1814342 -16.177071 -0.85277659 7
-5.7263055 -15.870654 -0.89810884 12
-6.3765683 -15.846231 -0.95916802 3
-7.0757723 -15.884978 -1.0282609 15
-7.7463965 -15.819348 -1.0924488 14
-8.5324459 -15.932969 -1.1757491 10
-5.1455979 -16.065186 -1.1458807 7
-5.7308683 -15.883302 -1.1979314 7
-3.2255857 -8.0158129 -0.63815504 3
-7.0478148 -15.822215 -1.3312515 18
-7.8384309 -16.007298 -1.421203 21
-8.5627384 -15.989535 -1.5014112 21
-2.7182467 -8.4866982 -0.76303571 6
-5.7701592 -15.992196 -1.5071592 8
-3.2149529 -7.9893889 -0.78845018 8
-6.9043255 -15.500084 -1.6048706 14
-4.4856491 -9.1603937 -0.99379909 1
-4.9076662 -9.1642771 -1.044769 1
-2.9334135 -9.1584759 -0.99379826 1
-3.3006577 -9.1478882 -1.0345101 1
-3.2538342 -8.0860119 -0.95226294 7
-3.6722674 -9.1258488 -1.2491572 9
-3.351779 -8.3294115 -1.2991011 7
-3.3457429 -8.3144121 -1.4570398 11
-3.309629 -8.2246656 -1.5726583 12
-3.2693825 -8.124651 -1.7350415 8
-3.1382101 -7.7986779 -1.814459 5
-2.9925418 -7.4366817 -1.8725098 1
-2.9790139 -7.4030638 -2.0050216 3
-2.1861916 -5.4328432 -2.0236609 4
-1.6176589 -4.0199986 -2.0271771 1
-4.2874684 -10.548199 2.9888282 1
-4.2971492 -10.572016 2.1889243 17
-3.074909 -7.5650125 1.1309551 7
-3.5327039 -8.6912975 0.80150211 4
-3.2357631 -7.960752 0.43020236 6
-3.2336035 -7.9554386 0.27797487 9
-3.9055731 -8.6862364 0.28033286 1
-2.9434695 -5.9582748 0.1756482 0
-24.581961 -45.520336 1.2173649 13
-2.4564381 -7.578136 0.16367133 17
-2.9561498 -8.1043463 0.15208501 0
-3.4051311 -8.3774376 0.13242939 0
-3.9037154 -8.6821051 0.11165383 6
-31.476202 -58.286938 0.38616055 6
-2.4137774 -7.446527 0.022269743 8
-3.1594734 -8.6617622 -0.00080459676 12
-3.8907917 -8.6533613 -0.056799375 6
-9.5772085 -19.386522 -0.19285394 4
-32.495083 -60.173683 -0.81406069 0
-11.72476 -36.171001 -0.56347239 0
-12.470066 -34.186947 -0.64726537 9
-13.165797 -32.391014 -0.72446513 3
-3.8864889 -8.6437922 -0.22466987 2
-9.5440893 -19.319481 -0.57367259 19
-16.781124 -31.074917 -1.0457022 20
-10.720372 -29.390125 -1.1110586 5
-11.631245 -28.615646 -1.1877222 15
-3.8268871 -8.5112343 -0.3865582 6
-7.913312 -16.018406 -0.79225063 8
-8.5832481 -15.894271 -0.85502583 19
-5.2181611 -16.09808 -0.84956765 9
-5.763876 -15.801786 -0.89534479 12
-3.3941247 -8.350359 -0.50615901 0
-7.1115289 -15.81648 -1.0254277 11
-7.8139477 -15.817267 -1.0941821 15
-8.5842171 -15.896065 -1.1752297 13
-5.2361016 -16.153425 -1.1534711 11
-5.7726049 -15.825717 -1.1951008 14
-6.4830599 -15.94988 -1.2715962 12
-7.1095443 -15.812067 -1.3324776 15
-7.811255 -15.811818 -1.4062597 9
-8.6298647 -15.980595 -1.5033911 19
-5.1442389 -15.870028 -1.4284738 5
-5.8955803 -16.162857 -1.5251732 7
-3.2533212 -8.0039492 -0.79100299 5
-6.9583893 -15.475888 -1.6048706 16
-4.5334673 -9.1768045 -0.99729019 0
-8.26612 -15.307018 -1.7483482 7
-2.8279543 -8.724268 -0.94774723 1
-5.5951743 -15.339287 -1.736877 6
-6.2346787 -15.338802 -1.808952 4
-3.6906528 -9.0798893 -1.2446221 6
-3.3763618 -8.3066587 -1.2973828 12
-3.3658254 -8.2807369 -1.4531887 12
-3.3546319 -8.2531977 -1.5803435 16
-3.2962458 -8.1095543 -1.7342641 10
-3.1742475 -7.8094091 -1.8195226 4
-3.0184827 -7.4261904 -1.8725098 2
-2.9960728 -7.3710561 -1.999173 3
-2.2037189 -5.4216757 -2.0223544 3
-1.6221317 -3.9908326 -2.0153122 1
-4.3242626 -10.533168 2.9888282 4
-4.3385024 -10.567854 2.1911848 25
-3.0636783 -7.4625988 1.1172365 4
-3.6099429 -8.7932062 0.81205714 1
-3.2938762 -8.0233221 0.4342024 7
-3.2735 -7.9736891 0.27901018 9
-3.8383801 -8.4577398 0.27338925 13
-24.754095 -45.458836 1.2180237 7
-2.4841223 -7.5733151 0.16375349 10
-1.4887518 -4.0376081 0.075866237 0
-3.4571378 -8.4209995 0.13330795 6
-3.9488723 -8.7012053 0.11207605 0
-23.933683 -48.024521 0.46920237 4
-31.679472 -58.176712 0.38616055 0
-3.0070264 -8.1552849 -0.00075852009 8
-3.4468589 -8.3959618 -0.027562615 6
-3.9275839 -8.6542978 -0.056895155 0
-29.321617 -58.835766 -0.58630306 5
-32.442883 -59.578655 -0.80753791 1
-11.402192 -34.76173 -0.54213548 0
-15.071494 -40.875038 -0.77488315 1
-3.4309475 -8.3572044 -0.18718594 6
-3.9116778 -8.6192484 -0.22438549 5
-9.6239538 -19.3111 -0.57441777 3
-16.939209 -31.107447 -1.0487802 7
-9.7713547 -29.789816 -1.0192189 15
-10.806304 -29.30752 -1.109355 4
-3.4018257 -8.2862682 -0.34442097 7
-3.8796947 -8.5487747 -0.38887587 8
-8.0297813 -16.112288 -0.79827535 9
-8.6405897 -15.867723 -0.85521495 16
-5.2419496 -15.981071 -0.84435308 11
-5.8342004 -15.822796 -0.89768362 13
-3.4141521 -8.3162937 -0.50481343 11
-7.1930947 -15.849739 -1.0292054 11
-7.9171934 -15.886373 -1.1008675 9
-8.7942734 -16.149952 -1.1962622 5
-5.3645973 -16.354986 -1.1691941 7
-5.8567991 -15.884085 -1.2010452 8
-3.4253922 -8.3436728 -0.66614431 7
-7.1993041 -15.863421 -1.3389148 9
-7.9304285 -15.91293 -1.4177057 17
-8.721818 -16.016891 -1.5096607 21
-5.210784 -15.886057 -1.4315451 16
-5.9657483 -16.179564 -1.5287052 7
-3.412853 -8.3131294 -0.82273066 10
-7.0864215 -15.614689 -1.6218194 15
-7.6535158 -15.357285 -1.6718478 4
-4.9886556 -9.1612501 -1.0483689 1
-2.775305 -8.4610405 -0.9201988 8
-3.3658178 -9.1283541 -1.0349333 0
-3.415915 -8.3205872 -0.98267275 13
-3.3968103 -8.2740526 -1.1357807 19
-3.3948128 -8.269187 -1.2933732 24
-3.3197391 -8.0863199 -1.4210953 13
-3.3654716 -8.1977158 -1.5719597 15
-3.3215532 -8.0907383 -1.7327094 6
-3.2014885 -7.7982812 -1.8195226 5
-3.066576 -7.4696579 -1.8861579 2
-3.037991 -7.4000292 -2.0098951 4
-2.2197592 -5.4069557 -2.0197415 4
-1.6374285 -3.9884973 -2.0170071 1
-4.3654494 -10.528731 2.9918749 4
-4.3949242 -10.599819 2.2009802 20
-3.2004895 -7.7190433 1.1572946 6
-3.2849491 -7.9227452 0.73272413 11
-3.3539953 -8.0892735 0.43840241 3
-3.241596 -7.8181849 0.27396315 7
-3.8062735 -8.3097916 0.2690348 20
-3.8776171 -7.7131391 0.22817357 2
-16.884924 -30.751686 0.8255347 9
-2.5168417 -7.5835757 0.16416432 8
-2.8087401 -7.536366 0.1417909 11
-3.4221735 -8.2537079 0.13084796 0
-23.723755 -51.793301 0.6681872 7
-24.077808 -47.89423 0.46874768 1
-16.658295 -30.338938 0.20176603 1
-15.533815 -46.805435 0.14029825 2
-2.8021922 -7.5187964 -0.00070022605 18
-3.4746134 -8.3801842 -0.027550466 12
-26.801561 -58.512714 -0.38528749 6
-29.499851 -58.679455 -0.58576798 1
-32.564026 -59.307266 -0.80539542 2
-15.969326 -48.117687 -0.75129652 7
-3.0461686 -8.1734304 -0.15514734 0
-3.3957675 -8.1900206 -0.18370573 9
-3.891782 -8.4964724 -0.22154157 5
-14.445354 -28.733889 -0.8561976 20
-3.3521931 -6.1051855 -0.20622814 0
-9.8790598 -29.766911 -1.0196089 16
-10.86666 -29.157246 -1.1050959 18
-3.426137 -8.2632666 -0.3439599 10
-7.5743675 -16.53623 -0.753416 6
-8.0644321 -16.041317 -0.79614896 8
-8.7247705 -15.889998 -0.85805184 16
-5.3002191 -15.97026 -0.84475422 12
-5.9019508 -15.836019 -0.89959717 9
-3.4431608 -8.3043251 -0.50481343 10
-7.2616796 -15.853577 -1.0310943 11
-7.9528699 -15.819404 -1.0981438 9
-8.7506962 -15.937215 -1.1827599 14
-5.2733231 -15.889218 -1.137206 9
-5.9442577 -15.949536 -1.2075557 13
-3.4499125 -8.32061 -0.66526043 11
-7.3493032 -16.044874 -1.3563868 11
-7.9769683 -15.867339 -1.4161159 7
-8.7949419 -16.017797 -1.5126306 29
-5.3063765 -15.988812 -1.4424652 7
-6.0068831 -16.117571 -1.52482 9
-3.4433763 -8.3048449 -0.82309532 10
-7.1541505 -15.61882 -1.6248325 12
-4.58848 -9.1271477 -0.99535072 1
-5.028266 -9.1577349 -1.0499688 0
-2.813596 -8.4777365 -0.92307699 5
-3.4171083 -9.1687298 -1.0408568 0
-3.4434156 -8.3049402 -0.98223835 16
-3.4332705 -8.2804718 -1.1383001 17
-3.4236572 -8.2572861 -1.2933732 16
-3.3313115 -8.034564 -1.4140347 13
-3.4212191 -8.2514057 -1.5845354 16
-3.3016849 -7.9631095 -1.7078342 6
-3.1972418 -7.7112098 -1.8018 7
-3.0792048 -7.4265246 -1.877969 3
-3.069747 -7.4037142 -2.0137939 3
-2.2473075 -5.4201283 -2.02758 5
-1.6555041 -3.9927979 -2.0220921 1
-4.3872323 -10.477741 2.9817193 5
-4.43645 -10.595285 2.2032409 12
-3.3008695 -7.8832517 1.1836342 7
-15.202178 -36.306374 3.3626318 11
-3.3436372 -7.9853911 0.43340239 12
-3.225632 -7.703567 0.27033964 15
-3.6255426 -7.8427992 0.25432381 11
-3.103359 -6.1197033 0.18135518 0
-16.895323 -30.517633 0.82082975 10
-2.5292959 -7.5330415 0.16326052 2
-2.8632252 -7.6013689 0.14320104 17
-3.4061663 -8.1347256 0.12914939 10
-23.825521 -51.539536 0.66598225 8
-24.27198 -47.8634 0.46927232 2
-16.68079 -30.130129 0.20076337 15
-2.9677954 -8.8390303 0.026525687 1
-2.8270109 -7.5052261 -0.00069987704 13
-3.4173303 -8.1613874 -0.026870208 19
-26.9704 -58.342556 -0.38478464 16
-29.753345 -58.67244 -0.5867312 3
-21.329338 -38.526695 -0.52420211 11
-18.771135 -55.906361 -0.87392455 6
-3.0746808 -8.1627474 -0.15514734 4
-3.4227908 -8.1744289 -0.18362287 9
-3.8928914 -8.4211302 -0.21993001 10
-14.626947 -28.843769 -0.86098796 10
-17.578138 -31.750988 -1.0745883 19
-10.022354 -29.849731 -1.0236379 11
-11.027554 -29.276253 -1.1110586 3
-3.4534163 -8.24757 -0.34380621 8
-7.5146537 -16.255751 -0.74182755 22
-8.1258001 -16.023762 -0.79668057 10
-8.8285656 -15.946836 -0.86277992 8
-5.3839087 -16.034979 -0.84916651 9
-5.9529696 -15.804108 -0.89895934 15
-3.4813824 -8.3143587 -0.50615901 1
-7.315299 -15.824507 -1.0308583 15
-8.0676279 -15.909048 -1.1063149 7
-8.8584738 -16.00086 -1.1897707 12
-5.3173227 -15.836664 -1.1347661 14
-5.9773936 -15.868948 -1.2030265 13
-3.4804769 -8.3121967 -0.66555506 2
-7.5625749 -16.359415 -1.3852005 8
-8.3893785 -16.543528 -1.4790685 3
-8.8160467 -15.924223 -1.506691 20
-5.3329792 -15.883294 -1.4346164 9
-6.119287 -16.245651 -1.5389484 5
-3.4877298 -8.3295183 -0.82674217 5
-7.1835628 -15.539533 -1.6191829 14
-7.7839465 -15.34964 -1.6768905 3
-8.4722242 -15.303185 -1.7579479 7
-3.0610008 -9.1166258 -0.99379826 0
-5.7751269 -15.331964 -1.7428006 7
-3.467777 -8.2818661 -0.9809351 8
-3.4698174 -8.2867393 -1.1408195 4
-3.5396125 -8.4534264 -1.3260226 8
-3.4096584 -8.1430655 -1.4352163 13
-3.4484799 -8.2357807 -1.5838367 5
-3.3052144 -7.8936281 -1.6953968 7
-3.2180989 -7.685576 -1.7984242 12
-3.1081183 -7.4229164 -1.8797888 3
-3.1000671 -7.4036884 -2.0167181 3
-2.2632933 -5.4052763 -2.0249672 5
-1.6666328 -3.9803107 -2.0187023 1
-4.4056993 -10.419601 2.9695325 2
-4.4443398 -10.510987 2.1889243 15
-3.1401148 -7.4264584 1.1166878 9
-3.5621343 -8.4245462 0.7814135 0
-3.4648416 -8.1944466 0.44540247 14
-3.3178959 -7.8469157 0.2757749 19
-3.7526295 -8.0438747 0.26126739 9
-28.650387 -56.011879 1.6628453 2
-17.06411 -30.570211 0.82384092 9
-2.5401406 -7.4787264 0.16227454 9
-2.8940103 -7.6025414 0.14341256 13
-3.4345412 -8.1227856 0.12914939 11
-22.481705 -48.190212 0.62371331 3
-29.835978 -58.329723 0.57290608 4
-16.692274 -29.904074 0.19964413 18
-3.0166392 -8.8816423 0.026685001 2
-3.4535868 -8.1678286 -0.026930947 8
-27.200947 -58.306049 -0.38516775 5
-30.400593 -59.433556 -0.59539998 0
-21.414946 -38.3647 -0.52301186 28
-11.779728 -34.682083 -0.54278743 0
-3.0988877 -8.1407518 -0.15493394 3
-3.4575341 -8.1771641 -0.18395431 2
-3.9155009 -8.3929939 -0.21955082 4
-14.900528 -29.130726 -0.87110096 5
-17.776548 -31.846542 -1.0799156 6
-10.105911 -29.754 -1.0215583 8
-3.1031134 -8.1518536 -0.30977893 4
-12.056112 -28.513042 -1.1903349 18
-7.5933175 -16.276505 -0.74397963 6
-8.225359 -16.080683 -0.8009333 8
-8.9464912 -16.027565 -0.86883181 15
-5.4282823 -15.982044 -0.84736151 9
-6.1459403 -16.145334 -0.9195835 9
-6.664597 -15.761957 -0.96096212 11
-7.4278908 -15.921907 -1.038886 8
-8.1103859 -15.855909 -1.1045816 16
-8.9395609 -16.01515 -1.1931463 8
-5.3738508 -15.821786 -1.1350372 14
-6.0228138 -15.821882 -1.2010452 9
-3.5716128 -8.4469633 -0.67734003 1
-7.4409051 -15.949804 -1.3527085 8
-8.116601 -15.868061 -1.421203 16
-8.9026632 -15.949047 -1.5119706 20
-5.4165845 -15.947603 -1.4421239 6
-6.0498023 -15.89278 -1.5075125 16
-3.5369511 -8.3649874 -0.83148307 8
-4.3083124 -9.2349968 -0.96382624 0
-4.6792822 -9.1480579 -1.0011692 0
-5.1095328 -9.1536856 -1.0535687 1
-3.1055994 -9.1435604 -0.99790996 2
-3.481035 -9.1446505 -1.0408568 0
-3.5059566 -8.2916851 -0.98354161 3
-3.8433402 -9.0896063 -1.2531883 15
-3.6107256 -8.5394669 -1.341488 13
-3.4119234 -8.069294 -1.4243046 13
-3.8330576 -9.0652876 -1.7459233 7
-3.3617816 -7.9507074 -1.7101663 6
-3.2586114 -7.706707 -1.8060197 8
-3.1400783 -7.4263725 -1.8834282 4
-3.1168272 -7.3713832 -2.01087 3
-2.2836201 -5.400825 -2.0262737 6
-1.6875716 -3.991154 -2.0271771 2
-4.4314098 -10.379252 2.9624233 0
-4.485631 -10.506248 2.1911848 10
-3.1846881 -7.4591794 1.1232727 7
-3.2660143 -7.6496615 0.71059257 4
-3.5044053 -8.2080212 0.44680247 6
-3.276195 -7.6735067 0.2700808 12
-3.7176738 -7.8968811 0.25691295 5
-26.005892 -50.407078 1.4991394 0
-17.207981 -30.576674 0.82562882 6
-2.555836 -7.4395566 0.16161723 15
-3.1432006 -6.6766157 0.086555175 0
-3.5614486 -6.9031363 0.067923293 0
-16.802444 -29.856081 0.19971409 17
-3.0307286 -8.8218794 0.026537068 4
-2.8735938 -7.4703732 -0.00069848076 0
-3.9270709 -8.34167 -0.055195007 2
-30.162231 -58.463291 -0.5867312 1
-21.548735 -38.289711 -0.52301186 32
-19.079096 -55.535652 -0.87019056 1
-13.031792 -33.878254 -0.64562923 8
-13.97363 -29.682026 -0.77771801 12
-14.851792 -28.787148 -0.86237186 4
-17.95624 -31.906246 -1.0840591 42
-10.178535 -29.6278 -1.0184391 10
-3.1272442 -8.1297789 -0.30935299 7
-12.136736 -28.426674 -1.1884906 18
-7.7947817 -16.557253 -0.7580514 17
-8.2851057 -16.058977 -0.80128771 11
-8.97299 -15.944008 -0.86599499 15
-5.4892292 -15.978111 -0.84816372 11
-3.1333964 -8.145772 -0.46457571 1
-6.7556438 -15.823074 -0.96612012 6
-7.4409046 -15.805566 -1.0329832 15
-8.1821585 -15.859434 -1.1068101 14
-9.0189028 -16.025591 -1.1962622 7
-5.4355297 -15.821803 -1.1363927 13
-6.1080885 -15.878966 -1.2069895 9
-3.5979443 -8.4271088 -0.67675078 7
-7.5542922 -16.046417 -1.3631305 6
-8.3181963 -16.123116 -1.4466383 12
-9.0012941 -15.994301 -1.5192302 23
-5.6936464 -16.573132 -1.5004777 5
-6.1538777 -15.998004 -1.5195217 6
-3.6161797 -8.4698191 -0.843153 0
-4.3116875 -9.1586523 -0.95742333 0
-4.7367415 -9.1812 -1.0065998 9
-5.1414542 -9.1357937 -1.0535687 0
-3.136205 -9.1289015 -0.99749881 0
-5.8977313 -15.332109 -1.7474548 7
-3.9252148 -9.1936417 -1.0921483 0
-3.8859525 -9.1016817 -1.2567155 5
-3.6311855 -8.5049658 -1.3380513 14
-3.3935618 -7.9484038 -1.4050485 12
-3.3218603 -7.7804642 -1.5006975 9
-3.4449794 -8.0688334 -1.7381508 13
-3.2947054 -7.7168617 -1.8110833 6
-3.1705706 -7.4261131 -1.8861579 3
-3.1577723 -7.3961372 -2.0206172 3
-2.3009741 -5.3893437 -2.0249672 4
-1.6829988 -3.9419215 -2.0051425 1
-6.550559 -15.195621 4.3436012 2
-3.3917079 -7.8678946 1.6433885 3
-3.5416584 -8.2157412 1.2390571 2
-3.2674532 -7.5796552 0.70514482 7
-3.4618683 -8.0306492 0.43780243 32
-3.3330307 -7.7317786 0.27253962 6
-3.7366383 -7.8657975 0.2563245 5
-26.244444 -50.436596 1.5027328 2
-4.6670904 -8.2255907 0.22254527 1
-2.5896649 -7.4532557 0.16211021 18
-2.8716722 -7.3883119 0.13974617 7
-20.798161 -48.24641 0.7693907 5
-9.281498 -19.537985 0.25370753 15
-30.781593 -59.156094 0.58311903 7
-17.007229 -29.974674 0.20090328 16
-3.051002 -8.7810192 0.026446031 9
-2.8909566 -7.4379277 -0.00069638633 1
-21.397259 -49.636166 -0.16414879 12
-3.957881 -8.3315239 -0.055218954 3
-21.725683 -38.290791 -0.5240593 24
-4.0653844 -11.700491 -0.18355675 0
-13.15141 -33.836288 -0.6457004 5
-4.2823529 -9.9339628 -0.22414252 0
-13.969055 -29.405512 -0.7717458 5
-14.776844 -28.398153 -0.85225886 2
-17.970823 -31.672976 -1.0782583 3
-10.271398 -29.561876 -1.0173993 12
-3.1556017 -8.1188135 -0.30935299 0
-12.278611 -28.483238 -1.1926403 11
-7.8954029 -16.620192 -0.7621901 13
-8.3706255 -16.086676 -0.80412287 8
-9.0680256 -15.982092 -0.86977744 12
-5.5777502 -16.053196 -0.85317767 7
-3.1589158 -8.1273394 -0.46415049 7
-3.6646976 -8.5011606 -0.51983899 3
-7.5440059 -15.880485 -1.0395943 19
-8.2835398 -15.919315 -1.1130003 12
-9.05509 -15.959293 -1.1936656 8
-5.4946551 -15.814043 -1.137206 15
-3.1569023 -8.122159 -0.61821413 1
-3.6241803 -8.4071712 -0.67616153 3
-7.5229812 -15.836226 -1.3474975 14
-8.3486586 -16.04446 -1.4421872 16
-9.0570698 -15.962784 -1.5192302 22
-5.8011689 -16.696213 -1.5134453 4
-6.2356625 -16.043272 -1.5258796 9
-6.7584643 -15.677908 -1.5630423 15
-4.3624272 -9.1831121 -0.96156639 0
-4.759573 -9.1469517 -1.0046602 10
-8.6968222 -15.327859 -1.7711475 7
-3.1811104 -9.1554813 -1.0016105 1
-3.5505533 -9.1349554 -1.0425493 1
-3.9572828 -9.179884 -1.0921483 1
-3.897279 -9.0406904 -1.250165 14
-3.6921945 -8.5649462 -1.3495072 16
-3.4369156 -7.972765 -1.4114672 13
-3.4503422 -8.003911 -1.5461097 10
-3.4808905 -8.0747757 -1.7420377 11
-3.3262653 -7.716085 -1.8136151 4
-3.2088091 -7.4436164 -1.8934368 3
-3.1804991 -7.377944 -2.0186677 3
-2.3152828 -5.3708634 -2.0210478 4
-1.6996169 -3.9426765 -2.0085323 1
-6.6529665 -15.286185 4.3760996 0
-3.4473686 -7.920845 1.6569515 4
-3.3979647 -7.8073325 1.1792443 10
-3.300252 -7.5828228 0.70650679 7
-3.5440836 -8.1430626 0.44460246 13
-3.3711662 -7.7457585 0.27344549 7
-3.9420798 -8.2240696 0.26844636 11
-23.980654 -45.695789 1.3639685 0
-4.6898179 -8.1988354 0.22226296 28
-2.6488092 -7.538496 0.16416432 15
-2.9135256 -7.4191914 0.14052175 14
-21.062202 -48.393562 0.77290499 0
-3.9746351 -8.2919874 0.10785384 3
-29.106915 -55.46402 0.54772335 16
-4.6930227 -8.2044382 0.055099171 16
-3.0803092 -8.7665424 0.026434653 16
-2.9563797 -7.5283175 -0.00070581114 9
-21.56719 -49.553844 -0.1641245 3
-9.3328276 -19.470388 -0.12925929 20
-26.106966 -49.747536 -0.50107777 4
-4.6947556 -8.207468 -0.11255348 12
-3.4591806 -9.8448086 -0.15463337 0
-3.1444938 -8.0073442 -0.15301327 6
-13.780889 -31.663652 -0.71551597 22
-9.3251877 -19.454451 -0.51143205 17
-14.808991 -28.218937 -0.84842658 2
-4.6850905 -8.1905718 -0.2793906 6
-10.379827 -29.540932 -1.0179192 8
-3.1444709 -8.0072851 -0.30551982 2
-12.360411 -28.399895 -1.1909497 12
-7.9550977 -16.596132 -0.76235569 11
-8.4193001 -16.043205 -0.80341411 9
-4.6938052 -8.2058067 -0.44746542 5
-5.5821028 -15.886634 -0.84535587 11
-3.1858063 -8.112545 -0.46393785 4
-3.6911609 -8.4809942 -0.51939046 6
-7.6028457 -15.861255 -1.0400665 13
-8.3557549 -15.922119 -1.1152288 10
-4.6812215 -8.1838074 -0.61332136 10
-5.5776057 -15.873834 -1.1428987 9
-3.1794014 -8.0962343 -0.61708188 8
-6.8899174 -15.830616 -1.2751317 7
-7.6195884 -15.896184 -1.3548541 8
-8.5287561 -16.251778 -1.4634893 8
-4.6929402 -8.2042942 -0.78238374 11
-5.5529017 -15.803528 -1.4342752 4
-3.1749413 -8.084878 -0.77000403 1
-6.8640141 -15.7711 -1.5747123 16
-4.3720794 -9.1211462 -0.95667005 1
-4.8210726 -9.1866856 -1.0108666 1
-4.6814361 -8.1841822 -0.94757193 4
-3.2117307 -9.1405678 -1.0011994 0
-3.1651487 -8.0599403 -0.92111599 9
-4.0004086 -9.1915369 -1.0951892 0
-3.9604828 -9.099802 -1.2602428 14
-3.834235 -8.8097286 -1.3901757 6
-3.4710259 -7.9752011 -1.4140347 8
-3.643291 -8.371006 -1.6194679 8
-3.4652107 -7.9618397 -1.7202718 10
-3.3562987 -7.7115984 -1.815303 6
-3.2363255 -7.4359422 -1.8943467 3
-3.2155211 -7.3881407 -2.0245161 3
-2.3385415 -5.3731494 -2.0249672 7
-1.7234896 -3.9599752 -2.0203972 1
-6.822607 -15.520251 4.4502363 1
-3.5190609 -8.0052557 1.6772962 4
-3.6912422 -8.3969383 1.2703352 6
-3.3777418 -7.6837792 0.71706182 10
-3.6462519 -8.2945929 0.45360249 8
-3.4059684 -7.7479897 0.27396315 8
-3.9530401 -8.1699753 0.2671518 2
-4.243578 -8.0147228 0.23969321 2
-4.7138424 -8.1712008 0.22198066 36
-2.8974473 -8.1504793 0.17772144 10
-3.0233274 -7.6166286 0.14447019 4
-25.445148 -57.883316 0.92595142 15
-4.0067425 -8.2809649 0.10790076 3
-4.5555911 -8.6040134 0.085131459 0
-4.7270594 -8.1941118 0.055145808 34
-3.1217983 -8.7815762 0.026514309 9
-2.9559131 -7.4467931 -0.0006991789 14
-25.784191 -58.654579 -0.19457822 5
-9.3867064 -19.400045 -0.12901983 24
-26.29287 -49.658581 -0.50114912 11
-4.7188106 -8.1798124 -0.11241065 35
-3.4965804 -9.8358326 -0.15469265 0
-3.1767724 -8.0032005 -0.15315555 7
-14.141472 -32.169403 -0.72811103 6
-9.3737879 -19.373346 -0.51019973 29
-14.927289 -28.192739 -0.84927821 1
-4.7090859 -8.1629553 -0.27903545 34
-1.8694192 -5.2586508 -0.18143708 0
-3.1708484 -7.988276 -0.30523586 14
-12.53841 -28.522717 -1.1980194 7
-7.9880219 -16.509304 -0.75970685 8
-8.5584507 -16.164097 -0.81103355 7
-4.7098742 -8.1643219 -0.44614154 40
-5.681776 -15.982758 -0.85157323 9
-3.1698356 -7.9857249 -0.45734662 14
-3.7382922 -8.5039692 -0.52163309 5
-7.6765809 -15.865631 -1.0421915 14
-8.3785629 -15.824349 -1.1105243 10
-4.7091913 -8.1631384 -0.61306173 31
-5.6237183 -15.819442 -1.1404589 13
-3.1825573 -8.0177746 -0.6119867 9
-6.9494991 -15.808909 -1.2754263 7
-7.7003818 -15.914822 -1.358839 16
-8.5173645 -16.0865 -1.4514076 13
-4.7090354 -8.1628675 -0.78007388 31
-5.7189188 -16.08724 -1.4619164 4
-3.1854427 -8.0250435 -0.76541227 8
-6.9554353 -15.822413 -1.5823706 12
-4.4367008 -9.1695843 -0.9634496 1
-4.8472595 -9.1548786 -1.0093151 0
-4.7014575 -8.1497316 -0.94557196 32
-3.2518752 -9.14748 -1.0032551 0
-3.1902661 -8.0371952 -0.91984665 17
-4.0340705 -9.1768131 -1.0951892 0
-3.9730489 -9.0380001 -1.2536922 14
-3.8633125 -8.7883682 -1.3890301 21
-3.5224769 -8.0130262 -1.4230208 9
-3.4980168 -7.9573836 -1.5419178 12
-3.5306861 -8.0317011 -1.7381508 11
-3.382967 -7.6956654 -1.814459 8
-3.2651253 -7.4275961 -1.8952565 3
-3.247262 -7.38696 -2.0274403 3
-2.3612626 -5.3714643 -2.02758 7
-1.7321599 -3.9403644 -2.0136173 1
-6.8924346 -15.531704 4.460392 6
-3.5374229 -7.9713783 1.6727751 1
-3.5807099 -8.068923 1.2225947 8
-3.5193212 -7.9305873 0.74123627 9
-3.5811975 -8.0700226 0.44200245 19
-3.7570257 -7.6962223 0.25208774 10
-24.371067 -45.642944 1.3675618 16
-4.7523885 -8.1719809 0.22245117 14
-2.7121544 -7.5456924 0.16473947 26
-17.821577 -44.444599 0.84418815 9
-23.181141 -52.237366 0.83692324 3
-9.4924898 -19.445251 0.25380135 15
-26.577246 -49.77475 0.49340573 2
-4.7556338 -8.1775608 0.055145808 32
-3.1389031 -8.7329826 0.026400514 5
-2.9818895 -7.436429 -0.0006991789 6
-26.465786 -59.639122 -0.19814956 13
-9.4684067 -19.395918 -0.1292114 22
-32.127388 -60.169243 -0.60834962 2
-4.7413025 -8.1529179 -0.11226781 31
-20.015156 -55.685699 -0.87688798 1
-14.068756 -31.703129 -0.71866477 2
-9.4431124 -19.344103 -0.5102945 33
-15.093411 -28.267443 -0.85311049 2
-4.7315216 -8.1360979 -0.27868026 35
-3.6254265 -10.086576 -0.34844756 0
-3.2180545 -8.0253925 -0.30708149 1
-3.8246059 -8.6185284 -0.36255649 0
-8.0491076 -16.488503 -0.76003796 11
-8.5847054 -16.077723 -0.80819839 6
-4.7383447 -8.147831 -0.44614154 41
-5.772665 -16.060574 -0.85678774 7
-3.209585 -8.0042706 -0.45904759 9
-3.772814 -8.5018187 -0.52230591 1
-7.7389231 -15.853091 -1.043136 20
-8.4901628 -15.900659 -1.1179525 14
-4.7356505 -8.143199 -0.61280203 30
-5.680254 -15.80347 -1.14073 13
-3.2164655 -8.0214291 -0.61311895 5
-7.0127311 -15.802785 -1.2768993 7
-7.7331438 -15.841253 -1.3548541 9
-8.6016369 -16.10943 -1.4561766 8
-4.735497 -8.1429338 -0.77974391 42
-5.9745502 -16.622253 -1.5124215 3
-3.2089875 -8.0027809 -0.76435262 8
-7.0025458 -15.779833 -1.5805472 9
-4.4582 -9.1325703 -0.96118975 1
-8.1851082 -15.329343 -1.6931823 5
-4.729877 -8.1332703 -0.94557196 40
-3.2851319 -9.1398172 -1.0036664 0
-3.230145 -8.0555449 -0.92323154 9
-4.0693049 -9.1699438 -1.0960581 1
-4.0238886 -9.0676003 -1.2597389 14
-3.7382078 -8.4238358 -1.3334689 13
-3.5248034 -7.9429407 -1.412751 12
-3.6024542 -8.1179228 -1.5754529 8
-3.5730247 -8.0516052 -1.745147 8
-3.4209113 -7.7088265 -1.8203665 11
-3.2957728 -7.4268336 -1.8979862 2
-3.2808957 -7.3933091 -2.0323141 3
-2.3723307 -5.3459105 -2.0210478 5
-1.7503128 -3.9442291 -2.0187023 1
-6.9387002 -15.489896 4.4553142 5
-4.732758 -10.565369 2.2205713 14
-3.5554011 -7.9370475 1.2044864 12
-3.4752934 -7.7582154 0.72625488 2
-3.5930135 -8.0210133 0.44000244 11
-16.317621 -36.427322 1.2920396 3
-3.9198871 -7.95925 0.2611497 12
-4.3297586 -8.0412321 0.24138418 0
-2.7480383 -7.56249 0.16531461 6
-3.4157507 -8.4330845 0.16040491 0
-3.8930731 -8.6908636 0.13945793 0
-23.533194 -47.783661 0.62474543 10
-31.337934 -58.200844 0.57801253 3
-4.7740355 -8.1436567 0.055029217 4
-3.882026 -8.6662025 -0.0288381 2
-9.560791 -19.412989 -0.12954663 9
-32.403595 -60.179993 -0.60959822 2
-4.7859154 -8.1639214 -0.1126487 9
-21.609526 -59.46854 -0.93763894 2
-13.472285 -33.261478 -0.63830227 3
-3.8730364 -8.6461334 -0.19630079 1
-9.5194073 -19.32896 -0.51076847 24
-15.148392 -28.133608 -0.85066205 0
-4.7780914 -8.1505756 -0.27974576 14
-10.695108 -29.432507 -1.0180491 8
-11.599034 -28.636642 -1.0972874 15
-3.8236203 -8.5358181 -0.35963637 4
-8.0324488 -16.309723 -0.7530849 7
-8.6066761 -15.984327 -0.80500883 12
-4.7748394 -8.1450281 -0.44689804 22
-5.8409719 -16.074118 -0.85859281 13
-6.4015331 -15.804627 -0.90767676 10
-7.0824842 -15.810879 -0.972848 12
-7.8100877 -15.858222 -1.0452609 13
-8.5456152 -15.870926 -1.1179525 14
-4.7781777 -8.1507225 -0.61461967 14
-5.7435622 -15.80605 -1.1423565 11
-6.4035115 -15.809512 -1.2101033 12
-7.0923123 -15.832818 -1.2813188 8
-7.9240699 -16.089661 -1.3784568 8
-8.6748314 -16.110905 -1.4590381 16
-4.7780046 -8.1504269 -0.78205377 22
-5.9222851 -16.29789 -1.4847802 11
-3.2309198 -7.9767585 -0.76293981 8
-7.046186 -15.729846 -1.5779945 14
-4.5146813 -9.1669674 -0.96646273 1
-4.9280415 -9.1523638 -1.0128062 1
-4.7683029 -8.1338778 -0.94757193 27
-3.3251693 -9.1507311 -1.0061333 0
-6.2193346 -15.354801 -1.7622638 5
-4.1142936 -9.1847143 -1.0995336 0
-4.0555158 -9.0534992 -1.2597389 5
-3.811286 -8.5082827 -1.3489344 8
-3.6235259 -8.0891285 -1.4409931 9
-3.543824 -7.9112024 -1.5377259 8
-3.6315856 -8.1071215 -1.7599167 10
-3.4462013 -7.6932707 -1.8195226 8
-3.3184927 -7.408175 -1.8961664 2
-3.3050971 -7.3782711 -2.0313392 3
-2.3956134 -5.3479476 -2.0249672 5
-1.7611079 -3.9314823 -2.0153122 1
-7.9922476 -17.684404 5.0941091 1
-4.7402649 -10.48876 2.2077618 15
-3.3973141 -7.5172191 1.1424786 7
-9.0011702 -19.916842 1.8672208 16
-3.6311095 -8.0345373 0.44140244 12
-3.9021282 -8.6342192 0.30670413 5
-3.9160271 -7.8853307 0.25914901 3
-24.664007 -45.444374 1.3666106 20
-31.344927 -53.064758 1.4502611 6
-2.7593188 -7.5157943 0.16449298 7
-3.4497521 -8.4365177 0.16068694 8
-3.9185777 -8.6706161 0.13934077 7
-23.846298 -48.017017 0.62882686 13
-1.6465592 -3.0338483 0.030184245 0
-17.570496 -29.745613 0.20139295 8
-2.9873533 -8.1369114 0.024659446 8
-3.432121 -8.3934002 -0.00079133228 7
-3.9123905 -8.6569262 -0.028850246 6
-29.401968 -59.203938 -0.39572784 4
-32.562904 -59.99839 -0.60884911 4
-14.998595 -40.852966 -0.64490831 7
-3.428551 -8.3846693 -0.16112277 0
-3.9016871 -8.6332426 -0.19630079 6
-9.6030188 -19.336683 -0.51181126 3
-16.904802 -31.147743 -0.94348866 10
-18.272778 -30.934528 -1.0638152 9
-10.811942 -29.449419 -1.0198687 8
-11.698473 -28.609121 -1.0977134 9
-3.8535516 -8.5267334 -0.35979006 6
-8.0562706 -16.222145 -0.75027055 16
-8.6844101 -16.001358 -0.80731243 10
-9.4085674 -15.928043 -0.87564027 13
-5.8749676 -16.002155 -0.85578495 9
-3.4061038 -8.3297739 -0.47903392 4
-7.1579037 -15.838256 -0.97598761 8
-7.9958386 -16.100458 -1.0629692 8
-8.617238 -15.877589 -1.1204286 13
-9.5291586 -16.132195 -1.2188529 5
-5.7973218 -15.790665 -1.1426276 13
-3.4144557 -8.3501987 -0.64001012 9
-7.2072058 -15.947347 -1.2925144 4
-7.8762679 -15.859691 -1.3609847 14
-8.7320089 -16.08906 -1.459674 11
-9.3687477 -15.860632 -1.5248399 22
-5.9776721 -16.2819 -1.4851215 6
-3.3870451 -8.283165 -0.79331607 5
-7.13276 -15.782621 -1.5856528 11
-4.5485983 -9.1590786 -0.96721601 1
-8.3177443 -15.325761 -1.6990008 4
-9.0480232 -15.317667 -1.7879471 11
-3.3692088 -9.1770048 -1.0102451 1
-3.4068441 -8.331584 -0.95750368 10
-4.1480045 -9.1782675 -1.1004024 2
-4.0250506 -8.906209 -1.2410948 11
-3.8378496 -8.4919901 -1.3483616 16
-3.5739095 -7.9079709 -1.4108254 13
-3.7095318 -8.2080622 -1.5978097 9
-3.6665299 -8.1129122 -1.7638034 10
-3.4797456 -7.699615 -1.8237423 9
-3.3526661 -7.418427 -1.9016256 3
-3.332742 -7.374341 -2.0332887 3
-2.40555 -5.3227482 -2.018435 6
-1.7771199 -3.9322238 -2.0187023 1
-10.690402 -23.436262 6.7616782 7
-4.762176 -10.439981 2.2009802 25
-3.59619 -7.8838239 1.2000964 7
-3.9597206 -8.6807823 0.81512153 0
-3.8365359 -8.4107285 0.46280256 7
-3.8774908 -8.5005121 0.30243358 8
-3.9524829 -7.8894873 0.25973746 9
-24.855124 -45.417633 1.3684072 14
-30.697309 -51.556591 1.4119626 10
-2.8036251 -7.5548577 0.16556111 19
-3.4730742 -8.4096384 0.16040491 0
-23.727777 -52.017727 0.83727467 5
-24.069304 -48.044346 0.63028121 8
-28.747435 -52.530037 0.52362496 1
-34.325256 -57.649784 0.39112717 1
-2.7902887 -7.5189204 0.022815961 16
-3.4659796 -8.3924599 -0.00079237943 13
-3.3485532 -6.6839929 -0.04475465 0
-32.58012 -59.533478 -0.60528165 6
-36.011543 -60.481926 -0.83791405 9
-3.0349011 -8.178071 -0.12926616 0
-3.4028399 -8.2395744 -0.15856187 7
-3.9235008 -8.6013784 -0.19588648 0
-14.687489 -29.317459 -0.7773388 11
-17.105566 -31.25691 -0.94859838 10
-18.44405 -30.977058 -1.0674852 20
-10.810355 -29.13039 -1.010121 11
-3.4164929 -8.2726345 -0.31787121 8
-3.8882687 -8.5241404 -0.36025113 6
-8.1951942 -16.358294 -0.75788581 12
-8.7670708 -16.020021 -0.80979317 10
-9.5049868 -15.963767 -0.87942272 11
-5.8918734 -15.876681 -0.8501693 13
-3.4275362 -8.2993746 -0.47797081 15
-7.2297196 -15.849507 -0.97823024 6
-7.9339476 -15.836824 -1.0473859 12
-8.6821918 -15.864923 -1.1216667 11
-9.5935764 -16.112555 -1.2198915 18
-5.8857298 -15.860126 -1.1491337 9
-3.4390135 -8.3271646 -0.63916093 15
-7.2164745 -15.82047 -1.2842649 13
-7.9869585 -15.942639 -1.3704871 11
-8.8187456 -16.114447 -1.4647611 18
-9.4872723 -15.934015 -1.5350692 25
-5.9942603 -16.15258 -1.4752252 12
-3.4326682 -8.311801 -0.79720145 15
-7.2159114 -15.819237 -1.5918525 11
-4.5948114 -9.171629 -0.97022915 2
-8.3731022 -15.300124 -1.6993887 7
-5.4303179 -9.1202993 -1.0667684 0
-5.6963906 -15.349918 -1.6919652 5
-3.4283149 -8.30126 -0.95538813 16
-4.1965199 -9.1999102 -1.1047466 1
-4.1499834 -9.0978889 -1.2698169 10
-3.9068995 -8.5649834 -1.3621087 12
-3.5982146 -7.8882632 -1.4095416 14
-3.7022014 -8.11623 -1.5824394 5
-3.6248059 -7.9465585 -1.7303774 6
-3.5114694 -7.6980934 -1.826274 8
-3.3898563 -7.4314852 -1.9079947 3
-3.3697331 -7.3873692 -2.0401118 2
-2.4272535 -5.3211985 -2.0210478 6
-1.8028642 -3.9523675 -2.0322618 2
-5.2388415 -11.379592 3.2884219 0
-3.740633 -8.125246 1.7157247 7
-3.5375283 -7.6840706 1.1715618 3
-3.9766648 -8.6379442 0.81239766 1
-4.0112181 -8.7129993 0.48020265 6
-3.8703587 -8.4070311 0.29958653 3
-17.092953 -30.97661 0.93509948 12
-31.089045 -51.802288 1.4216549 8
-2.8538535 -7.6086807 0.16695791 10
-3.3869443 -8.1206245 0.15511684 1
-2.0371752 -4.425066 0.071339667 0
-24.377577 -48.23848 0.6339404 6
-16.711779 -30.285831 0.30247203 5
-3.7646701 -6.2729015 0.042647645 0
-2.82354 -7.5278616 0.022872858 12
-3.3982489 -8.1477289 -0.00077038829 10
-26.982796 -58.610893 -0.19595088 0
-29.655813 -58.683079 -0.39362061 14
-32.870827 -59.569977 -0.60681564 4
-4.1040721 -6.8384318 -0.094937243 0
-3.050786 -8.1337242 -0.12873273 6
-3.4100277 -8.1759701 -0.15756597 13
-3.8799167 -8.4277925 -0.19224054 4
-15.356077 -30.386688 -0.80710518 10
-17.479231 -31.676641 -0.96318239 25
-18.568531 -30.939913 -1.0684322 10
-10.889503 -29.032587 -1.0080415 10
-3.439194 -8.2459002 -0.31730333 8
-12.977539 -28.189266 -1.1932551 12
-8.2864952 -16.39736 -0.76103127 9
-8.7978401 -15.943838 -0.80748963 9
-9.5339241 -15.885953 -0.87696415 14
-6.0061793 -16.013121 -0.85859281 11
-3.4703238 -8.3205376 -0.47988439 9
-7.3033729 -15.86408 -0.98069715 12
-8.0215988 -15.873181 -1.051636 14
-8.8146715 -15.97434 -1.1315709 11
-9.676465 -16.123461 -1.2232671 8
-6.0910153 -16.239304 -1.1781399 6
-3.4634523 -8.3040628 -0.63831174 5
-7.3533959 -15.972737 -1.2987015 4
-8.0533533 -15.936019 -1.3723263 7
-8.8556776 -16.048655 -1.4615817 13
-9.5489893 -15.911056 -1.5360591 18
-5.9316335 -15.814375 -1.4462188 7
-3.4708638 -8.3218327 -0.7993207 8
-7.2461014 -15.739676 -1.5863822 11
-4.6267991 -9.1555347 -0.97022915 1
-5.0508742 -9.1534195 -1.0186247 1
-5.4846501 -9.1388273 -1.0711683 1
-3.4443707 -9.1830635 -1.0135344 1
-3.4557402 -8.2855721 -0.954965 8
-4.2352595 -9.1996527 -1.1064843 1
-4.2165637 -9.1590424 -1.2803987 9
-3.9549839 -8.5908499 -1.3684095 15
-3.6488433 -7.9258642 -1.4185277 12
-3.6860404 -8.0066624 -1.5635759 7
-3.70503 -8.0479107 -1.7552526 8
-3.5448596 -7.699995 -1.8296498 6
-3.4222925 -7.4337602 -1.9116342 3
-3.3906329 -7.3649902 -2.0371876 2
-2.4394891 -5.2989559 -2.0158222 6
-1.8060436 -3.9230123 -2.0203972 1
-5.2231059 -11.241939 3.2538924 2
-3.7656622 -8.1050138 1.7142178 11
-3.4591525 -7.4452977 1.1369911 4
-9.0597858 -19.499807 1.8369175 2
-9.1285458 -19.647802 1.0846061 35
-3.6335258 -7.82061 0.27913958 8
-28.573393 -56.054249 1.8519386 3
-17.177649 -30.874823 0.93383121 8
-31.242771 -51.648968 1.4204316 10
-2.8803957 -7.5986724 0.16695791 9
-3.4075065 -8.0903244 0.15476429 15
-22.383213 -48.176453 0.77794212 7
-28.576536 -56.060413 0.73804122 1
-16.659878 -29.944189 0.29963896 15
-3.3207307 -5.4896636 0.037401214 0
-2.8668137 -7.5628424 0.023009412 0
-3.4313254 -8.1468773 -0.0007714355 15
-27.054075 -58.229771 -0.19499123 18
-29.878639 -58.614834 -0.39386007 4
-21.418421 -38.497116 -0.39291403 20
-38.507221 -63.658184 -0.88562071 1
-3.0876658 -8.1454649 -0.12908834 2
-3.4447544 -8.1787605 -0.15785052 9
-3.9025719 -8.3996906 -0.19190909 7
-15.518351 -30.44334 -0.81004393 8
-17.550817 -31.545549 -0.96105331 14
-3.0863743 -8.1420574 -0.28307304 3
-3.4772649 -8.255949 -0.31815517 6
-13.080912 -28.154667 -1.193716 13
-8.314642 -16.311363 -0.7583825 18
-8.896184 -15.989854 -0.81138796 10
-9.6596317 -15.968813 -0.8833943 7
-6.0436311 -15.943495 -0.85598552 9
-6.6436391 -15.773763 -0.91107869 18
-7.4849119 -16.11013 -0.99751675 5
-8.1785088 -16.044304 -1.0648581 6
-8.8432045 -15.89463 -1.1281044 10
-9.6521149 -15.956388 -1.2131404 13
-6.0203547 -15.88209 -1.1537422 14
-6.6456575 -15.778554 -1.2146323 11
-7.3855748 -15.896323 -1.2945768 11
-8.1161776 -15.922023 -1.3735523 22
-8.8806276 -15.961894 -1.4564946 13
-9.587966 -15.850339 -1.5334194 22
-5.9966893 -15.81966 -1.4486077 13
-3.5431938 -8.4124823 -0.80921066 12
-7.2758226 -15.660099 -1.5809119 9
-4.6641555 -9.149971 -0.97135907 2
-8.52036 -15.314355 -1.7075346 8
-5.553596 -9.1809235 -1.0783681 0
-5.814693 -15.33954 -1.6952546 6
-3.5000784 -8.3101149 -0.95919615 3
-4.2706976 -9.1920252 -1.1073532 2
-4.1314707 -8.8923597 -1.245126 5
-3.9966238 -8.6021233 -1.372419 10
-3.7080956 -7.9811101 -1.4307232 7
-4.1305017 -8.890275 -1.7389368 5
-3.757899 -8.0883045 -1.7669128 9
-3.5651267 -7.6733913 -1.826274 6
-3.446579 -7.4182358 -1.9107243 2
-3.4244938 -7.3707008 -2.0420613 2
-2.4643433 -5.3041234 -2.0210478 8
-1.8090403 -3.8936832 -2.0085323 1
-5.2577028 -11.208709 3.2498302 10
-3.8220363 -8.1480627 1.7262738 14
-3.8128488 -8.1284761 1.2434469 4
-9.1108847 -19.42317 1.8328317 12
-3.7188811 -7.9281497 0.43840241 6
-3.7063086 -7.9013467 0.28250426 6
-23.661551 -46.000889 1.5226475 1
-17.110666 -30.490849 0.92410821 15
-31.644257 -51.882336 1.4300297 4
-3.5890276 -8.4347486 0.16160354 4
-22.593611 -48.166512 0.77911353 5
-29.40019 -57.157494 0.75389791 5
-16.681431 -29.725962 0.29806504 16
-32.677223 -53.575935 0.36582771 11
-2.8601577 -7.4626436 0.022736304 1
-27.297894 -58.195404 -0.19520988 5
-5.5144167 -10.720686 -0.07217256 0
-21.508482 -38.327667 -0.39198652 23
-31.921524 -52.336929 -0.7297408 0
-3.4778395 -8.17344 -0.15799278 4
-15.038712 -32.060493 -0.73374569 6
-14.987807 -29.138094 -0.77677006 1
-17.71524 -31.568188 -0.96371466 13
-3.1161957 -8.1306906 -0.28307304 11
-12.087653 -28.407784 -1.0964357 14
-13.223058 -28.189764 -1.197251 13
-8.4346962 -16.39806 -0.76384562 12
-8.9429951 -15.936231 -0.81032479 10
-9.7742691 -16.025402 -0.88850063 12
-3.1267879 -8.1583281 -0.43862239 1
-7.4251866 -15.829491 -0.98181844 13
-8.1715078 -15.88639 -1.0563581 15
-8.954154 -15.956115 -1.1347898 8
-9.7105331 -15.920903 -1.2131404 17
-6.0670991 -15.830106 -1.1515735 13
-3.5930839 -8.4442816 -0.65104967 8
-7.4675059 -15.919709 -1.2987015 7
-8.347784 -16.229094 -1.4026725 15
-9.0210266 -16.075281 -1.4698482 12
-9.6522226 -15.8253 -1.5344093 23
-6.0831575 -15.872004 -1.4554327 14
-3.575563 -8.4031048 -0.80956388 5
-7.3179474 -15.600871 -1.5776298 10
-4.7268043 -9.1894732 -0.97738534 10
-5.1513147 -9.1795349 -1.0256069 0
-5.5892806 -9.1639042 -1.078768 0
-3.5085714 -9.1544657 -1.0131233 1
-3.8902612 -9.1426926 -1.0569351 0
-4.3094258 -9.1871109 -1.1086565 1
-4.196053 -8.9454155 -1.2546999 14
-4.0298066 -8.5910006 -1.3729918 8
-3.6803157 -7.8459334 -1.4088998 14
-3.6295047 -7.7376113 -1.5160677 10
-3.7441952 -7.9821157 -1.7467017 7
-3.6131525 -7.7027507 -1.8364013 5
-3.4753997 -7.4090805 -1.9116342 2
-3.4498384 -7.3545876 -2.0410864 1
-2.4757397 -5.2779412 -2.0145159 6
-1.8279153 -3.8968673 -2.0136173 3
-5.2967939 -11.190289 3.2498302 14
-3.7966712 -8.0210495 1.7021617 2
-3.6360848 -7.6817861 1.1770493 8
