# .PCD v0.7 - Point Cloud Data file format
VERSION 0.7
FIELDS x y z intensity
SIZE 4 4 4 4
TYPE F F F F
COUNT 1 1 1 1
WIDTH 1457
HEIGHT 1
VIEWPOINT 0 0 0 1 0 0 0
POINTS 1457
DATA ascii
5.594955 6.7703533 -2.2067907 0
3.9834027 4.8202434 -2.160836 0
2.8550086 3.4547942 -2.0966706 0
34.764217 41.769764 2.7206151 1
35.219193 42.316422 1.7821193 1
34.799969 38.839718 1.5350047 0
5.349525 5.5512171 0.20376037 0
34.950508 33.727741 1.1429323 1
35.650379 49.777561 1.2579358 0
36.724098 47.532566 1.0589545 1
35.766041 42.973469 0.81876618 1
35.85685 37.208752 0.45185429 255
42.050625 46.932064 -0.3772417 2
35.898426 37.2519 -0.46140823 155
42.271023 40.792145 -0.69926947 0
42.190941 58.909954 -1.0737803 4
41.482292 53.691174 -1.2068201 0
42.145107 50.63802 -1.3650736 0
42.044907 46.925682 -1.4936281 3
41.749943 43.324036 -1.601791 1
41.944775 40.47731 -1.7259473 0
42.026638 58.680542 -2.3464649 0
41.460274 53.662674 -2.4083819 1
5.264739 6.3256683 -0.31644925 0
13.8957 19.402151 -2.4661987 0
14.520492 18.794098 -2.5264051 0
12.588146 15.124859 -2.4988182 0
9.254055 11.118895 -2.3518035 0
8.2311935 9.8899107 -2.2824855 0
7.4498124 8.9510689 -2.3071699 0
6.7283058 8.0841675 -2.2701836 0
6.1371841 7.3739252 -2.2410066 0
5.6384072 6.7746367 -2.2145886 0
3.9881115 4.79178 -2.1543038 0
2.8763218 3.4559464 -2.1034503 0
35.020164 41.779812 2.7292151 1
35.356419 42.180973 1.7816015 1
35.905704 37.000095 1.3627003 0
34.796631 33.345463 1.1340868 1
37.076462 47.643967 1.0643131 1
35.80278 42.713493 0.81618905 1
35.372616 49.027302 0.17199025 0
42.222233 46.793903 -0.37731355 2
42.281651 58.603394 -1.0708761 0
42.209824 54.240437 -1.22247 0
42.082699 50.205566 -1.3573674 0
42.227203 46.799412 -1.4942917 2
42.151535 43.436295 -1.6113718 1
41.967453 40.217228 -1.7210934 0
42.008991 58.225483 -2.3341179 0
42.005768 53.978218 -2.4291096 1
41.955376 50.053669 -2.511307 1
41.690941 42.961658 -2.6545978 0
13.183461 18.272596 -2.3284566 0
9.2775936 11.06837 -2.3479524 0
8.2960272 9.8973398 -2.2908692 0
7.4986567 8.9460592 -2.3126113 0
6.743926 8.0456495 -2.2659638 0
6.1453714 7.3315606 -2.2346375 0
5.6670055 6.76086 -2.2165382 0
3.9950995 4.7662401 -2.1490781 0
2.8883679 3.4458852 -2.1034503 0
35.124554 41.608467 2.7260151 0
35.769062 42.371952 1.7949309 1
36.269398 37.114758 1.3715779 1
34.857777 33.171413 1.1322989 1
35.002457 48.159069 1.2231803 0
34.908562 44.536545 0.99761277 0
35.848461 42.466007 0.81384623 1
3.1794934 4.3745914 0.015385127 0
42.18895 46.43013 -0.3755655 0
42.207081 40.165173 -0.69355607 0
35.438667 48.759239 -0.89324629 1
42.218796 53.86298 -1.2172772 0
42.144184 49.923904 -1.3537214 0
42.196682 46.438641 -1.4874663 0
42.165962 43.148762 -1.6061556 0
41.962765 39.932678 -1.7151741 0
35.437946 48.758247 -1.9595464 0
42.026241 53.617317 -2.4194558 1
42.006081 49.760307 -2.5039299 0
42.021862 46.246246 -2.5883672 0
41.022469 39.037868 -2.6804426 0
13.209736 18.174969 -2.321878 0
12.678073 15.018416 -2.4957948 0
9.3390942 11.063069 -2.353729 0
8.3356056 9.8743401 -2.2922666 0
7.5121207 8.8988409 -2.3071699 0
6.7568359 8.0041332 -2.2609003 0
6.153338 7.2892299 -2.2282684 0
5.6805611 6.7291799 -2.2126391 0
4.0214672 4.7638211 -2.1543038 0
2.8933671 3.4274762 -2.0983655 0
36.074341 42.432201 2.7882154 0
35.888268 42.213333 1.7935075 1
34.918674 38.160496 1.5225298 0
36.684807 37.278633 1.3823577 0
34.697239 32.788612 1.1233596 1
35.004974 47.810722 1.2174288 1
34.989464 44.320251 0.99549752 1
36.128597 42.496021 0.81683332 1
35.768433 39.089146 0.62146145 0
4.9264951 5.0062413 0.061417766 0
35.257969 48.156273 0.16979399 1
41.368458 48.65937 -0.19395868 0
42.231956 46.152737 -0.3745119 0
42.175331 42.858036 -0.53628808 0
42.059223 39.745632 -0.68884254 0
2.2705801 3.1012185 -0.056957714 0
42.03978 53.250702 -1.2067491 1
42.066929 49.480946 -1.3456838 0
42.207355 46.125851 -1.4821576 0
42.198532 42.881611 -1.6016846 1
41.950787 39.643162 -1.709018 0
35.600838 48.624573 -1.9591565 0
41.987736 53.184776 -2.4065363 1
41.379524 48.672386 -2.4564393 1
41.983387 45.881092 -2.5761166 0
40.998764 38.743504 -2.6700408 0
9.3571959 11.006339 -2.3485942 0
8.3496141 9.8211775 -2.2866774 0
7.566011 8.8994694 -2.3141661 0
6.8049946 8.0043297 -2.2676518 0
6.2014508 7.294415 -2.2364573 0
5.693964 6.6974869 -2.2087402 0
4.033174 4.7439938 -2.151691 0
2.9076605 3.4201162 -2.1000605 0
35.746754 41.750679 2.7516153 1
36.050999 42.106026 1.7942839 1
35.021862 38.006035 1.5212352 0
34.834808 32.68919 1.1241124 1
35.052967 47.527317 1.2133206 2
35.017017 44.038197 0.99190164 0
36.372959 42.482059 0.81900048 1
36.042889 39.114063 0.62385404 0
35.380745 47.971741 0.16957778 0
100.29498 126.13325 -0.014062815 2
42.20306 45.799133 -0.3728357 0
42.158566 42.542931 -0.53418326 0
42.118958 39.524677 -0.68755704 0
42.225929 57.252926 -1.0542215 0
42.088505 52.931461 -1.2028365 2
42.117153 49.191029 -1.3417892 0
35.569153 38.59996 -1.2443109 0
42.218487 42.603401 -1.5967878 0
41.931473 39.34874 -1.7026252 0
41.970963 56.90723 -2.2987661 0
42.001465 52.821999 -2.3967404 0
41.913109 48.952717 -2.4779561 0
35.559494 38.589478 -2.1736655 1
35.466866 33.282314 -2.3021963 0
14.160371 19.199642 -2.0427244 0
18.446447 17.310255 -2.5423245 0
14.155795 19.193438 -2.4645538 0
10.672112 12.464569 -2.3742392 0
9.4340754 11.018596 -2.3582222 0
8.4017763 9.8129148 -2.2915678 0
7.5791669 8.8521423 -2.3087246 0
6.8125501 7.9567666 -2.2609003 0
6.2294083 7.2756824 -2.2373672 0
5.7274008 6.6893587 -2.2126391 0
4.0521679 4.7327585 -2.1529975 0
2.9219375 3.4126978 -2.1017554 0
35.894882 41.62867 2.7518153 1
36.216034 42.001122 1.7951897 1
3.568193 3.8452127 0.15440668 0
34.796574 32.425629 1.1192192 1
35.201958 47.382198 1.2127454 1
34.980522 43.678448 0.98654306 1
36.497524 42.327576 0.81847334 1
35.760223 38.536499 0.61662936 0
41.433723 38.610542 0.330152 0
35.638626 47.969959 0.17001021 0
35.737556 38.51207 -0.31452772 0
42.182495 42.270935 -0.53261364 0
41.364189 38.545746 -0.67303556 0
42.203693 56.806602 -1.0487094 0
42.300514 52.818558 -1.2036191 2
42.194592 48.934681 -1.3388063 0
35.706398 38.478493 -1.2444057 0
42.163586 42.251984 -1.5891231 1
35.557331 33.134552 -1.4390984 1
41.957153 56.474762 -2.287199 0
41.990681 52.431683 -2.3856668 0
41.906242 48.600273 -2.467505 1
35.571133 33.147411 -2.3014398 1
14.217796 19.1373 -2.0413594 0
18.50955 18.548357 -2.5531559 0
14.196604 19.108774 -2.460031 0
1.8216749 2.1126661 -0.3542386 0
9.4544315 10.964666 -2.353729 0
8.4205465 9.7656307 -2.2873759 0
7.5715857 8.7810583 -2.2970643 0
6.8632627 7.9595885 -2.2684958 0
6.272573 7.2745433 -2.2437363 0
5.760849 6.6810775 -2.2165382 0
4.0513816 4.6985426 -2.1438525 0
2.955126 3.4271729 -2.1170101 0
34.169743 39.349384 2.6090145 0
36.333588 41.84124 1.7937663 1
34.983322 37.436348 1.5081719 1
34.780407 32.184467 1.1150788 1
35.326405 47.204601 1.2113487 2
35.012249 43.406658 0.98315871 0
36.77879 42.353928 0.82146049 1
35.053413 37.511353 0.60218006 1
35.582115 32.926334 0.28260767 0
35.036079 37.492802 -0.30720031 1
42.142666 41.937218 -0.53025913 0
35.682945 33.019642 -0.57871723 1
42.178867 56.361141 -1.0431974 0
42.228512 52.353065 -1.1963632 0
42.13702 48.524391 -1.3315972 0
42.259399 45.222622 -1.4672744 0
42.200275 41.994545 -1.5849715 0
41.955715 38.824223 -1.6925625 0
42.007919 56.132717 -2.2792709 0
41.965137 52.026543 -2.3738832 0
41.965561 48.326939 -2.46105 1
18.455843 17.078335 -2.5271251 0
14.26322 19.059103 -2.460031 0
10.849715 12.494376 -2.3942869 0
9.4641724 10.898806 -2.3466685 0
8.4520006 9.7332039 -2.2866774 0
7.6047635 8.7575369 -2.2978418 0
6.8884411 7.9326301 -2.2676518 0
6.2570648 7.2055464 -2.2291784 0
5.7637863 6.6374941 -2.2087402 0
4.0851097 4.7043538 -2.1529975 0
2.9480667 3.3949513 -2.1034503 0
34.26849 39.199764 2.6066144 1
35.036045 37.244415 1.5051121 1
34.886944 32.068954 1.1150788 1
35.437016 47.026512 1.2097875 1
35.297188 43.464169 0.98710716 1
36.876923 42.183556 0.82052332 0
35.147469 37.362862 0.60166401 16
35.110886 37.323971 -0.30676931 12
1.9199133 1.7648325 -0.031042669 1
42.218704 56.026119 -1.039582 0
42.069088 51.802937 -1.1869732 0
42.1003 48.158577 -1.3253826 0
42.168018 44.825924 -1.4589323 0
42.145931 41.663223 -1.5777328 0
41.957657 38.568531 -1.6874719 0
41.991726 55.724907 -2.2683535 0
4.5738559 5.632144 -0.25767586 0
41.805557 38.428719 -2.6878185 0
18.635374 18.421938 -2.5531559 0
15.231426 17.423246 -2.5283623 0
3.2412715 3.7076941 -0.71255815 0
9.5522337 10.92681 -2.3595059 0
8.5334835 9.7614613 -2.2999518 0
7.6182685 8.7145462 -2.2931776 0
6.9198561 7.9156313 -2.2693396 0
6.2783618 7.1818252 -2.2282684 0
5.7857656 6.6183438 -2.2087402 0
4.1081524 4.6993203 -2.1569166 0
2.9497702 3.3742454 -2.0966706 0
34.376076 39.046925 2.6044145 1
34.443375 39.123367 1.687261 1
35.193336 37.150913 1.5062889 2
35.417305 34.768055 1.3117602 0
35.107948 32.046726 1.1185604 1
35.608208 46.912083 1.210034 1
35.413242 43.297356 0.98612005 1
35.244667 37.205101 0.60110104 255
6.2200904 8.1946659 0.029268155 0
2.6894543 3.2882123 -0.00037070792 0
35.251961 37.212799 -0.3068651 255
41.970448 41.201073 -0.52455127 2
1.9378783 1.7689059 -0.031233115 1
42.244747 55.655399 -1.0354332 0
35.61824 43.547993 -1.0006684 0
42.120159 47.843239 -1.3207422 0
35.272945 37.234951 -1.2158717 0
41.9972 41.227333 -1.5667682 1
41.970959 38.311321 -1.682618 0
42.01437 55.351887 -2.2591255 1
35.591305 43.51506 -1.9965265 1
40.492241 45.994125 -2.3562329 0
41.90406 44.234913 -2.5239685 0
41.809597 38.164028 -2.679497 0
18.492172 18.153183 -2.5248394 0
18.615753 16.992561 -2.5331249 0
9.5929251 10.896364 -2.3601477 0
8.5388775 9.6990967 -2.2922666 0
7.6901255 8.7350216 -2.3056152 0
6.9500279 7.8943629 -2.2701836 0
6.3136878 7.1715598 -2.2319078 0
5.824213 6.6155782 -2.2145886 0
4.1195345 4.679276 -2.1543038 0
2.9830775 3.3884029 -2.1119251 0
34.532215 38.935612 2.6054144 1
34.472473 38.868252 1.6816963 1
35.4314 37.1287 1.5106434 2
34.785614 33.898476 1.2837538 0
35.020702 31.732569 1.1120676 1
35.801781 46.809849 1.2107735 1
35.477592 43.05307 0.98351127 1
5.1935921 5.8558564 0.11462376 0
35.507816 37.208778 0.60325909 255
2.7142072 3.2937677 -0.00037245324 0
35.553806 37.256969 -0.30830184 255
42.038105 40.966007 -0.52351677 2
42.212521 38.249138 -0.67808235 0
42.245407 51.266006 -1.181567 0
41.960884 47.311554 -1.3103015 2
35.478199 37.177746 -1.2182416 0
42.016293 40.944756 -1.5618713 2
42.025169 38.079376 -1.6791848 0
42.003231 54.918079 -2.2476883 0
42.001755 50.970325 -2.3456311 0
40.440414 45.597202 -2.3434765 0
41.400955 43.384224 -2.484071 0
41.989918 40.919052 -2.5998437 0
41.892941 37.95956 -2.6759038 0
11.008854 12.412655 -2.4005878 0
9.6196995 10.846362 -2.3569384 0
8.5639153 9.6559486 -2.2894719 0
7.7090721 8.6920996 -2.3017285 0
6.9789162 7.8688374 -2.2701836 0
6.3244233 7.1308866 -2.2264488 0
5.8304029 6.5738707 -2.2077656 0
4.13164 4.6584892 -2.151691 0
2.9858603 3.3666043 -2.1051455 0
34.481625 38.606262 2.5914142 1
34.43483 38.553867 1.6732845 0
35.649441 37.09705 1.5144094 1
34.877869 33.75182 1.2828026 1
35.247192 31.714443 1.1157376 1
36.274918 47.086937 1.2212083 0
35.704285 43.021294 0.98562646 1
35.781597 37.234573 0.60569859 255
41.430756 53.779514 0.19313341 0
35.816673 37.271072 -0.30945122 255
42.163601 40.80233 -0.52330267 2
42.122776 37.900906 -0.67451149 0
41.372673 53.704121 -1.0046132 1
2.8606257 3.4468641 -0.079672188 0
41.979256 47.000748 -1.3057442 2
35.671486 37.119991 -1.2204219 0
42.173328 40.811745 -1.5624036 2
41.382206 53.716496 -2.2044084 2
41.993053 50.598843 -2.3352673 0
41.768143 43.464211 -2.4969838 0
41.931484 40.577709 -2.5874398 0
18.71493 20.953579 -2.5721273 0
18.70137 16.826973 -2.5283251 0
14.904307 19.346653 -2.5237625 0
9.6496115 10.803883 -2.3550129 0
8.57658 9.6024971 -2.2838829 0
7.7811861 8.7119589 -2.3141661 0
7.006341 7.8444281 -2.2701836 0
6.3674388 7.1291018 -2.2328179 0
5.8688197 6.5708385 -2.213614 0
2.9314682 3.2821257 -1.5206851 0
2.9855263 3.3426502 -2.0966706 0
35.018814 38.933311 4.4736347 0
34.514656 38.372795 2.5838144 1
34.56118 38.424519 1.6728964 0
35.956661 37.156269 1.5219414 0
34.834015 33.474712 1.2768842 1
35.623077 31.828341 1.1241124 1
35.815762 42.850372 0.98456889 1
35.941944 37.14106 0.60621464 69
41.512787 53.498676 0.19264409 0
35.988277 37.188938 -0.3098104 13
42.158684 40.513557 -0.5214833 0
42.126568 37.63905 -0.67246419 0
42.131184 54.29562 -1.0184228 0
42.26115 50.561703 -1.1721059 0
42.13504 46.845009 -1.3054956 2
35.695168 36.886047 -1.2168196 0
42.197323 40.55069 -1.5580391 0
40.533867 36.216011 -1.6094556 1
41.870922 53.960217 -2.2203948 1
42.000217 50.249523 -2.3258975 0
40.784485 45.343483 -2.3450136 0
41.947395 43.346867 -2.4986393 1
9.7057476 10.790683 -2.3595059 0
8.6074133 9.5695724 -2.2831841 0
7.8036771 8.675993 -2.3118339 0
7.025836 7.8112025 -2.2676518 0
6.3948908 7.1097288 -2.2337277 0
5.870966 6.5272379 -2.205816 0
2.9858875 3.3196578 -1.5428944 0
3.0068679 3.3429835 -2.1034503 0
35.125076 38.778343 4.4698896 1
34.693989 38.302418 2.5872142 1
34.622631 38.22364 1.6694022 1
36.331703 37.282513 1.532298 0
34.806011 33.21489 1.2716 1
35.973267 31.916111 1.1316403 2
34.824707 44.55756 1.1618857 0
35.887856 42.633297 0.98245364 1
35.238503 38.903564 0.76868784 0
36.026711 36.96954 0.60546398 4
36.036919 36.980015 -0.30911598 1
42.132034 37.38028 -0.67046452 0
42.262249 50.205814 -1.1672686 0
42.166752 46.552406 -1.3014354 0
42.162155 40.234753 -1.5515454 0
40.522461 35.952236 -1.6040097 1
42.002396 53.74128 -2.2174056 0
41.979721 49.870186 -2.3151076 0
41.959507 46.323608 -2.4032624 0
41.939465 43.037033 -2.489203 0
41.889957 39.975002 -2.5675938 0
2.0761061 2.1304386 -0.28135139 0
4.3289499 5.1426144 -0.71506017 0
9.7301035 10.742105 -2.3562965 0
8.6434088 9.542388 -2.2838829 0
7.8312812 8.645792 -2.3110566 0
7.0399356 7.772141 -2.263432 0
6.4562788 7.1277795 -2.2464659 0
5.9093413 6.5239568 -2.2116644 0
4.182735 4.6177702 -2.1529975 0
3.0087895 3.3217261 -2.0966706 0
35.311249 38.711441 4.4763589 1
34.835552 38.189938 2.5878143 1
34.666931 38.005081 1.6651317 0
36.46722 37.161175 1.5325333 0
34.846279 33.021679 1.2688522 1
36.14447 31.843216 1.1335223 2
34.910767 44.347744 1.1595851 0
36.051971 42.52607 0.98287666 1
35.525024 38.945801 0.77196783 0
36.113514 36.800739 0.60476029 0
99.436981 126.3165 0.45734337 2
41.194614 48.592213 -0.0055592228 0
36.115353 36.802612 -0.30868495 0
42.254681 40.042164 -0.51920021 0
34.705357 30.575361 -0.55057889 0
41.974838 53.321358 -1.0056207 1
41.29155 48.706554 -1.1357554 0
42.221188 46.286751 -1.2981209 0
42.18372 42.986454 -1.4277439 0
4.2868309 4.0623665 -0.15723036 0
36.057632 31.766716 -1.4228795 1
41.984482 53.333603 -2.2066181 2
42.024296 49.570885 -2.3080091 0
42.034748 46.082359 -2.3983443 0
41.87949 42.676437 -2.4767869 0
36.045086 31.755661 -2.2738278 0
18.990034 16.730188 -2.5435245 0
9.7968082 10.740163 -2.3633571 0
8.6846275 9.5208874 -2.2859788 0
7.8534794 8.6097069 -2.3087246 0
7.1039114 7.7879615 -2.2752471 0
6.4601192 7.0821776 -2.239187 0
5.9373064 6.5090213 -2.213614 0
4.2115669 4.6171074 -2.1595294 0
3.020366 3.3112032 -2.0966706 0
35.479862 38.638165 4.4814658 1
34.864727 37.968273 2.5806143 0
34.817108 37.916412 1.6662964 1
34.88863 32.842907 1.2664214 0
36.234818 31.710014 1.1330518 2
35.025341 44.190983 1.158517 1
36.166832 42.375866 0.9821716 1
35.889324 39.084076 0.77706355 0
42.188179 42.706779 -0.35937816 0
42.160069 39.687977 -0.51641762 0
35.041328 30.665562 -0.55429256 0
42.012306 53.00634 -1.0023017 3
42.184998 49.427216 -1.1558157 0
42.101257 45.848972 -1.2897518 0
42.213619 42.732533 -1.423952 0
42.143898 39.67276 -1.5409002 0
35.004387 30.633236 -1.3773009 0
41.984802 52.971638 -2.1973901 1
41.970455 49.175842 -2.2960837 0
35.469261 38.626621 -2.0164227 0
41.900005 42.415066 -2.4696681 0
41.957409 39.497204 -2.5551898 0
5.688777 4.978394 -0.35782105 0
15.322549 17.953087 -2.5107498 0
15.450859 16.826244 -2.4957802 0
9.7976551 10.66981 -2.3550129 0
8.6815224 9.4543228 -2.2768962 0
7.8740258 8.5749454 -2.3063924 0
7.1032534 7.7355618 -2.2668078 0
6.4677625 7.0435019 -2.2337277 0
5.9483633 6.4778671 -2.2097149 0
4.2012839 4.5752687 -2.1464653 0
3.0190773 3.2878256 -2.0881958 0
35.400757 38.282917 4.4545679 1
34.820751 37.655689 2.5676141 1
34.916676 37.759426 1.6647434 1
35.000137 32.718189 1.2663157 0
36.481113 31.701372 1.1372863 2
34.954838 43.787167 1.1511222 0
36.262394 42.188702 0.98076147 1
35.849033 38.767689 0.77325642 0
41.518246 38.811329 0.49697328 0
34.818031 37.652748 -0.15574273 0
42.125427 42.346573 -0.35758224 0
35.090794 30.49321 -0.55338794 2
42.214546 52.881252 -1.0027165 3
42.224323 49.124985 -1.1521878 0
35.595394 38.493401 -1.0863248 0
42.153835 42.375134 -1.416937 0
5.4068542 5.054337 -0.19704361 0
36.107033 31.376305 -1.4163682 1
41.962433 52.565434 -2.1866028 1
41.969883 48.828957 -2.2867136 0
35.622875 38.523121 -2.0174985 0
35.407112 33.098633 -2.14923 0
35.98595 31.271086 -2.2566175 0
5.6462035 6.568954 -0.76788479 0
13.284513 14.366076 -2.484709 0
9.8616457 10.664534 -2.3614314 0
8.7438841 9.4557695 -2.2845814 0
7.8932543 8.5358858 -2.3032832 0
7.1408305 7.7222023 -2.2701836 0
6.5002432 7.0294619 -2.2364573 0
5.9683051 6.454216 -2.2087402 0
4.2146621 4.5577998 -2.1451588 0
3.0526741 3.3012083 -2.1034503 0
35.546268 38.158741 4.4552488 1
34.928577 37.495651 2.5654142 1
35.052113 37.628269 1.6646141 1
34.987923 32.467297 1.26156 0
34.834366 43.309738 1.1419197 1
36.895878 42.608791 0.99366438 1
35.044903 37.620529 0.75293219 0
41.452045 38.465729 0.49448997 0
35.24662 30.402605 0.27134535 1
35.029415 37.603905 -0.15607072 0
42.17276 42.084522 -0.35667229 0
35.640846 33.073185 -0.4336538 0
35.175064 30.340881 -0.55295944 19
42.18248 52.445679 -0.99738228 0
42.254868 48.797558 -1.148133 0
42.125694 45.221722 -1.2805541 0
42.136196 42.048035 -1.4111544 0
35.705849 33.133503 -1.2968045 0
35.162144 30.329737 -1.3749332 8
41.961876 52.171406 -2.1765952 0
41.996792 48.499523 -2.2784793 0
3.1276665 3.3575344 -0.17643699 0
35.703938 33.131729 -2.159862 0
36.076118 31.118105 -2.2551048 0
35.226692 30.385414 -3.8508723 0
15.266305 18.980671 -2.5171838 0
11.28725 12.116806 -2.3960054 0
9.9033585 10.631206 -2.3620734 0
8.7650604 9.4092484 -2.2810881 0
7.8950677 8.4753151 -2.2947323 0
7.1584258 7.6845341 -2.2668078 0
6.5233088 7.0027394 -2.2355475 0
5.9734111 6.4124269 -2.2019172 0
4.2442241 4.5561533 -2.151691 0
3.0622835 3.2873461 -2.1017554 0
35.845577 38.211739 4.4760184 1
35.141243 37.460911 2.5714142 1
35.065628 37.380306 1.6590494 1
34.956955 32.212196 1.2563814 1
37.015472 42.446583 0.99288875 0
35.132225 37.451302 0.75199509 1
35.67083 32.870018 0.42415333 0
35.376835 30.3002 0.27153188 6
35.12215 37.440559 -0.15590066 1
42.163143 41.782207 -0.35535526 0
1.8884009 1.7401268 -0.022902742 0
35.286835 30.223114 -0.55305469 248
42.199139 52.093002 -0.99347055 0
42.283001 48.486992 -1.1442918 0
41.919392 44.686485 -1.2695334 0
42.194664 41.813446 -1.4082156 0
42.122799 38.815388 -1.5249323 0
35.295132 30.230221 -1.3759986 58
41.997684 48.159813 -2.2693932 0
41.934734 41.555862 -2.445498 0
41.972935 38.677288 -2.5309138 1
36.284664 31.077755 -2.2613456 0
2.4266443 2.9955869 -0.19353937 0
35.353737 30.280415 -3.8531823 4
11.283432 12.02825 -2.3862679 0
9.9458094 10.602331 -2.3633571 0
8.8301859 9.413065 -2.2894719 0
7.9433947 8.4677372 -2.3001738 0
7.1985807 7.673758 -2.2710276 0
6.5557075 6.9884491 -2.238277 0
6.0116825 6.4085131 -2.2077656 0
4.265275 4.5468249 -2.1543038 0
0.41644216 0.44393143 -0.28475395 0
36.236008 38.358715 4.5080237 1
35.450111 37.526783 2.5844142 1
35.091572 37.14724 1.6541318 1
34.807575 34.253105 1.4374415 1
34.933487 31.965805 1.2515199 0
35.242058 43.195637 1.1453707 1
35.240768 37.305176 0.75152647 27
35.944698 32.891113 0.42604205 1
35.512856 30.202442 0.27176505 9
35.492104 43.502113 0.1597231 0
35.205933 37.268299 -0.15569416 59
41.966614 41.298103 -0.35248178 1
1.9947934 1.8253312 -0.024115661 0
35.510941 30.200813 -0.55491149 255
35.546501 43.568787 -0.83326584 1
42.198643 48.050621 -1.1374627 0
35.368805 37.440712 -1.0671836 0
41.96983 41.30127 -1.395892 2
42.201984 38.616829 -1.5229098 0
35.494854 30.187132 -1.3796686 180
35.541744 43.562958 -1.8277576 1
41.915833 44.371265 -2.3470116 0
41.948502 41.280281 -2.4378827 0
41.94849 38.384869 -2.5213451 0
36.475101 31.0208 -2.2664521 0
35.562462 30.244631 -3.8644016 3
35.644699 30.314569 -4.7026606 0
15.255073 18.697903 -2.493747 0
35.221752 37.285046 -5.6036677 3
11.404187 12.072246 -2.402879 0
9.9258223 10.507277 -2.3498778 0
1.2522321 1.3255879 -0.32347438 0
7.9648204 8.4314003 -2.2978418 0
7.1984735 7.6201606 -2.2625883 0
6.5880866 6.9740171 -2.2410066 0
6.0233603 6.3762093 -2.2038665 0
4.2733321 4.523664 -2.1503844 0
3.0851586 3.2658875 -2.1017554 0
36.561974 38.434128 4.531858 1
35.586399 37.4086 2.5848143 1
35.361561 37.172249 1.6607317 0
35.101082 31.89476 1.2535279 1
35.268219 42.920952 1.1413447 1
35.390072 37.202221 0.7519365 255
35.670017 30.122166 0.27216145 6
35.798645 43.566475 0.16041726 0
35.388191 37.200245 -0.15592496 255
42.013245 41.056313 -0.35166761 2
35.753662 30.192801 -0.55705404 255
42.180904 51.333599 -0.98458016 0
97.778557 110.55743 -2.6251984 4
5.0524254 5.3111348 -0.1518866 0
41.973598 41.017567 -1.3912469 2
42.153046 38.302559 -1.5163096 0
35.728313 30.171392 -1.3846408 156
3.3046329 4.0216947 -0.16921997 0
35.461395 37.277199 -1.9783074 0
41.929409 40.974384 -2.4284463 1
41.972794 38.138775 -2.5147889 0
4.0050993 3.3821757 -0.24812959 0
17.778433 21.636116 -1.9022107 0
15.385924 18.724466 -2.5044374 0
35.472275 37.288631 -5.6227822 5
11.350759 11.931974 -2.3828311 0
10.003258 10.515474 -2.3595059 0
8.9174032 9.3740187 -2.2950611 0
7.983386 8.3921757 -2.2947323 0
7.2519779 7.6233158 -2.2710276 0
6.5989666 6.9368672 -2.2364573 0
6.0402331 6.3495231 -2.2019172 0
4.283885 4.5032415 -2.1477716 0
0.4320173 0.45413876 -0.29322878 0
36.638012 38.245834 4.5247078 0
35.564766 37.125484 2.5738142 1
35.535351 37.09478 1.6628023 1
34.767532 33.739182 1.4260256 1
35.203297 31.764004 1.2532108 0
35.581802 29.83552 1.0926831 0
35.430573 42.812992 1.1417555 0
34.965527 39.25824 0.92682308 0
35.624855 37.188213 0.75416219 255
35.672783 37.238247 -0.15660521 255
42.08741 40.842552 -0.35109293 2
42.136459 38.019814 -0.50617915 0
35.785282 30.006138 -0.55591136 17
42.160938 50.945713 -0.97995716 0
1.8034661 2.0248775 -0.048230127 0
35.687424 37.253529 -1.0689237 0
42.096436 40.851311 -1.3905833 2
42.238991 38.112328 -1.5146064 0
42.010761 50.764244 -2.1421533 0
41.533325 43.355972 -2.3085887 1
41.971798 40.730358 -2.422652 1
42.001831 37.898338 -2.5085869 1
41.877213 35.11425 -2.5868268 0
19.371771 16.243326 -2.5407248 0
35.676491 37.242111 -5.6345119 3
11.381387 11.880846 -2.3805399 0
10.037171 10.477642 -2.3588641 0
1.1606483 1.2115822 -0.29762438 0
7.996346 8.3472567 -2.2900681 0
7.281249 7.6007791 -2.2718716 0
6.6312246 6.9222283 -2.239187 0
6.0730944 6.3396058 -2.205816 0
4.3126545 4.5019107 -2.1543038 0
3.0778074 3.2128737 -2.0814159 0
35.732971 37.04137 2.5766141 1
35.786747 37.097115 1.6684964 1
34.792961 33.528831 1.4222597 1
35.614746 31.910429 1.263885 0
35.636559 29.670195 1.0911776 1
35.723183 42.861084 1.1463567 2
35.873852 37.187408 0.75668079 168
10.460739 8.7093744 0.079349339 0
35.902527 37.217133 -0.15704252 103
42.221081 40.687065 -0.35102108 0
42.131886 37.749718 -0.50453812 0
35.920544 29.906631 -0.55638748 2
42.179752 50.607746 -0.97628248 0
1.8051826 2.0126154 -0.048087854 0
35.714516 37.022236 -1.0658578 0
42.2071 40.673592 -1.3895406 0
40.516445 36.302299 -1.4482865 0
35.922714 29.908438 -1.3840489 1
42.036682 50.436092 -2.134485 0
5.9921923 6.6807528 -0.31872302 0
41.900871 43.435112 -2.3205767 0
41.958317 40.433849 -2.4137125 0
41.985054 37.618156 -2.499727 0
41.90741 34.891163 -2.5811529 0
11.469513 11.889481 -2.3902774 0
10.029825 10.397078 -2.3485942 0
8.9634867 9.2916937 -2.2901707 0
8.0472279 8.3418856 -2.2962871 0
7.2968779 7.5640597 -2.2684958 0
6.6418252 6.8850222 -2.2346375 0
6.1005735 6.3239522 -2.2077656 0
4.3230934 4.4813876 -2.151691 0
3.1116428 3.2255785 -2.0966706 0
35.836124 36.902607 2.5752141 1
36.062756 37.135983 1.675614 0
34.805759 33.319263 1.4182583 1
35.893608 31.946341 1.2700148 0
35.814877 29.618116 1.0936241 0
35.754581 42.610657 1.1428236 1
35.987553 29.760916 0.2722314 0
42.147736 40.347679 -0.34929699 0
42.140308 37.506084 -0.50314689 0
4.1549125 3.4360216 -0.06418024 0
42.121098 50.197975 -0.97106677 0
42.272846 46.817127 -1.121955 2
42.110657 40.312183 -1.3819567 0
40.585823 36.122547 -1.4464768 1
35.96315 29.740738 -1.3817996 0
42.003258 50.057537 -2.1243474 0
40.96698 45.370884 -2.1710079 0
41.922153 43.169754 -2.3138144 1
41.944931 40.153538 -2.4052694 0
40.572289 36.1105 -2.4084702 0
41.853531 34.611954 -2.5707512 1
2.0618637 2.1232247 -0.27096137 0
19.396009 16.040073 -2.529525 0
13.59837 14.003057 -2.4786623 0
11.569552 11.913861 -2.402879 0
10.113758 10.414743 -2.3601477 0
8.9832754 9.250617 -2.2873759 0
8.0666466 8.3067093 -2.2939548 0
7.3300929 7.5482364 -2.2710276 0
6.6754751 6.8741369 -2.238277 0
6.1079984 6.289772 -2.2028918 0
4.3247614 4.4534659 -2.1451588 0
0.54773152 0.56403202 -0.36780721 0
36.037342 36.851555 2.5804143 1
36.362667 37.184235 1.683508 0
34.646557 32.935863 1.4070779 1
36.043854 31.855278 1.2713886 1
35.918049 29.492918 1.0936241 0
36.008942 42.610825 1.1461923 0
35.332947 38.857639 0.92590648 0
36.070213 36.88517 0.75550932 2
41.081924 48.613895 0.1810711 0
36.115868 36.931854 -0.15687245 1
42.178158 40.095589 -0.34838706 0
42.16008 37.260754 -0.50182694 0
42.086121 34.557629 -0.64822996 0
41.167934 48.715672 -0.94516611 0
42.228836 46.441441 -1.1164776 0
42.206482 43.16008 -1.2508065 0
5.2748685 5.0144191 -0.17253131 0
40.567856 35.853558 -1.441367 2
35.93388 29.505919 -1.376709 0
41.984207 49.681602 -2.1145997 0
41.876965 42.823116 -2.303056 0
41.824146 39.759056 -2.3903699 0
40.593292 35.876038 -2.4022684 0
41.791912 34.316048 -2.559593 0
2.0135622 2.0590558 -0.26366767 0
11.555711 11.816796 -2.391423 0
10.122446 10.351149 -2.353729 0
9.0568151 9.2614412 -2.2978559 0
8.0873623 8.2700853 -2.2916229 0
7.3700643 7.5365806 -2.2752471 0
6.6939821 6.8452234 -2.2364573 0
6.1461897 6.2850547 -2.2087402 0
4.3587828 4.4572635 -2.1543038 0
0.55729645 0.56988782 -0.37289208 0
36.639484 37.206593 2.6142144 0
34.767128 32.820213 1.4073132 0
36.241982 31.805758 1.2744535 1
35.986683 29.339567 1.092589 3
3.1517899 3.7033408 0.099911816 0
35.603413 38.88155 0.92943186 0
36.212784 36.773285 0.75580221 0
35.977432 29.332024 0.27059919 2
36.115463 36.674458 -0.15631367 0
42.111343 39.753162 -0.3466869 0
35.029625 30.741798 -0.41567409 0
35.978592 29.332972 -0.55257857 3
42.187969 49.570702 -0.9646064 0
42.045418 42.696198 -1.2416087 0
42.152615 39.792122 -1.3741834 0
34.928452 30.653008 -1.2371912 0
35.943687 29.304514 -1.3731574 2
41.50182 48.764477 -2.0817175 0
41.992733 45.859154 -2.2083461 0
41.925228 42.574146 -2.297523 0
41.919083 39.571667 -2.3878868 0
36.095905 31.677559 -2.1295612 0
35.947098 29.307293 -2.1953418 3
11.608 11.787669 -2.3937142 0
10.188991 10.346696 -2.3607895 0
9.10567 9.2466078 -2.3020477 0
8.1189346 8.2445993 -2.2924004 0
7.3716364 7.4857349 -2.2676518 0
6.7397008 6.8440185 -2.2437363 0
6.1463156 6.2414484 -2.2009423 0
4.3637047 4.4312463 -2.1490781 0
0.58470434 0.59375441 -0.38984174 0
34.998161 32.808037 1.4120208 0
35.392651 28.650175 1.0715108 0
36.131168 42.154957 1.1406873 1
35.755188 38.77467 0.92985493 0
35.88633 33.640625 0.57694066 0
35.037266 30.532663 0.40638557 0
36.082706 29.208775 0.27062249 1
42.124199 42.478584 -0.18167759 0
42.057251 39.425377 -0.34510648 0
35.034199 30.529989 -0.41446117 1
36.077656 29.204685 -0.55253094 1
42.188965 49.22271 -0.96069467 0
35.635799 38.645199 -0.93501002 0
42.078743 42.432751 -1.2382114 0
35.071415 30.56242 -1.2384685 0
36.089268 29.214085 -1.3748147 0
42.02562 49.032131 -2.0993934 1
35.583748 38.588753 -1.8642104 0
41.95256 42.305504 -2.2909143 0
35.578136 33.351715 -2.0200355 0
36.085754 31.446352 -2.1224732 0
36.077129 29.204258 -2.1970439 0
1.364015 1.4792044 -0.1783725 0
11.702038 11.800487 -2.4045973 0
10.202804 10.288639 -2.3556547 0
9.1073847 9.1840048 -2.2943625 0
8.1587143 8.2273531 -2.2955096 0
7.3729429 7.4349709 -2.2600563 0
6.7662921 6.8232164 -2.2446461 0
6.162601 6.2144465 -2.198993 0
4.3711596 4.4079337 -2.1451588 0
0.58932453 0.59428245 -0.39153668 0
29.896711 29.938484 3.6145906 0
34.843231 32.435036 1.4011935 1
36.457096 31.54673 1.2742422 1
36.233673 41.977116 1.1392906 1
41.463501 38.597744 0.66443413 0
35.195049 30.454666 0.40698016 1
35.348896 28.411087 0.26437342 0
35.735306 38.482697 -0.0045828857 1
41.392418 38.531574 -0.33854535 0
35.137527 30.40489 -0.41442549 8
2.5977149 3.0094821 -0.058913596 0
35.683388 38.426792 -0.93273365 0
42.130527 42.189392 -1.2353941 0
35.659302 33.194706 -1.1549169 0
35.102287 30.374397 -1.2358073 2
41.495178 33.351059 -1.5763075 1
41.971859 48.62487 -2.0882161 0
41.888153 41.946678 -2.2793875 0
35.609505 33.14835 -2.0152347 1
36.104649 31.241753 -2.1171575 1
41.438908 33.305832 -2.5164728 3
10.286082 10.300454 -2.3665664 0
9.1505194 9.1633053 -2.297157 0
8.1901569 8.2016001 -2.2962871 0
7.4181914 7.428556 -2.2659638 0
6.7790594 6.7885308 -2.2410066 0
6.1815157 6.1901526 -2.1980183 0
4.3972054 4.4033494 -2.1503844 0
0.58627504 0.58709425 -0.38814676 0
34.61327 34.42049 1.5801086 0
34.962109 32.318642 1.4014289 1
36.609455 31.455761 1.2757217 1
34.919788 27.866121 1.0512793 0
35.126301 37.563057 0.90665793 1
35.201 32.539471 0.56225681 0
35.313278 30.342054 0.40712005 2
35.488499 28.319954 0.26467654 0
20.465979 21.885729 -0.0026148523 0
35.716805 33.016277 -0.29118061 1
35.200974 30.24556 -0.41392606 130
42.114368 48.447041 -0.95127088 0
42.147095 41.912361 -1.2315824 0
35.807255 33.099888 -1.1559597 0
4.6826868 4.0234818 -0.16436268 0
42.155117 33.639942 -1.5969067 0
41.981342 48.294014 -2.0802879 0
41.957352 44.867985 -2.1816556 0
41.886936 41.653652 -2.2713957 0
41.958454 38.785995 -2.3668618 0
36.140743 31.053032 -2.1129045 0
41.9328 33.462532 -2.5393567 1
35.362572 30.384411 -4.5426936 0
10.338773 10.281192 -2.3704176 0
9.1768646 9.1257544 -2.2957597 0
8.2242994 8.1784954 -2.2978418 0
7.4246688 7.3833175 -2.2600563 0
6.7971902 6.7593336 -2.239187 0
6.1975837 6.1630664 -2.1960688 0
4.4179106 4.3933053 -2.1529975 0
0.55235362 0.54927731 -0.36441728 0
34.443058 34.012928 1.5669087 1
35.021687 32.147736 1.3993105 1
36.639946 31.260303 1.2729739 0
34.994904 27.726677 1.0506207 1
36.570629 41.774288 1.1406873 0
35.227043 37.408188 0.9058823 4
35.208294 32.319027 0.56056792 1
35.42202 30.221201 0.40715504 5
5.3720818 5.7047033 -0.00068381999 0
42.168259 41.641655 -0.17997696 0
42.061153 38.609528 -0.34180197 0
35.379364 30.184807 -0.41478223 255
35.431602 28.072676 -0.53810465 0
42.167305 48.16732 -0.948663 0
35.218723 37.399349 -0.91374034 0
41.917534 41.394062 -1.2206446 1
2.6336546 2.4175313 -0.084748894 0
35.36824 30.175318 -1.2377235 138
35.465599 28.099611 -1.3397726 0
42.015366 47.993763 -2.0736594 0
41.984909 44.584476 -2.174983 0
41.915478 41.392033 -2.2650943 1
41.937542 38.496059 -2.3580878 1
36.385719 31.043406 -2.1208785 0
3.9208899 3.1065452 -0.23678221 0
35.215572 37.396004 -2.7342992 0
35.456894 30.250956 -3.7164299 1
35.404819 30.206526 -4.5345478 1
16.181261 17.183151 -2.5107498 0
13.877351 13.704049 -2.4766467 0
10.388644 10.25891 -2.3736269 0
9.2086639 9.0936651 -2.2957597 0
8.2974691 8.1938496 -2.3102794 0
7.4503965 7.3573551 -2.2600563 0
6.7902565 6.7054591 -2.2291784 0
6.2162991 6.138669 -2.1950941 0
4.4278393 4.3725443 -2.1503844 0
0.57231355 0.56516641 -0.37628201 0
30.447609 29.858168 3.6431916 0
33.994476 33.336372 2.3836131 0
34.644352 33.973667 1.5706617 0
37.066139 31.401022 1.2839651 0
35.119762 27.626604 1.0514675 1
35.3409 37.267582 0.90545928 28
4.8431487 4.7493892 0.099336684 0
35.264729 32.144733 0.55967653 1
35.563915 30.128397 0.40757474 4
35.329876 37.255959 -0.0044806092 54
42.016342 41.202938 -0.1787136 0
42.148369 38.419357 -0.34141883 0
35.600487 30.159376 -0.41613784 255
42.31649 33.287838 -0.64089781 0
42.131519 47.788826 -0.94409931 0
35.38483 37.313908 -0.9146651 0
41.92757 41.115887 -1.21675 2
42.166843 38.436195 -1.3525696 0
35.589291 30.149893 -1.2417686 255
35.519474 27.941032 -1.3381152 0
40.530231 45.972523 -1.9924287 0
41.983494 44.272308 -2.1668909 0
41.908455 41.097141 -2.2569487 1
41.950562 38.239048 -2.3513002 1
36.585327 30.993696 -2.1261945 0
35.454475 27.889902 -2.1352005 1
35.013371 39.71487 -2.6580076 0
35.172737 37.090252 -2.7209041 0
35.653545 30.204325 -3.7259681 0
35.60421 30.162533 -4.5465727 1
16.142628 18.310217 -2.5225289 0
35.506634 37.442348 -5.4890389 0
13.814608 13.547168 -2.4569948 0
10.43003 10.228113 -2.3749106 0
9.1953573 9.0173435 -2.2845814 0
8.2699909 8.10989 -2.2947323 0
7.4564915 7.31214 -2.2541487 0
6.8442135 6.7117152 -2.239187 0
6.2626176 6.1413789 -2.2038665 0
4.4511733 4.3650022 -2.1543038 0
0.55358797 0.542871 -0.36272231 0
16.646364 16.21051 1.9850286 0
33.930317 33.041916 2.3710132 1
34.645298 33.738174 1.5653558 1
35.491302 32.125156 1.4090786 0
37.273441 31.353809 1.2873471 0
34.967007 27.309393 1.0440336 0
35.526012 37.201839 0.90686941 172
35.720901 30.047842 0.40816933 3
35.634949 27.831059 0.26358062 1
35.553635 37.230762 -0.0044924775 255
42.073936 40.972309 -0.17834918 0
42.110226 38.11631 -0.34002998 0
35.843285 30.150787 -0.41774318 255
42.347317 33.073452 -0.63961232 0
1.7605391 1.9829428 -0.039295487 0
35.531441 37.207523 -0.91509193 1
42.027855 40.927433 -1.2155071 2
42.128803 38.133125 -1.3470713 0
35.813656 30.125864 -1.2459203 255
42.312859 33.046539 -1.5896851 0
40.496696 45.612522 -1.9829409 0
41.905872 43.882648 -2.1549652 0
41.922791 40.825119 -2.2500327 0
41.891193 37.918053 -2.3405395 1
41.855247 35.207951 -2.4253039 0
42.069931 32.856812 -2.5266855 1
35.050999 39.478889 -2.6503863 0
16.320055 17.089903 -2.5137117 0
10.420411 10.147572 -2.3646407 0
9.2662811 9.0236607 -2.2943625 0
8.3010588 8.0837107 -2.2955096 0
7.5211868 7.3242583 -2.2659638 0
6.8703899 6.6905012 -2.2400968 0
6.2979131 6.1330137 -2.2087402 0
4.4501314 4.3336129 -2.1464653 0
34.030266 32.908588 4.0442829 0
34.01099 32.88995 2.368613 0
34.860569 33.711525 1.5697558 1
35.65675 32.049187 1.4111969 0
35.470711 29.626579 1.2215054 0
35.055801 27.182268 1.0438455 1
34.966911 39.108364 1.0778316 1
35.747135 37.172729 0.9091962 41
35.834782 29.930664 0.40827426 1
35.583313 27.591301 0.2624847 1
35.758236 37.184277 -0.004501902 76
42.133316 40.744556 -0.1779969 0
42.22517 37.953049 -0.33988631 0
42.336075 32.827393 -0.63770783 0
1.7887768 2.000638 -0.039769642 0
35.680508 37.103447 -0.91558987 0
42.187714 40.797157 -1.2160043 1
42.112949 37.85218 -1.3423314 0
42.254177 32.763885 -1.5831739 0
41.740147 43.404743 -2.1386387 0
41.878281 40.497925 -2.2400427 0
41.928181 37.686104 -2.3352418 0
42.005493 35.084694 -2.4268987 0
42.089645 32.636311 -2.5210118 0
35.140659 39.302689 -2.6467762 0
35.189941 36.593319 -2.7024062 0
16.370838 18.309786 -2.5381534 0
16.354799 17.007029 -2.5099037 0
10.489827 10.144071 -2.3723433 0
9.2948914 8.9885216 -2.2936637 0
8.3433294 8.0683241 -2.2993963 0
7.5242224 7.2762151 -2.2592125 0
6.8713021 6.6448159 -2.2328179 0
6.3109164 6.1029015 -2.205816 0
4.4679494 4.3206806 -2.1477716 0
0.59382749 0.57425427 -0.38645181 0
34.277161 32.916584 4.0599456 0
33.97863 32.629906 2.358413 1
34.611813 33.237953 1.5533205 0
36.224792 32.331867 1.4292033 0
35.53698 29.471951 1.2202371 0
35.172653 27.076811 1.0445042 1
35.068428 38.94743 1.0767635 0
35.879456 37.050598 0.90926671 7
35.805309 31.95746 0.5629136 0
35.908257 29.77986 0.4079245 0
35.562134 27.376644 0.26162195 1
35.926773 37.099461 -0.0045067891 8
42.185844 40.511349 -0.17762034 0
42.097771 37.573696 -0.33780301 0
35.988251 29.846201 -0.41699401 1
42.358494 32.608658 -0.63632709 0
42.196098 46.863514 -0.93449765 2
35.807022 36.975796 -0.91551876 0
42.107758 40.436359 -1.2096239 0
40.562187 36.20314 -1.2888657 1
35.946156 29.811291 -1.243259 1
42.387291 32.630825 -1.5838842 0
40.81414 45.328693 -1.9829409 0
41.97205 43.34206 -2.1427557 0
41.8983 40.235218 -2.2335877 0
40.571621 36.211555 -2.2526326 0
41.967758 34.805199 -2.4176846 1
42.143154 32.442883 -2.5174184 1
35.298008 36.450172 -2.7009177 0
19.729019 18.945908 -1.5359695 0
16.232313 18.027811 -2.5069044 0
16.499842 15.844908 -2.4992557 0
14.124578 13.563927 -2.4867246 0
10.533716 10.115598 -2.3742688 0
9.340414 8.9696617 -2.297157 0
8.3601217 8.0282803 -2.2962871 0
7.5749564 7.274281 -2.2668078 0
6.9113121 6.6369791 -2.238277 0
6.3433738 6.0915842 -2.2097149 0
4.47755 4.2998209 -2.1451588 0
0.58276194 0.55963016 -0.37797698 0
34.466873 32.879765 4.069479 1
34.182041 32.608047 2.3650131 1
34.591671 32.998814 1.547497 0
35.999725 31.917139 1.4161398 1
35.594395 29.320892 1.2188632 0
35.306725 26.99403 1.0458215 1
35.26453 38.905003 1.0788176 0
36.016083 36.945732 0.90961921 1
35.671787 27.273142 0.26176187 1
36.013306 36.942879 -0.0045022513 1
42.144318 37.364895 -0.33718044 0
36.065414 29.708895 -0.41674429 0
42.386963 32.40728 -0.63513684 0
42.241142 46.60183 -0.93206763 0
42.085361 40.147438 -1.2051493 0
18.333241 16.254139 -0.58082378 0
36.020123 29.671587 -1.2424073 0
42.396805 32.414806 -1.5802143 0
3.5441296 3.9100015 -0.17155941 0
41.962074 43.0452 -2.1349475 0
41.930271 39.999489 -2.2282085 0
40.562885 35.962807 -2.2455142 0
41.950321 34.556587 -2.4100649 0
42.123543 32.205883 -2.5098536 0
35.281269 38.923466 -2.6373498 0
35.141964 33.523766 -2.7272484 0
11.90752 11.35921 -2.3811126 0
10.49864 10.015204 -2.3588641 0
9.3359098 8.9060154 -2.2887733 0
8.3866987 8.0005131 -2.2962871 0
7.5933785 7.2437234 -2.26512 0
6.9163723 6.5978909 -2.2328179 0
6.3719606 6.0785484 -2.2126391 0
4.4999909 4.292778 -2.1490781 0
0.61345202 0.58520412 -0.39662158 0
34.130074 32.331673 4.0163631 0
1.2268128 1.162169 0.084600471 0
34.671818 32.844872 1.5459441 0
36.104919 31.785997 1.4159045 1
35.903904 29.366081 1.2259442 0
35.438957 26.899633 1.0469508 1
35.534931 38.929356 1.0829258 0
36.206467 36.882576 0.91117042 0
2.008394 1.768147 0.031385045 0
35.949127 29.40307 0.40610576 0
35.779514 27.158131 0.26185513 1
36.153248 36.828365 -0.0045036473 0
42.126671 39.90691 -0.17622338 0
34.84996 30.681158 -0.27796254 0
42.224911 34.536083 -0.48652276 0
42.391502 32.176903 -0.63351804 0
7.574182 8.2976952 -0.16648722 0
42.213211 43.001492 -1.0718043 0
42.161373 39.939781 -1.2033263 0
34.88282 30.710087 -1.1017356 0
35.974911 29.424156 -1.2372977 0
42.426891 32.203766 -1.5771362 0
41.930317 45.935654 -2.0219316 0
41.958054 42.74157 -2.1271391 0
41.88393 39.676956 -2.2183723 0
36.05061 31.738184 -1.9895744 1
35.887371 29.352558 -2.0558469 0
42.248436 32.06831 -2.5106101 1
35.16106 38.519772 -2.6182969 0
35.220707 35.878414 -2.6762538 0
35.154396 33.302021 -2.7191751 0
19.794415 15.024779 -2.4975259 0
16.357332 17.919842 -2.5073156 0
11.981587 11.350246 -2.3879862 0
10.5536 9.9975033 -2.3633571 0
9.3955345 8.9004593 -2.2957597 0
8.4373627 7.9927764 -2.3025057 0
7.604425 7.2037282 -2.2609003 0
6.959156 6.5924602 -2.239187 0
6.3931403 6.0562692 -2.2126391 0
4.5122037 4.2744441 -2.1477716 0
0.61812139 0.58555096 -0.39831656 0
34.077259 32.056683 3.9969556 1
34.158607 32.133209 2.3478129 1
34.690163 32.633247 1.5416735 1
36.317997 31.749247 1.4199059 1
36.055859 29.280909 1.2276351 2
35.669968 26.879248 1.050997 1
34.926334 37.995411 1.0603306 0
35.467861 33.364834 0.71310383 0
14.719191 12.867538 0.22931257 0
36.036018 29.264799 0.40593088 2
36.011459 27.136581 0.26285779 1
42.172485 39.671913 -0.17583466 0
35.020084 30.614609 -0.27846539 0
36.008018 29.242058 -0.41371199 2
42.561062 32.07206 -0.63437504 0
42.129688 42.617805 -1.0659 0
42.163631 39.663582 -1.1994318 0
5.9370065 5.1901398 -0.18694051 0
36.02153 29.253031 -1.2353815 2
42.452831 31.990503 -1.5739398 0
35.551067 38.675041 -1.707796 0
41.817532 42.302032 -2.1125162 0
41.891159 39.407269 -2.2114563 0
36.043831 31.509567 -1.9831181 1
36.002018 29.237186 -2.0565557 3
42.277153 31.85812 -2.505693 0
35.222309 38.317394 -2.6128817 0
35.174438 35.581974 -2.6632841 0
35.226791 33.138058 -2.7158113 0
11.951931 11.243255 -2.3742392 0
10.582682 9.9551935 -2.3620734 0
9.4064646 8.8487177 -2.2908692 0
8.450922 7.9498339 -2.298619 0
7.6152849 7.1637449 -2.2566807 0
6.9679399 6.5547833 -2.2346375 0
6.4142413 6.033916 -2.2126391 0
4.5160818 4.2483058 -2.1425459 0
0.60696661 0.57097721 -0.38984174 0
31.738947 29.6385 3.7099266 0
1.2555368 1.1724467 0.086000472 1
34.917648 32.606838 1.5464618 0
36.391842 31.579233 1.4182583 1
36.103783 29.100882 1.2256271 0
35.912354 26.856098 1.0552316 1
35.027321 37.826061 1.0591803 0
4.2181721 3.939018 0.084518179 0
35.112148 30.468769 0.54527414 0
36.146152 29.135035 0.40596583 0
36.069035 26.973269 0.26255468 1
6.7035766 6.2599416 -0.027854154 0
35.089764 30.449347 -0.27813014 5
36.127415 29.119928 -0.41385469 0
35.645012 38.493111 -0.77743423 0
42.169903 42.346912 -1.0629834 0
35.615322 33.258339 -1.0096772 0
35.08054 30.441339 -1.101072 3
36.137844 29.128336 -1.2357008 0
42.521767 31.798771 -1.5721641 0
35.624672 38.471142 -1.7045468 1
42.000504 42.1768 -2.1139359 0
35.570366 33.216358 -1.8713386 1
36.107761 31.332718 -1.9803036 1
36.140049 29.130114 -2.0583277 0
42.316841 31.645523 -2.5011539 0
35.160873 35.308464 -2.6524403 0
35.161205 32.834274 -2.7014585 0
19.955606 14.923269 -2.5043259 0
16.482439 17.799414 -2.5069044 0
14.039963 13.110814 -2.4393585 0
12.079861 11.280429 -2.391423 0
10.619099 9.9163389 -2.3620734 0
9.4647398 8.8383741 -2.297157 0
8.4857378 7.9241614 -2.3001738 0
7.6272016 7.1224422 -2.252461 0
6.9976115 6.5345173 -2.2364573 0
6.4221368 5.9971271 -2.2077656 0
4.5426755 4.2420464 -2.1477716 0
0.64083207 0.59842253 -0.41018131 0
1.2420455 1.1517586 0.084800467 4
34.92572 32.386894 1.541803 0
36.69268 31.616434 1.4256727 1
35.583878 28.477484 1.2045958 0
36.047623 26.761568 1.0564548 1
35.009136 37.542702 1.0546613 0
36.573788 33.915157 0.73044091 0
35.24556 30.369516 0.54569638 1
35.454411 28.373873 0.39708197 0
36.294647 26.944958 0.26351067 0
35.038208 37.573875 0.14615871 1
41.469799 38.455269 -0.17175311 0
35.150387 30.287508 -0.27777097 63
42.593575 31.621248 -0.63147074 0
35.026318 37.561127 -0.76107597 0
42.133392 42.015896 -1.0583596 0
35.681347 33.087589 -1.0082685 0
35.110851 30.253443 -1.0987021 101
41.524719 33.231892 -1.4159249 0
42.603615 31.628702 -1.5710986 0
42.002548 45.042221 -2.0021763 0
41.909698 41.792828 -2.1020105 0
41.823307 38.783081 -2.193167 0
36.095806 31.102135 -1.9736817 1
41.526733 33.233501 -2.3585005 2
42.433464 31.502384 -2.5015321 1
35.312195 35.213718 -2.6545665 0
35.142662 30.280853 -4.3874998 0
20.10025 14.922321 -2.5159254 0
16.547184 17.744682 -2.5073156 0
10.685493 9.908741 -2.3691339 0
9.5157499 8.824029 -2.3020477 0
8.5018387 7.883821 -2.2970643 0
7.6864209 7.1276784 -2.2625883 0
7.0175223 6.5074034 -2.2355475 0
6.431653 5.9641223 -2.2038665 0
4.5463662 4.2158809 -2.1425459 0
0.64557374 0.59864557 -0.41187626 0
32.141521 29.597082 3.732739 0
1.2254868 1.1284728 0.083400458 4
35.088558 32.310822 1.544003 1
36.845348 31.524549 1.4273202 0
35.085114 27.877977 1.18441 0
36.556084 26.941622 1.0685936 0
35.15366 37.434841 1.0550721 2
35.144363 32.362209 0.69963247 1
35.351353 30.246302 0.54569638 2
35.158195 37.439674 0.14611319 4
35.768833 32.937244 -0.14766467 0
35.319721 30.219234 -0.27827382 255
42.780968 31.529325 -0.63261342 0
35.198288 37.482368 -0.76196498 0
42.20023 41.789772 -1.0563678 0
2.6417956 2.4326615 -0.074410349 0
35.307396 30.208691 -1.101546 255
42.247807 33.569321 -1.4365767 0
42.684795 31.458447 -1.5700331 0
41.918686 44.638866 -1.9907391 0
41.924671 41.516895 -2.0954797 0
41.958431 38.636852 -2.193167 1
36.237556 31.004528 -1.9755027 1
41.964741 33.344398 -2.3767519 0
42.462761 31.294809 -2.496804 0
35.257366 32.466267 -2.6913667 0
35.371044 30.263147 -3.577796 0
35.417599 30.302979 -4.4085917 1
16.740303 15.415079 -2.486223 0
14.239156 13.111933 -2.4580026 0
12.149581 11.187777 -2.3897047 0
10.696781 9.8499861 -2.3639989 0
9.5146236 8.7614117 -2.2943625 0
8.5379658 7.8620696 -2.2993963 0
7.7141314 7.1034527 -2.263432 0
7.040195 6.4828677 -2.2355475 0
6.4581399 5.9468904 -2.205816 0
4.5833039 4.2204728 -2.1529975 0
0.65299004 0.60129702 -0.41526619 0
33.235832 30.39106 3.8474827 0
1.2441596 1.1376675 0.084400468 1
35.242435 32.22591 1.5458148 1
37.159321 31.569189 1.4352053 1
35.066055 27.663704 1.1804997 1
36.698315 26.84927 1.0700052 1
35.317089 37.346775 1.056058 5
35.209888 32.196152 0.6986953 1
7.053546 5.9924321 0.10855754 0
35.296913 37.325443 0.14614733 36
42.2686 38.650684 -0.17393966 0
35.528633 30.183815 -0.27908799 255
35.491425 27.999279 -0.40318817 0
35.345394 37.376709 -0.76232058 3
41.97514 41.277668 -1.0471201 1
2.608953 2.3856435 -0.073250279 0
35.543671 30.196592 -1.1056223 255
35.45829 27.973139 -1.2023811 0
42.691086 31.233709 -1.5662447 0
41.909431 44.317982 -1.9829409 0
41.975277 41.277805 -2.0907948 1
41.904259 38.317528 -2.1833308 0
35.492737 30.15332 -1.9291489 0
42.055779 33.177914 -2.3753343 0
42.455654 31.061462 -2.4899957 0
35.429008 34.840309 -2.6449986 0
35.178909 32.16782 -2.6767895 0
35.56461 30.21438 -3.5866852 1
35.277908 37.305344 -4.396328 0
35.532261 30.186897 -4.4097214 1
35.246773 37.272419 -5.3012166 2
16.890846 15.4451 -2.5005591 0
10.803941 9.8791933 -2.3800457 0
8.5827312 7.8481054 -2.3040605 0
7.7215672 7.0606508 -2.2583685 0
7.0742798 6.4687672 -2.239187 0
6.4817219 5.9269285 -2.2067907 0
4.5840578 4.1916924 -2.1464653 0
0.63369447 0.5794543 -0.40170649 0
33.11517 30.0797 3.8219461 0
35.054283 31.841068 2.3708131 1
35.37574 32.13306 1.5469794 1
35.299011 29.78776 1.359532 0
35.009666 27.431356 1.1755325 0
35.446259 37.235249 1.0562224 14
35.366791 32.124931 0.69969106 1
35.620605 30.059143 0.54668152 2
35.637657 27.92341 0.39589277 1
35.467384 37.257442 0.14634077 211
42.174473 38.308594 -0.17302859 0
35.76915 30.184496 -0.28018948 255
42.299778 33.143425 -0.47928092 0
150.7836 109.5507 -2.2185986 4
35.480183 37.270882 -0.76255769 8
42.020241 41.048817 -1.0448438 2
42.100491 38.241394 -1.1784676 0
35.756691 30.173981 -1.1091298 255
35.531975 27.840603 -1.2017424 0
4.9101992 3.5674684 -0.17970972 0
35.470852 37.261082 -1.6724443 0
41.991825 41.021057 -2.084832 1
41.912746 38.070858 -2.1771832 0
35.513119 29.968439 -1.9248446 0
35.553707 27.857632 -2.0028648 1
42.587517 30.941641 -2.4916978 0
35.577171 37.372768 -2.5904191 0
35.544346 34.722633 -2.6449986 0
35.176006 31.951635 -2.6684918 0
35.679852 30.109137 -3.5882177 0
35.521065 37.313831 -5.3238311 4
14.363323 13.046724 -2.4640493 0
12.225451 11.104818 -2.3897047 0
10.784037 9.7955294 -2.3684921 0
9.6410923 8.7573519 -2.3104315 0
8.5854731 7.7984953 -2.2978418 0
7.7536206 7.0428929 -2.2609003 0
7.0726252 6.4243207 -2.2319078 0
6.4984689 5.9027934 -2.205816 0
4.5951338 4.1739259 -2.1451588 0
0.64097631 0.58222187 -0.40509641 0
33.252518 29.993288 3.8256915 1
35.174114 31.726538 2.371413 0
36.137833 32.595798 1.5753205 0
35.399712 29.661795 1.3594142 0
35.048397 27.26479 1.1736301 1
35.614761 37.151707 1.0573727 10
35.410404 31.939669 0.69834387 1
35.762104 29.965446 0.54724449 1
35.706497 27.776739 0.395578 0
35.680264 37.220036 0.14668216 93
42.088142 37.962894 -0.17212968 0
35.904953 30.085142 -0.28042895 67
42.162647 32.799095 -0.47642699 0
42.837357 30.895275 -0.62870926 0
35.648811 37.187229 -0.76338744 2
42.128826 40.868469 -1.0439901 2
42.088215 37.962959 -1.1744074 0
35.883255 30.066959 -1.1097934 25
42.335602 32.93364 -1.4279541 0
42.867023 30.916672 -1.5649425 0
41.571037 43.365025 -1.9529181 1
41.991302 40.735058 -2.0777335 0
41.92963 37.819916 -2.1711893 0
41.912685 35.119083 -2.265049 1
42.151318 32.790283 -2.3680692 0
42.555912 30.692291 -2.4835656 0
35.914753 37.464645 -2.6054611 0
35.287327 31.828653 -2.6684918 0
35.706165 37.247059 -5.3320546 1
16.963108 15.300476 -2.4957802 0
12.261202 11.059425 -2.3891318 0
10.862141 9.797492 -2.3781199 0
9.6569805 8.7104559 -2.3069382 0
8.6155577 7.7711077 -2.298619 0
7.792675 7.0288796 -2.26512 0
7.0805454 6.386549 -2.2273586 0
