# .PCD v0.7 - Point Cloud Data file format
VERSION 0.7
FIELDS x y z intensity
SIZE 4 4 4 4
TYPE F F F F
COUNT 1 1 1 1
WIDTH 1390
HEIGHT 1
VIEWPOINT 0 0 0 1 0 0 0
POINTS 1390
DATA ascii
-11.538207 9.8024349 -1.2072277 24
-11.013197 10.067013 -1.235117 21
-15.381605 9.6189642 -1.5533715 10
-14.223293 9.6298914 -1.5227007 5
-13.092372 9.5751524 -1.4849997 12
-11.993066 9.4613562 -1.4447978 16
-11.053033 9.3902483 -1.4131187 13
-10.222883 9.3445978 -1.3919587 16
-15.474183 9.6768589 -1.8860375 3
-14.142973 9.57551 -1.8168453 5
-13.075778 9.5630159 -1.7698536 3
-12.536325 9.1684847 -1.9722474 6
-11.072029 8.0975676 -1.9847379 1
-8.2666273 6.0458269 -1.665005 0
-8.8536148 6.4751225 -1.9457368 1
-8.0444603 5.8833442 -1.9744648 2
-7.4071012 5.4172096 -1.9807141 1
-6.8917108 5.040277 -1.9944322 1
-6.3660092 4.6558032 -1.9816279 1
-4.6170793 3.3767173 -1.9766293 2
-0.68140191 0.49834567 -0.39492664 0
-7.4442205 5.4843411 0.78992563 0
-35.029549 25.807135 2.1782119 0
-12.395283 9.1319113 0.49836186 0
-32.931599 26.166838 1.2380779 1
-22.586685 19.324957 0.7856611 20
-19.844841 18.267454 0.63470095 5
-16.622225 10.475677 0.40367332 255
-11.749993 8.6565113 0.21372615 0
-9.1315136 7.2557316 0.1367994 0
-30.410637 26.019058 0.34996936 1
-28.034258 25.805925 0.22212218 1
-11.928652 7.5176892 0.040112849 0
-118.80283 81.041824 -0.012549964 3
-34.661049 25.535652 -0.13074325 22
-30.984838 24.61998 -0.23691948 26
-28.93656 24.757851 -0.33965266 24
-24.698601 22.735405 -0.39960295 11
-16.745718 10.553506 -0.29332334 0
-9.57792 6.5336161 -0.20622291 0
-33.588047 24.745144 -0.86441952 12
-31.552769 25.071247 -0.9553684 9
-29.058107 24.861845 -1.0181118 8
-24.363003 22.426483 -0.98047155 9
-38.323315 26.142401 -1.6475638 0
-33.847195 24.936066 -1.6165193 2
-31.105911 24.716181 -1.645728 3
-28.705866 24.560471 -1.6752264 2
-11.138444 10.253093 -0.71658766 19
-18.818571 11.859861 -1.1167121 1
-17.168449 11.711526 -1.1062642 12
-14.571914 10.735489 -1.0163548 31
-14.66223 11.650337 -1.107358 1
-11.600208 9.9250298 -0.94685501 15
-10.942379 10.072612 -0.96750015 17
-15.318038 9.6537514 -1.2299174 21
-14.519358 9.9044371 -1.2469016 22
-13.896837 10.238144 -1.274837 11
-12.73991 10.122896 -1.2506347 18
-11.473624 9.8167257 -1.2040483 23
-10.910533 10.043298 -1.2275274 21
-15.27376 9.6258469 -1.545864 14
-14.136927 9.6435604 -1.5170492 11
-12.949832 9.5404615 -1.4726003 11
-11.956846 9.5006886 -1.4444211 14
-11.005063 9.4158297 -1.4111792 13
-10.116998 9.3128376 -1.3819591 19
-15.346062 9.6714134 -1.8745247 2
-14.037169 9.575511 -1.8075367 5
-13.01991 9.5920897 -1.7668127 4
-12.852473 9.4687347 -2.0271719 1
-10.986327 8.0938988 -1.9744276 1
-9.7998438 7.2197876 -1.9788783 0
-8.8341312 6.5083227 -1.9464355 0
-8.0365124 5.9206972 -1.9775742 2
-7.3661122 5.4267974 -1.9748065 1
-6.8709402 5.0619917 -1.9935224 2
-6.3497195 4.6779952 -1.9816279 1
-4.6174402 3.4017823 -1.981855 2
-0.73799807 0.54370141 -0.42882591 0
-7.57832 5.622005 1.8099126 0
-8.8586664 6.571835 0.55220306 0
-35.569641 26.387472 1.4336153 1
-32.651081 26.121037 1.2307813 2
-22.489147 19.371054 0.78449857 18
-28.052736 25.995302 0.89996737 2
-16.617777 10.550035 0.40441281 255
-126.17584 86.685829 2.6988215 23
-7.7124281 5.7214937 0.14062935 0
-32.809765 26.247986 0.492825 1
-30.187801 26.002298 0.34839544 1
-27.82531 25.784555 0.22114284 1
-16.698887 10.601529 0.056271784 9
-9.1423044 6.280982 -0.00096795958 0
-34.576172 25.650461 -0.13074325 25
-30.871796 24.697599 -0.23668002 24
-28.857327 24.856293 -0.33968833 26
-24.452917 22.6595 -0.3968415 27
-16.727509 10.6197 -0.29361966 14
-4.9643469 3.410625 -0.10713063 0
-9.5294952 7.0694914 -0.24585246 0
-31.291473 25.033344 -0.94996494 9
-28.230206 24.31612 -0.99192458 17
-24.203457 22.428335 -0.97703838 15
-16.747513 10.632401 -0.64490741 14
-38.160641 26.217274 -1.6442986 0
-33.562073 24.898149 -1.6068368 2
-7.8175812 6.2541065 -0.41470161 0
-28.524342 24.569475 -1.6693789 1
-11.13076 10.314412 -0.71828979 20
-16.731913 10.622497 -0.99497288 19
-17.132812 11.770653 -1.1064769 7
-14.597173 10.828967 -1.0206157 16
-14.579866 11.66397 -1.1040524 1
-11.527906 9.9295759 -0.94363612 16
-10.94698 10.144111 -0.9708758 18
-15.174756 9.633913 -1.2209715 37
-14.496302 9.9593067 -1.2477509 20
-13.885232 10.300812 -1.2768993 11
-12.556787 10.045497 -1.2359213 21
-11.368498 9.7922697 -1.1964176 28
-10.880095 10.08213 -1.2278575 23
-15.26867 9.6935358 -1.548594 13
-14.095019 9.6836157 -1.5159897 6
-12.898926 9.5691166 -1.4704123 11
-11.856866 9.4855547 -1.4361351 13
-10.937579 9.4210968 -1.4065244 14
-10.065627 9.3273973 -1.3791591 15
-15.196338 9.6476145 -1.8601338 4
-13.916825 9.5611925 -1.7961128 5
-12.889028 9.5617733 -1.7533454 7
-12.766823 9.4711151 -2.0186057 1
-10.9785 8.1444416 -1.9778644 1
-9.8075542 7.2757711 -1.985297 1
-8.8156605 6.5399308 -1.947134 1
-7.9979248 5.93329 -1.97291 1
-7.3794761 5.4744921 -1.9832458 1
-6.8603706 5.0893917 -1.9953421 2
-6.337286 4.7013392 -1.9826027 1
-4.5939875 3.4080667 -1.9766293 2
-65.421745 48.888309 6.9772224 1
-5.6099014 4.1921625 0.35060194 0
-35.256348 26.346334 1.424686 1
-32.400909 26.10692 1.2247791 1
-22.364008 19.399649 0.78249055 16
-27.672375 25.822975 0.89065152 1
-16.624645 10.635993 0.40548095 255
-126.05661 87.253227 2.7027698 12
-35.732384 26.702066 0.65324408 5
-7.8859415 6.3540697 0.11878467 0
-29.954851 25.984322 0.34675157 1
-27.609381 25.764191 0.22014019 2
-16.66852 10.664063 0.056294542 38
-3.0390112 2.1035275 -0.00032253683 0
-34.55051 25.818878 -0.1309862 25
-30.776049 24.797693 -0.23660818 28
-28.734133 24.925411 -0.33926025 14
-24.250845 22.630114 -0.39484182 32
-16.69034 10.678023 -0.29361966 35
-32.890255 24.578203 -0.85074729 22
-31.680313 25.5263 -0.9644689 7
-27.957888 24.252058 -0.9853245 15
-23.832697 22.23991 -0.96519977 13
-16.700197 10.684329 -0.64451754 38
-33.33408 24.909864 -1.6000744 2
-8.1318035 6.5521722 -0.43258098 0
-28.296534 24.545816 -1.6610507 2
-11.106371 10.36411 -0.71904629 17
-16.684639 10.674376 -0.99437118 34
-6.1646752 4.2670336 -0.39908862 0
-14.597675 10.908539 -1.0233068 8
-14.451999 11.644648 -1.0974413 1
-11.417783 9.9043503 -0.93744588 18
-10.899828 10.171371 -0.96983713 18
-15.093972 9.6567106 -1.2171763 20
-14.441761 9.9962254 -1.2460525 18
-13.903518 10.389809 -1.281908 13
-12.496799 10.069252 -1.233469 23
-11.31919 9.8188257 -1.1948279 24
-10.809859 10.087415 -1.2238977 16
-15.140742 9.6866331 -1.539039 8
-13.825248 9.5694904 -1.4905583 12
-12.76015 9.5353937 -1.4583776 11
-11.739956 9.4594288 -1.4259657 15
-10.832453 9.3966064 -1.3972148 15
-10.050464 9.3787708 -1.381559 16
-15.088836 9.6534243 -1.851088 4
-13.798329 9.5508585 -1.7851118 6
-12.881056 9.6257448 -1.7568208 9
-12.670115 9.4681129 -2.0085278 1
-10.98806 8.2111483 -1.9847379 1
-9.8042383 7.3265033 -1.9897901 0
-8.8022442 6.577734 -1.94923 0
-8.0305986 6.0010996 -1.986125 1
-7.3540587 5.4955349 -1.981558 1
-6.8300843 5.1039796 -1.9917027 1
-6.3301601 4.7303972 -1.9855269 1
-4.5850925 3.4263442 -1.9779357 2
-0.67913651 0.50750458 -0.39662158 0
-9.962101 7.4988093 1.7268877 0
-11.644629 8.7653055 1.2451544 0
-34.212952 25.753242 2.1438119 0
-34.950153 26.308161 1.4160155 0
-32.157463 26.096401 1.2190125 1
-22.374443 19.546 0.78523833 18
-22.3221 20.976509 0.72080201 4
-16.641199 10.728627 0.40679556 255
-38.207947 26.644321 0.82120264 1
-35.444031 26.679918 0.64967126 3
-32.212658 26.141193 0.48658553 1
-29.710333 25.954527 0.34496778 1
-7.3134074 6.87255 0.05850352 0
-16.678263 10.752522 0.056453858 27
-3.9339271 2.743325 -0.00041852993 0
-34.584805 26.03315 -0.13145995 9
-30.714151 24.925125 -0.23679975 23
-27.863747 24.341377 -0.32998499 24
-24.014313 22.566715 -0.3922708 29
-16.693306 10.76222 -0.29433089 20
-38.165195 26.614508 -0.82759482 0
-32.71479 24.625526 -0.84842712 18
-29.963963 24.316332 -0.9147951 7
-27.764647 24.254805 -0.98149222 13
-23.789885 22.355814 -0.96662045 13
-16.662802 10.742555 -0.64451754 22
-6.905447 4.815515 -0.29898918 0
-31.493721 23.706387 -1.5156982 20
-30.4184 24.685116 -1.6227167 2
-11.63758 10.166426 -0.68522328 0
-11.087597 10.41923 -0.72018105 20
-16.694286 10.762853 -0.99717903 20
-16.824152 11.732327 -1.0918061 1
-14.616939 11.002664 -1.0273436 0
-14.370958 11.66231 -1.0943719 1
-11.323005 9.8916178 -0.93249369 17
-10.875894 10.220287 -0.9708758 21
-14.983029 9.6596012 -1.2109413 22
-14.508238 10.117323 -1.2548275 21
-13.985086 10.527046 -1.2928091 13
-12.359381 10.029876 -1.2233536 18
-11.317876 9.8871365 -1.1983253 23
-10.742628 10.095056 -1.2202679 16
-15.036498 9.6940727 -1.5318727 10
-13.798298 9.6222458 -1.4912647 9
-12.624945 9.5032215 -1.4467076 18
-11.620287 9.4300861 -1.4154197 16
-10.757608 9.3976955 -1.3917842 15
-9.994463 9.3919897 -1.3783592 13
-14.951382 9.6391973 -1.8383417 4
-13.69313 9.5489073 -1.7758033 4
-12.866436 9.6850004 -1.7594274 9
-12.557726 9.4526243 -1.9959304 1
-10.956166 8.247076 -1.9841651 1
-9.759676 7.3464375 -1.9859388 0
-8.776083 6.6060534 -1.9485314 1
-7.9719815 6.0007796 -1.9767969 2
-7.3442011 5.5282283 -1.9840899 1
-6.8122249 5.1277919 -1.9917027 2
-6.3012104 4.743134 -1.9816279 1
-4.6002884 3.4627924 -1.9896936 2
-0.73525482 0.55345112 -0.43052086 0
-33.906384 25.708372 2.1302118 0
-34.695644 26.306805 1.4094155 1
-31.920668 26.089581 1.2134811 1
-22.339106 19.65303 0.78640091 3
-22.222597 21.029568 0.71995509 7
-16.627121 10.801906 0.40737072 255
-37.826736 26.575205 0.81499797 1
-8.4042349 6.3722281 0.15445215 0
-32.003525 26.157301 0.48480281 1
-29.496431 25.949751 0.34353378 1
-27.199322 25.739115 0.21829811 1
-37.878437 26.611526 -0.0040397388 13
-35.969482 27.272648 -0.13708423 2
-30.636246 25.039789 -0.23687159 30
-27.682516 24.353943 -0.32884344 23
-23.854048 22.573433 -0.39093766 29
-35.454082 24.908293 -0.77068609 14
-32.733799 24.8193 -0.8511616 5
-7.6508546 6.2532396 -0.23424442 0
-20.003321 17.598103 -0.70929313 3
-23.639097 22.370022 -0.96366078 12
-37.756443 26.525818 -1.6387618 1
-31.398045 23.806509 -1.5150834 124
-30.161844 24.65205 -1.6136115 3
-11.593023 10.199067 -0.68469167 5
-11.062766 10.468857 -0.72093749 20
-14.893978 10.463776 -0.96891147 1
-15.345398 11.635132 -1.0813907 2
-14.259049 11.654287 -1.0889413 1
-11.3004 9.9416285 -0.93348414 13
-10.845948 10.26368 -0.97139508 19
-14.868899 9.659667 -1.2044352 20
-14.449983 10.151847 -1.252846 21
-13.970509 10.592668 -1.2948714 12
-12.191508 9.9644327 -1.2101729 19
-11.202465 9.8554697 -1.1897408 24
-10.640728 10.069475 -1.2126783 20
-14.908986 9.68571 -1.5223178 11
-13.738546 9.6520262 -1.488439 12
-12.528215 9.4990978 -1.4394139 23
-11.55338 9.442874 -1.4112766 14
-10.673926 9.3904839 -1.3851899 14
-9.8980188 9.3666401 -1.3695594 14
-14.837564 9.6393099 -1.8284737 5
-13.59137 9.5486279 -1.7669179 3
-12.753341 9.6697912 -1.7485667 8
-12.480388 9.4628344 -1.9888759 1
-10.952549 8.3044014 -1.9887475 1
-9.7591429 7.3995419 -1.9910737 1
-8.7623863 6.643784 -1.9506273 1
-7.941608 6.0214567 -1.9744648 1
-7.3092823 5.542017 -1.9798702 1
-6.7539353 5.120944 -1.9798744 2
-6.3062558 4.7815061 -1.988451 1
-4.5610604 3.4582705 -1.9779357 2
-0.66980278 0.50785542 -0.39323166 0
-8.9941969 6.8716068 0.96697795 0
-33.669079 25.723326 2.1212118 1
-34.408386 26.288158 1.4016508 1
-31.651993 26.064062 1.2068906 2
-29.293222 25.96207 1.0345489 1
-21.751732 20.735615 0.70715755 21
-16.617529 10.882489 0.4081102 255
-37.748657 26.727543 0.81542099 3
-34.908978 26.670612 0.64334559 5
-31.737623 26.134577 0.48222259 1
-19.947977 17.679543 0.23307973 5
-26.986103 25.725468 0.21734209 1
-16.657778 10.908847 0.056647308 0
-7.6521058 5.4179935 -0.0008182103 0
-34.82674 26.607784 -0.13309985 6
-30.587496 25.187496 -0.23720683 26
-19.900051 17.637068 -0.23716111 25
-23.716152 22.608269 -0.39003304 32
-35.05899 24.823151 -0.76407045 23
-5.4054799 4.1298108 -0.14094877 0
-29.461977 24.260677 -0.90474653 16
-19.881824 17.620914 -0.7072705 27
-23.606152 22.503408 -0.96567333 10
-37.681797 26.680204 -1.6397555 1
-31.27882 23.897158 -1.5135466 5
-29.941717 24.655724 -1.6066583 2
-11.465844 10.161977 -0.67937571 10
-11.073488 10.556198 -0.72415262 18
-18.023857 11.803466 -1.0816143 2
-14.806624 10.483676 -0.96572214 7
-15.156672 11.579764 -1.0710747 22
-14.139181 11.643011 -1.0830387 1
-11.192177 9.9194307 -0.92754155 15
-10.822705 10.31713 -0.97269344 17
-14.866782 9.73596 -1.2071462 23
-14.393137 10.19091 -1.2511476 26
-13.97914 10.680125 -1.2992908 9
-12.139513 9.9963703 -1.2086402 25
-11.29458 10.010188 -1.2034124 15
-10.609523 10.113907 -1.2133383 17
-14.700015 9.6267481 -1.5045727 14
-13.631536 9.6516666 -1.4806683 7
-12.41102 9.4820747 -1.4299321 16
-11.475657 9.4497128 -1.4060037 15
-10.591765 9.3872957 -1.3789835 14
-9.9039545 9.4412985 -1.3751593 12
-14.682309 9.6151524 -1.8136716 5
-13.507585 9.5639048 -1.7605712 2
-12.585107 9.615078 -1.7303208 7
-12.369946 9.4506941 -1.9767823 2
-10.931478 8.351697 -1.9904659 1
-9.7225466 7.4280686 -1.9891481 1
-8.737978 6.6758537 -1.9506273 1
-7.947547 6.0719614 -1.9814609 1
-7.2920289 5.5711422 -1.9807141 1
-6.7691689 5.1716752 -1.9898828 1
-6.2856069 4.8022313 -1.9874763 2
-4.5783973 3.4979157 -1.9910001 2
-0.67657411 0.51690567 -0.39831656 0
-4.1731119 3.2114091 0.72927672 0
-13.208869 10.164855 1.4239091 0
-33.423943 25.721319 2.1114116 0
-34.16116 26.288643 1.3953097 1
-22.706549 18.831272 0.86830217 8
-19.879963 17.743544 0.70428377 3
-21.647478 20.78096 0.70612246 26
-16.626169 10.971271 0.40926051 255
-37.70723 26.896299 0.81654912 2
-34.600121 26.626446 0.63936275 1
-31.489183 26.114994 0.47983 2
-19.835417 17.703785 0.23248513 21
-26.783596 25.711487 0.21643272 0
-16.546144 10.918465 0.056396957 0
-9.8019514 6.991662 -0.0010506882 0
-34.521252 26.565754 -0.13228597 2
-19.81748 17.687777 -0.2369114 24
-23.645739 22.699232 -0.39017588 29
-41.865067 27.625906 -0.74329519 0
-34.793053 24.817636 -0.760158 32
-32.755028 25.206558 -0.85638189 9
-29.324778 24.319983 -0.903135 16
-19.823181 17.692865 -0.70737696 26
-23.469765 22.530302 -0.96330559 9
-35.15414 25.075199 -1.5335618 1
-32.246876 24.81551 -1.5645719 2
-29.701649 24.632534 -1.5983809 1
-11.436267 10.207257 -0.67973012 10
-11.082687 10.639063 -0.72717857 20
-17.849167 11.778302 -1.0735919 2
-14.763438 10.530655 -0.96529692 12
-15.179457 11.681316 -1.0755599 7
-14.040051 11.643867 -1.0785525 1
-11.145572 9.9478016 -0.9265511 20
-10.818297 10.385256 -0.9755497 19
-14.85602 9.8031855 -1.2090437 18
-14.324995 10.217916 -1.248317 14
-13.970225 10.750755 -1.3019423 5
-12.046214 9.9903135 -1.2028162 25
-11.107857 9.9141397 -1.1871973 13
-10.611536 10.18677 -1.217628 19
-14.589811 9.6275196 -1.4967239 14
-13.425845 9.5765591 -1.461948 13
-12.305238 9.4694681 -1.4215443 14
-11.387424 9.4439573 -1.399224 16
-10.48171 9.3552837 -1.3688982 12
-9.7072811 9.3187122 -1.3523599 18
-14.572272 9.6159458 -1.8042146 6
-13.532408 9.6525698 -1.7681873 2
-12.523104 9.6371269 -1.726411 9
-12.270841 9.4429979 -1.9662006 4
-10.899119 8.387393 -1.9898931 1
-9.696557 7.4619637 -1.9891481 0
-8.7146206 6.7063165 -1.9506273 1
-7.9200835 6.0948825 -1.9799062 2
-7.2725363 5.5965638 -1.9807141 1
-6.7263784 5.1762695 -1.9826039 1
-6.2688046 4.8241444 -1.9874763 1
-4.5451851 3.4977372 -1.981855 1
-0.68625093 0.52810287 -0.40509641 0
-63.184982 48.958313 6.8287711 5
-33.120564 25.66317 2.0976117 0
-4.3769441 3.3914354 0.17923427 0
-22.65012 18.911589 0.86853755 16
-7.284162 6.5448928 0.25882217 0
-21.612959 20.885973 0.70725167 28
-16.623005 11.048477 0.41008213 255
-37.692535 27.074865 0.81817079 2
-4.1131954 3.1870723 0.076201074 0
-15.329708 12.799453 0.23423848 0
-19.773621 17.766796 0.23245016 19
-26.577387 25.683416 0.21545339 0
-16.573145 11.015338 0.05661317 0
-37.441742 26.894718 -0.0040229838 1
-31.865517 24.690708 -0.12242223 0
-29.749067 24.838814 -0.23201059 23
-19.862846 17.846968 -0.23815998 3
-23.564587 22.771955 -0.39008066 33
-41.460125 27.556467 -0.73772389 0
-34.590374 24.846558 -0.75752598 27
-32.683907 25.324829 -0.85671335 7
-29.33913 24.49654 -0.90607369 8
-27.078266 24.330093 -0.96914369 14
-23.458179 22.669128 -0.96591008 9
-34.863003 25.042389 -1.5244757 1
-31.984312 24.782755 -1.5558115 2
-29.490955 24.623304 -1.5914278 1
-11.375601 10.221091 -0.67813534 12
-11.081826 10.709072 -0.72944808 10
-17.700218 11.764448 -1.0669736 2
-14.705725 10.563246 -0.9638086 13
-15.030145 11.645971 -1.0677108 1
-13.921671 11.623819 -1.0724137 1
-11.085793 9.9606962 -0.92432261 22
-10.812504 10.448809 -0.97814631 20
-14.899877 9.9032011 -1.2152787 19
-14.34612 10.304938 -1.2531291 13
-14.000718 10.84833 -1.3081295 8
-12.022205 10.037871 -1.2037358 13
-11.01263 9.8949594 -1.1805205 16
-10.583432 10.227442 -1.2182879 21
-14.524616 9.6537838 -1.4933114 16
-13.419901 9.6396275 -1.4647738 9
-12.235985 9.4809418 -1.4171681 14
-11.267398 9.40765 -1.3883015 17
-10.426936 9.3687067 -1.3657949 13
-9.6706028 9.3453178 -1.35156 18
-14.450838 9.6047478 -1.793113 6
-13.445404 9.6579466 -1.7609944 2
-12.469076 9.6615505 -1.72337 7
-12.176725 9.4350252 -1.9561226 3
-10.883764 8.4331865 -1.9921843 1
-9.6717596 7.4940753 -1.9891481 0
-6.1861272 4.7932649 -1.3882151 0
-7.9060321 6.1259174 -1.9814609 1
-7.2755737 5.6374125 -1.9866216 1
-6.7338095 5.2176313 -1.9898828 1
-6.268106 4.8567853 -1.99235 1
-4.5425277 3.5197363 -1.9857743 1
-0.67303997 0.52149892 -0.39831656 0
-2.483197 1.9379935 0.43624905 0
-22.65929 17.684282 2.455579 11
-32.870159 25.653282 2.0874116 0
-5.6415091 4.4028759 0.23164573 0
-22.565611 18.975092 0.86783141 16
-19.764656 17.883818 0.70449513 10
-21.694674 21.111897 0.71233302 22
-16.614239 11.126468 0.41082162 255
-65.352264 47.289757 1.4221394 2
-33.689735 26.292915 0.6258328 1
-31.001518 26.068724 0.47509176 1
-26.370033 25.661665 0.21449737 0
-16.551208 11.084255 0.056670066 0
-36.906921 26.706333 -0.0039755111 0
-31.596239 24.65906 -0.12171767 26
-29.530546 24.831806 -0.23098093 20
-27.1381 24.555592 -0.3264176 23
-23.487816 22.856871 -0.39012828 33
-41.184223 27.580854 -0.73452336 0
-34.432156 24.915562 -0.755961 30
-31.706253 24.744921 -0.83334619 19
-3.7125373 3.1218185 -0.11498927 0
-26.996141 24.427143 -0.96925014 19
-23.504978 22.873571 -0.97111911 10
-10.476938 7.0163498 -0.40992302 0
-12.90232 9.3362885 -0.56560916 0
-7.6411824 5.9635067 -0.3727001 0
-29.239653 24.587196 -1.5824881 1
-11.336892 10.258054 -0.67795813 13
-11.012877 10.717041 -0.7273677 0
-17.549503 11.752809 -1.0603551 2
-14.655821 10.605145 -0.9629581 15
-14.92958 11.651685 -1.0634497 1
-13.822948 11.623515 -1.0679276 1
-11.089442 10.034151 -0.92754155 16
-10.816011 10.525464 -0.9817816 19
-14.88511 9.9684792 -1.2169052 28
-14.313296 10.357289 -1.2534121 13
-13.881 10.833327 -1.3004693 11
-11.712373 9.8487625 -1.1761483 19
-11.025332 9.9761429 -1.1856076 15
-10.507668 10.225404 -1.2136682 23
-14.384861 9.6334648 -1.4823915 17
-13.299018 9.6233444 -1.455237 11
-12.14943 9.4819365 -1.4109684 15
-11.213158 9.4289808 -1.3856649 21
-10.376459 9.3890171 -1.3634676 13
-9.6464777 9.3873472 -1.35276 17
-14.34449 9.6064281 -1.7840673 6
-13.440612 9.7258043 -1.7648025 9
-12.378849 9.660985 -1.7155503 6
-12.074894 9.4237652 -1.9450369 5
-10.863621 8.4784355 -1.9939027 1
-9.6642151 7.5423679 -1.9929994 1
-8.6594553 6.7582107 -1.9485314 0
-7.8784132 6.1486521 -1.9799062 1
-7.2281089 5.6411262 -1.9790262 1
-6.7094126 5.2363138 -1.9880631 1
-6.2541714 4.8810239 -1.9933248 1
-4.5302129 3.5355725 -1.9857743 2
-0.67407161 0.52607441 -0.40001151 0
-21.60261 16.987368 3.806067 6
-22.578661 17.754892 2.4538767 7
-10.843657 8.5269871 0.69060379 0
-33.312038 26.19516 1.3717569 1
-22.559973 19.111952 0.87030286 19
-20.227951 18.438305 0.72341275 2
-21.688543 21.261248 0.7146855 20
-16.599867 11.205183 0.41147894 255
-36.282799 26.457882 0.79165995 1
-33.407658 26.27035 0.6223771 1
-30.75927 26.058086 0.47283989 1
-28.381149 25.870157 0.3358041 1
-7.4865627 7.3390665 0.061115079 0
-16.527048 11.15603 0.056726966 0
-36.314293 26.480848 -0.0039221039 13
-31.383026 24.678267 -0.12124392 26
-29.359978 24.872658 -0.23035833 19
-27.042011 24.649496 -0.32634625 25
-23.498142 23.035194 -0.39169946 27
-40.807716 27.545879 -0.72960401 1
-34.259811 24.982695 -0.75418258 28
-31.486464 24.759605 -0.82994884 7
-29.263775 24.791159 -0.90920204 9
-24.684181 22.500273 -0.88919789 11
-23.435265 22.973555 -0.97171098 9
-16.627739 11.223997 -0.65218574 0
-34.28886 25.003876 -1.5071553 1
-31.491957 24.763926 -1.5404425 1
-29.027357 24.590876 -1.5758661 1
-11.275595 10.277998 -0.67654055 12
-2.8703499 2.8137999 -0.19025791 0
-17.426842 11.763405 -1.0555416 2
-14.658805 10.689388 -0.96572214 16
-14.836547 11.666824 -1.0598615 1
-11.73591 9.9422169 -0.90949744 0
-10.990632 10.018248 -0.92234176 22
-10.794466 10.581799 -0.98333955 29
-14.891476 10.051991 -1.2204293 20
-14.268788 10.404984 -1.252846 14
-13.524491 10.635081 -1.2707123 7
-11.587946 9.8168678 -1.167259 17
-11.074155 10.09438 -1.1948279 13
-10.512822 10.305703 -1.2186179 22
-14.240449 9.6125374 -1.4711301 19
-13.060838 9.5241308 -1.4329846 9
-12.045711 9.4722309 -1.4029454 16
-11.114714 9.4159632 -1.3777555 15
-10.300788 9.3894367 -1.358037 14
-9.5608511 9.372488 -1.3455601 17
-14.223442 9.6010571 -1.7733768 5
-13.337382 9.72579 -1.7559171 5
-12.346484 9.708746 -1.7159847 5
-11.999725 9.4360695 -1.9384863 5
-10.826251 8.5132999 -1.9927571 1
-9.636507 7.5777364 -1.9929994 1
-7.3869572 5.8087864 -1.666976 0
-7.8959222 6.2090149 -1.9900117 1
-7.2073855 5.6675792 -1.9790262 1
-6.7054863 5.2729073 -1.9926125 1
-6.2301421 4.8991165 -1.9913752 1
-4.5231681 3.5568259 -1.9883871 2
-0.70916367 0.55765593 -0.42204604 0
-21.558708 17.074976 3.8088107 10
-22.647762 17.937531 2.4681771 8
-32.347519 25.619955 2.0658114 0
-33.054287 26.179731 1.3648981 1
-19.363251 16.520247 0.74920189 1
-20.110437 18.460135 0.72151041 9
-21.269854 20.996893 0.70329946 26
-16.62348 11.305796 0.41304007 2
-36.045181 26.477816 0.78848708 3
-6.2298498 4.9341798 0.11638089 0
-30.49773 26.019909 0.47021276 1
-28.166906 25.855473 0.33433509 1
-8.05299 7.9496446 0.065965109 0
-10.792449 7.3400526 0.03713141 0
-2.6660109 1.9583795 -0.00028867746 0
-31.158718 24.678398 -0.12070943 23
-29.23951 24.946426 -0.23009494 19
-26.967583 24.754568 -0.32648894 23
-23.539993 23.2379 -0.39374673 29
-40.390514 27.469994 -0.7238549 0
-33.621235 24.69725 -0.74201834 25
-31.142771 24.665768 -0.82315409 8
-28.878933 24.638792 -0.89991188 9
-24.425797 22.421366 -0.88270426 19
-23.559803 23.257456 -0.9802348 6
-8.8692904 6.5151405 -0.3908439 0
-31.226719 24.732256 -1.531682 2
-28.783245 24.557154 -1.5672575 1
-11.248478 10.325405 -0.67707217 13
-22.784569 22.492168 -1.5154439 2
-5.7346621 3.9002013 -0.34817031 0
-14.637501 10.752312 -0.96678525 9
-14.717462 11.656557 -1.054255 1
-7.2722011 6.2044625 -0.56524843 0
-10.949711 10.051155 -0.92184657 21
-10.808597 10.669888 -0.98801345 21
-14.889296 10.12636 -1.2231402 21
-14.296696 10.501966 -1.2585074 10
-12.852476 10.179447 -1.2109036 13
-11.444384 9.7640657 -1.156224 26
-10.909601 10.014338 -1.1808385 14
-10.490971 10.356339 -1.2202679 21
-14.160669 9.6308136 -1.4663527 20
-12.985769 9.5389948 -1.4283928 11
-11.953241 9.4672337 -1.3960164 12
-11.021191 9.4030075 -1.3702227 17
-10.185827 9.3499584 -1.3471757 12
-9.5082521 9.3862305 -1.3427602 17
-14.12733 9.608139 -1.7655647 5
-13.207184 9.7016401 -1.7432237 5
-12.247058 9.6999426 -1.7068617 5
-11.913831 9.4360189 -1.9299201 5
-10.833706 8.5805359 -1.9996306 1
-9.6285658 7.6260386 -1.9968506 1
-8.6448345 6.8469014 -1.9562165 1
-7.8557439 6.2219238 -1.9853476 1
-7.2182069 5.7169805 -1.9874655 1
-6.6900921 5.2987018 -1.9935224 1
-6.2190838 4.9256525 -1.9933248 1
-4.5107241 3.5725939 -1.9883871 1
-0.6731301 0.53313398 -0.40170649 0
-21.567118 17.204479 3.820883 6
-22.485313 17.936941 2.4572816 7
-32.101746 25.608141 2.0558114 0
-8.7696362 6.9956975 0.36312735 0
-19.311527 16.592953 0.74943727 0
-20.048817 18.53293 0.72161609 0
-21.244638 21.118942 0.70489919 18
-16.531132 11.32758 0.41172543 0
-35.78857 26.482161 0.78489119 2
-32.885765 26.233568 0.61605144 1
-30.279297 26.016739 0.46824238 2
-3.4717448 3.2092469 0.041341573 0
-25.198925 25.049833 0.20712905 0
-34.771626 25.729662 -0.003774798 14
-31.012976 24.739611 -0.12047863 21
-29.155281 25.050955 -0.23011889 20
-26.922134 24.886559 -0.32698837 20
-23.504116 23.365051 -0.39450854 31
-40.155811 27.515852 -0.72136557 2
-33.264759 24.614639 -0.73604292 21
-30.859529 24.617203 -0.8179338 8
-28.292294 24.309456 -0.88427031 24
-24.144785 22.319204 -0.87535906 16
-23.48414 23.345196 -0.98047155 14
-9.5245209 7.0477772 -0.42079958 0
-31.018337 24.743887 -1.5256882 2
-28.54578 24.527258 -1.5589801 2
-11.215303 10.367317 -0.67724937 12
-20.762037 20.639196 -1.3857055 0
-17.169632 11.765098 -1.044912 12
-14.638408 10.831857 -0.96933669 7
-14.620487 11.663026 -1.0502183 1
-11.539013 9.9146118 -0.89958084 15
-10.940945 10.113703 -0.92407501 20
-10.861869 10.797604 -0.99632263 15
-14.916409 10.221128 -1.2282908 17
-14.25674 10.549438 -1.2582242 12
-12.754498 10.174493 -1.2050111 11
-11.389054 9.7857637 -1.1540782 20
-10.950708 10.122727 -1.1891049 13
-10.352977 10.291722 -1.2083886 24
-14.117105 9.6734238 -1.4653289 8
-12.939579 9.574789 -1.42698 11
-11.873415 9.4716377 -1.3905461 14
-10.958094 9.415472 -1.3664563 16
-10.109278 9.3449183 -1.3413572 12
-9.4754276 9.4193649 -1.3427602 17
-14.001805 9.5944166 -1.7540519 3
-12.891867 9.5394831 -1.7059897 8
-12.032835 9.5988092 -1.6816651 4
-11.831188 9.437952 -1.9218577 3
-10.79131 8.6084232 -1.9973394 1
-9.5926294 7.6522131 -1.994925 1
-8.6116457 6.8696651 -1.9541205 1
-7.8401132 6.2542 -1.9869024 1
-7.2073774 5.749455 -1.9899974 1
-6.6654663 5.3171625 -1.9917027 2
-6.2109509 4.9545875 -1.996249 2
-4.4982266 3.5883164 -1.9883871 2
-0.68259442 0.54451787 -0.40848634 0
-21.460596 17.242439 3.8126519 17
-22.139832 17.788168 2.4262974 17
-31.837751 25.579926 2.0446112 0
-32.546589 26.149439 1.3514394 1
-22.416048 19.396852 0.87253892 16
-7.4398541 6.9256496 0.26865086 0
-20.243813 20.265017 0.67403454 21
-126.11994 87.069275 3.1487012 15
-35.772877 26.66428 0.78658336 4
-32.628735 26.215441 0.61294717 1
-30.052198 26.004498 0.4661313 1
-27.736858 25.819828 0.33136216 1
-24.608149 24.633923 0.20297854 0
-18.588451 12.832889 0.064260215 0
-7.1742883 5.3475499 -0.00078086031 0
-30.898361 24.825176 -0.1203693 21
-29.040442 25.129013 -0.22990337 23
-24.507589 22.813749 -0.2986275 2
-23.529833 23.554478 -0.39631775 26
-39.799503 27.476339 -0.71668333 1
-32.98304 24.584801 -0.73170364 23
-30.96981 24.882584 -0.82315409 7
-27.956282 24.190878 -0.87640214 21
-24.019894 22.359762 -0.8736558 16
-23.572054 23.596745 -0.9875747 6
-10.505016 7.2523365 -0.41499183 0
-33.477077 24.953045 -1.4828784 1
-30.738586 24.696806 -1.5161593 2
-28.351194 24.5326 -1.5530202 2
-11.167344 10.395514 -0.67654055 12
-20.723757 20.745462 -1.387975 0
-17.06271 11.779563 -1.0409008 2
-14.683778 10.944951 -0.97486484 0
-14.511191 11.658964 -1.0452845 1
-11.440927 9.8999596 -0.8946225 18
-10.905572 10.151834 -0.92407501 18
-14.824809 10.234587 -1.2236824 15
-14.22303 10.60152 -1.2585074 17
-12.669147 10.17898 -1.2002972 11
-11.348796 9.8202381 -1.1534652 18
-11.029127 10.26685 -1.2015047 9
-10.390242 10.401124 -1.2169681 24
-13.906147 9.6003704 -1.4469014 12
-12.832605 9.5651293 -1.418856 12
-11.793699 9.475605 -1.3850758 12
-10.861925 9.3989429 -1.3585467 17
-10.056196 9.3611631 -1.338642 15
-9.422802 9.4326715 -1.3399603 15
-13.90602 9.6002827 -1.7462397 2
-12.925462 9.6343422 -1.7148751 6
-11.872162 9.5386457 -1.6638535 10
-11.727022 9.4220333 -1.9102682 6
-10.761193 8.6460419 -1.9973394 1
-9.6089468 7.7202735 -2.003911 0
-8.6152449 6.9218879 -1.9604084 1
-7.8243504 6.2864461 -1.9884571 1
-7.1750712 5.7647853 -1.9866216 2
-6.643827 5.3379588 -1.9907928 1
-6.199666 4.9810991 -1.9981984 3
-4.4915671 3.6087334 -1.9910001 3
-0.69763607 0.5605132 -0.41865611 0
-21.369482 17.292318 3.8071644 7
-22.04353 17.837761 2.4225521 13
-31.540199 25.522526 2.0312111 0
-32.309044 26.144682 1.3453571 1
-22.360256 19.485495 0.87300968 18
-28.30019 26.529203 1.0252486 1
-20.156048 20.318527 0.67346996 26
-38.215363 26.58016 0.95639277 0
-35.561253 26.700132 0.78397459 5
-32.394012 26.213438 0.61025286 1
-29.81951 25.985744 0.46392635 1
-27.524008 25.801594 0.32989317 1
-24.014944 24.208532 0.1987814 0
-38.229839 26.590229 0.1324805 13
-36.062584 27.076544 -0.0039353683 6
-30.799084 24.92281 -0.12032072 22
-28.120241 24.504944 -0.22329433 12
-24.401546 22.874533 -0.29830644 10
-38.235649 26.594271 -0.69018996 0
-32.749908 24.589315 -0.7284314 14
-30.018524 24.291178 -0.80011839 20
-27.732986 24.167475 -0.87204146 23
-23.80751 22.317671 -0.86875898 14
-23.799276 23.991125 -1.0005971 0
-38.245911 26.601408 -1.5145317 2
-33.245926 24.961737 -1.4764898 1
-30.518585 24.695829 -1.5095506 2
-28.129795 24.513269 -1.5455706 2
-11.139737 10.442629 -0.67707217 13
-22.288898 22.468571 -1.4980446 2
-16.913256 11.763778 -1.0342824 2
-15.60375 11.715622 -1.038651 1
-14.392793 11.646737 -1.039678 1
-11.370173 9.9083576 -0.89178914 31
-10.884635 10.20349 -0.92531306 16
-11.205077 11.295403 -1.0350122 22
-14.802097 10.295391 -1.2247667 18
-14.425243 10.830774 -1.2797372 21
-12.525004 10.135311 -1.1899854 11
-11.290391 9.8388338 -1.151013 13
-11.118312 10.422544 -1.2151762 13
-10.356675 10.440163 -1.217298 24
-13.777666 9.5828629 -1.4370052 16
-12.65576 9.5022087 -1.4029615 15
-11.686236 9.4565754 -1.3763233 13
-10.762999 9.3792458 -1.3502607 14
-10.014747 9.3880377 -1.3374783 13
-9.3926191 9.4683342 -1.3403603 13
-13.898552 9.6669436 -1.749529 2
-12.859948 9.6555185 -1.710644 8
-11.758428 9.5149927 -1.6525584 7
-11.629284 9.4104891 -1.8996863 8
-10.755569 8.7034731 -2.0019217 1
-9.5819407 7.7537661 -2.003911 1
-8.5818462 6.9444838 -1.9583124 1
-7.8176107 6.3260593 -1.9923438 2
-7.1670632 5.7996321 -1.9899974 1
-6.6281829 5.3635669 -1.9917027 1
-6.185257 5.0051484 -1.999173 2
-4.4877605 3.6315238 -1.9949193 2
-0.65342784 0.52875787 -0.39323166 0
-21.23221 17.304222 3.7934461 13
-22.033653 17.957397 2.4283404 11
-31.305374 25.513836 2.0218112 0
-22.153614 20.913046 0.8052128 0
-20.113068 20.417246 0.67441094 21
-9.2587538 6.4878654 0.23227854 0
-35.330666 26.720377 0.78094274 5
-7.4376874 6.0617051 0.1405122 0
-29.584328 25.963032 0.46167451 1
-27.302881 25.773964 0.32831925 1
-4.3453493 4.4110661 0.036095437 0
-37.933697 26.581192 0.13177498 14
-36.015697 27.238462 -0.0039406042 9
-30.749111 25.060482 -0.12046649 23
-27.818077 24.412981 -0.22157024 23
-24.14703 22.794834 -0.296166 23
-23.566916 23.923328 -0.39974579 0
-35.587738 24.937315 -0.64396 5
-32.574554 24.635946 -0.7264396 12
-29.701057 24.20632 -0.79390371 19
-27.522226 24.153343 -0.86805993 19
-23.682934 22.356728 -0.86705577 16
-4.0376773 4.0987411 -0.17035723 0
-37.903996 26.560381 -1.504654 0
-31.456017 23.790003 -1.4006777 67
-30.274183 24.673418 -1.5017123 1
-5.3198404 4.6686606 -0.29318824 0
-11.152615 10.528086 -0.68008453 12
-21.997234 22.329908 -1.4836713 7
-16.796841 11.770013 -1.0296695 2
-15.460811 11.692922 -1.0318471 1
-14.296329 11.651489 -1.0356413 1
-11.308507 9.9242792 -0.88966417 26
-10.84024 10.233204 -0.92457026 21
-11.207601 11.377098 -1.0389072 13
-14.782412 10.358445 -1.2261221 19
-14.228229 10.760727 -1.265584 16
-12.498828 10.186527 -1.1908692 12
-11.22001 9.8466139 -1.1473347 16
-11.061563 10.442134 -1.2129506 9
-10.328565 10.484768 -1.2182879 19
-13.72455 9.6171732 -1.4349576 23
-12.571666 9.5078773 -1.3973101 11
-11.591403 9.4469776 -1.3690296 11
-10.691285 9.3826094 -1.3453643 18
-9.9500685 9.3928804 -1.3332113 14
-9.3064451 9.4471903 -1.3327605 14
-13.900568 9.7405128 -1.7540519 2
-12.708783 9.6115789 -1.6949888 9
-11.712815 9.545928 -1.6508207 10
-11.541 9.405899 -1.8906162 6
-10.731262 8.7459641 -2.0030673 1
-9.5486975 7.7821755 -2.0026274 1
-8.5667152 6.9818606 -1.9604084 1
-7.8076491 6.3632231 -1.9954532 1
-7.1346536 5.8147326 -1.9866216 2
-6.6275377 5.4014339 -1.9971619 1
-6.1677494 5.0267072 -1.999173 2
-4.4604044 3.6352236 -1.9883871 2
-0.69370621 0.56536961 -0.41865611 0
-21.739786 17.844557 2.4028039 4
-20.494743 16.822596 1.3274074 0
-22.811869 18.72455 0.95531219 0
-18.397896 16.259926 0.72272211 0
-22.016726 20.929638 0.80288774 2
-21.112684 21.582165 0.71045107 14
-37.728298 26.634119 0.94883364 2
-8.9620028 6.8272147 0.19862007 0
-9.2188187 7.5670362 0.17465919 0
-4.0009995 3.5360541 0.062629357 0
-27.093895 25.756119 0.32688522 1
-37.768784 26.662701 0.13152462 5
-34.930836 26.610155 -0.0038320448 5
-30.720184 25.215891 -0.12069728 22
-19.946072 17.628193 -0.15935911 12
-24.029633 22.843155 -0.29570225 14
-23.530807 24.05406 -0.40055519 0
-35.183533 24.837654 -0.63821089 26
-32.475639 24.739799 -0.72615504 14
-29.486544 24.203289 -0.79042351 19
-19.91386 17.599726 -0.63002366 23
-23.56708 22.403442 -0.86567187 13
-9.3551846 9.5632143 -0.39611903 0
-37.758789 26.655647 -1.5025746 2
-31.09614 23.688902 -1.3883263 16
-30.03957 24.657227 -1.4943352 1
-11.565306 10.221333 -0.63935232 0
-11.156345 10.605494 -0.68256527 9
-9.3488169 9.5567055 -0.63280612 0
-16.651215 11.754849 -1.0232517 2
-15.245146 11.613685 -1.020153 4
-14.212351 11.665851 -1.0325016 1
-11.255841 9.9478302 -0.88824749 27
-10.827603 10.292985 -0.9265511 17
-9.3339605 9.5415192 -0.86830932 4
-14.635313 10.331733 -1.2169052 23
-14.425452 10.989246 -1.2865307 11
-12.450857 10.219974 -1.1896907 11
-11.176601 9.877799 -1.1464151 18
-10.860323 10.324088 -1.1948279 18
-9.3357458 9.5433435 -1.1051047 11
-13.661592 9.6443386 -1.4318864 16
-12.471843 9.5009956 -1.3898926 13
-11.521406 9.457057 -1.3646533 8
-10.601771 9.3697681 -1.3382082 20
-9.9143362 9.4248104 -1.3328235 16
-9.2594938 9.4653959 -1.3307606 14
-13.785218 9.7316122 -1.7437726 6
-12.5834 9.5859785 -1.6827186 7
-11.541111 9.4732313 -1.6312716 12
-11.455953 9.4033308 -1.88205 7
-7.7875876 6.3922458 -1.4577656 0
-9.5489388 7.8380065 -2.0084043 1
-8.5392447 7.0092249 -1.9597098 1
-7.7611246 6.3705244 -1.9892344 1
-7.1535997 5.8718524 -1.9975928 2
-6.6206841 5.4344225 -2.0008013 1
-6.1261754 5.0285172 -1.9913752 2
-4.4506097 3.6531711 -1.9896936 1
-0.69452882 0.57008654 -0.42035109 0
-21.071171 17.41301 3.7857637 7
-20.734259 17.134586 2.2979345 16
-19.487274 16.104092 1.265607 8
-22.76198 18.810278 0.95582986 5
-18.319981 16.299582 0.7217806 4
-21.82008 20.880896 0.79823756 17
-9.2970581 9.5670538 0.31391585 6
-37.734295 26.826277 0.9512164 1
-14.467278 11.097124 0.32144439 0
-4.1282139 3.4115152 0.078426778 0
-19.898451 17.70397 0.31239617 22
-7.426856 7.1071877 0.089888193 0
-9.2966862 9.5666704 0.077763751 2
-37.680161 26.787792 0.13152462 3
-34.661484 26.587088 -0.003812148 5
-30.731985 25.39661 -0.12107386 20
-19.845673 17.657013 -0.15902388 25
-23.875715 22.848051 -0.29473904 21
-9.2933979 9.5632868 -0.1587366 5
-34.915169 24.822088 -0.63483256 28
-32.580639 24.990976 -0.73035204 8
-29.258154 24.17865 -0.78644609 21
-19.858379 17.668318 -0.63011843 29
-23.463762 22.453829 -0.86460733 12
-9.2871981 9.5569077 -0.39458001 8
-35.206852 25.029455 -1.4043177 0
-31.518555 24.176304 -1.4107577 16
-29.806669 24.631937 -1.4868044 1
-11.597038 10.31807 -0.64299446 3
-11.098016 10.620333 -0.68114769 5
-9.2864466 9.5561342 -0.63072574 11
-14.798549 10.520667 -0.91154033 0
-15.165345 11.632577 -1.0173889 15
-14.081232 11.636592 -1.0257738 1
-11.192962 9.9585571 -0.88588643 24
-10.80783 10.342637 -0.92778915 19
-9.2883625 9.5581045 -0.86701101 9
-14.591214 10.373268 -1.216092 25
-14.132492 10.840327 -1.2636025 10
-12.401525 10.248498 -1.1882176 9
-11.185501 9.9519196 -1.1507064 14
-10.805859 10.340751 -1.1926023 17
-9.3207188 9.5914011 -1.1070845 6
-13.483365 9.5856705 -1.4165301 19
-12.367552 9.4865303 -1.3817687 16
-11.382515 9.4063988 -1.3518894 13
-10.48139 9.3254614 -1.3269088 19
-9.8139935 9.3915777 -1.3235139 14
-9.2030926 9.4703588 -1.3271607 15
-13.801516 9.8118515 -1.7499402 6
-12.542071 9.6203947 -1.6814493 8
-11.463658 9.4734545 -1.6247551 10
-11.375767 9.4008217 -1.8739877 7
-10.674533 8.8213291 -2.0036402 1
-9.507678 7.8570518 -2.0051949 1
-8.5129194 7.0349932 -1.9590111 1
-7.7550812 6.4087229 -1.9931211 1
-7.1280613 5.8905597 -1.9959049 2
-6.5786076 5.4364967 -1.9935224 1
-6.1184387 5.0562177 -1.9942994 2
-4.4588714 3.6847675 -1.9988385 1
-0.67308444 0.55623037 -0.40848634 0
-20.751396 17.271017 3.7391207 19
-19.473497 16.207443 2.1644642 3
-19.39102 16.138798 1.2630069 17
-5.6202693 4.6776495 0.23669277 0
-19.850157 17.785521 0.78450829 20
-21.61174 20.826523 0.79327041 14
-9.2552729 9.5908175 0.31363356 11
-37.724949 27.018381 0.95335269 1
-34.059891 26.314978 0.75880337 1
-31.374718 26.112616 0.59777725 1
-19.812704 17.751965 0.31202084 23
-26.704819 25.734554 0.32429701 1
-9.2660103 9.601944 0.077787064 11
-37.505119 26.860941 0.13124014 1
-34.055691 26.311731 -0.0037555995 1
-30.815313 25.647034 -0.12175412 23
-19.798817 17.739521 -0.15914361 15
-23.758383 22.89517 -0.29427528 24
-9.2682896 9.6043053 -0.15887943 9
-34.672226 24.832041 -0.63198763 24
-31.569086 24.390558 -0.70958036 11
-29.139759 24.252501 -0.78553462 16
-27.105274 24.286026 -0.86275131 24
-23.37085 22.521719 -0.86407506 12
-9.2759914 9.6122866 -0.39552709 4
-34.973 25.047453 -1.3984692 1
-32.224808 24.897175 -1.4462502 1
-29.560745 24.602879 -1.4788125 1
-11.572859 10.369154 -0.64365661 0
-11.08102 10.678414 -0.68238807 0
-9.2835512 9.62012 -0.63280612 3
-14.742244 10.558307 -0.91033697 2
-15.178384 11.726955 -1.0210035 1
-13.976062 11.632027 -1.0210643 1
-11.14029 9.9815769 -0.88446975 28
-10.780289 10.388609 -0.928532 24
-16.514204 17.112915 -1.5470655 22
-14.64576 10.489205 -1.2236824 10
-13.92407 10.757861 -1.248317 11
-12.347277 10.276418 -1.1864499 10
-11.055645 9.905736 -1.1408975 15
-10.778313 10.386705 -1.1935562 16
-10.247731 10.619256 -1.2215878 16
-13.4077 9.6025143 -1.4120939 26
-12.28707 9.4931002 -1.3764706 17
-11.343486 9.44098 -1.35116 14
-10.451743 9.364646 -1.3272855 20
-9.7438869 9.3898621 -1.3184712 15
-9.1174669 9.4480143 -1.3195609 14
-13.69278 9.8066864 -1.7404833 5
-12.498973 9.6568184 -1.68018 7
-11.35411 9.4498224 -1.6138945 11
-11.294082 9.3998623 -1.8659253 7
-10.674102 8.8838634 -2.0093682 1
-9.5014353 7.9078746 -2.0096879 1
-8.5246363 7.0949025 -1.9673948 1
-7.7266297 6.4307356 -1.9915664 1
-7.1345024 5.9379187 -2.0035002 2
-6.5745583 5.4718871 -1.9980717 1
-6.1126781 5.0874724 -1.9981984 2
-4.4198284 3.678544 -1.9870807 2
-0.64329058 0.5353992 -0.39153668 0
-20.72439 17.371342 3.7451568 17
-19.27936 16.160107 2.1491425 16
-19.349876 16.219215 1.264007 17
-22.801685 19.112547 0.96307689 15
-19.811693 17.876135 0.7854498 7
-21.636478 20.996508 0.79686368 16
-19.796446 20.657972 0.67328173 17
-37.760139 27.24349 0.95663923 0
-33.819477 26.318275 0.75548953 1
-31.154644 26.114061 0.59531724 1
-19.789217 17.855854 0.31263071 8
-26.485661 25.702259 0.32272309 1
-21.503613 22.439434 0.18117671 22
-37.04134 26.724884 0.12994286 0
-33.76791 26.278147 -0.0037339574 1
-31.016827 25.998541 -0.12290812 10
-27.273918 24.609318 -0.21991798 23
-23.744343 23.042025 -0.29509577 21
-21.49692 22.432449 -0.36984581 23
-34.513985 24.901428 -0.63068366 26
-5.0468688 3.9274669 -0.11374627 0
-29.039606 24.341221 -0.78512031 12
-26.978762 24.342997 -0.86142415 17
-23.280617 22.592016 -0.86364925 11
-21.494556 22.429985 -0.91985798 20
-34.645443 24.996275 -1.3888514 2
-31.885319 24.813114 -1.4348925 1
-29.330715 24.58523 -1.471589 1
-11.459442 10.33988 -0.63935232 3
-23.266005 22.577835 -1.4376044 2
-21.485458 22.420488 -1.4698653 12
-14.715021 10.616713 -0.91093868 4
-15.020719 11.689105 -1.0131365 1
-13.855798 11.614036 -1.0152335 1
-11.105377 10.020406 -0.88446975 27
-10.798398 10.479 -0.93323654 23
-16.432278 17.147398 -1.5449882 26
-14.592878 10.528587 -1.222327 27
-13.810858 10.747592 -1.2415234 18
-11.990327 10.050384 -1.1555144 7
-11.041725 9.9629726 -1.1430433 16
-10.807807 10.488131 -1.2008688 18
-10.180264 10.623301 -1.217958 21
-13.299765 9.5956211 -1.4042451 18
-12.168957 9.4698668 -1.3669338 13
-11.249409 9.4293404 -1.3438663 16
-10.416031 9.3984079 -1.3269088 17
-9.6796246 9.3933182 -1.3142042 17
-9.0651569 9.4596663 -1.316761 15
-13.739134 9.9126215 -1.7507625 5
-12.279982 9.5562668 -1.6552162 7
-11.284488 9.458744 -1.6086814 12
-11.20038 9.3882446 -1.8558475 8
-10.643028 8.9210672 -2.0093682 1
-9.4677238 7.9359183 -2.0084043 0
-8.4998198 7.1246138 -1.9673948 1
-7.7101512 6.4627075 -1.9931211 1
-7.0807714 5.9351568 -1.994217 2
-6.549449 5.4897981 -1.9962519 1
-6.097856 5.1112695 -1.999173 3
-4.4127564 3.6988063 -1.9896936 2
-0.65252465 0.54695117 -0.39831656 0
-20.936108 17.673607 3.7945435 14
-19.323326 16.312147 2.1603785 13
-19.229033 16.232546 1.259807 7
-21.738916 18.351313 0.92088884 3
-20.453449 18.585117 0.81345958 2
-21.623106 21.130602 0.79908305 16
-19.591898 20.587896 0.66876501 16
-36.332008 26.406425 0.92278755 0
-33.5354 26.285662 0.75118852 1
-22.667889 19.135523 0.43442225 0
-28.500803 25.897381 0.45168197 1
-26.309952 25.710695 0.32167381 1
-21.33968 22.42453 0.18045387 21
-36.381596 26.442465 0.12795146 8
-31.541525 24.722824 -0.0034972907 13
-30.011978 25.335173 -0.11927603 0
-27.178978 24.696297 -0.21984614 27
-23.789629 23.247778 -0.29666543 23
-21.335772 22.420424 -0.36841744 24
-34.368622 24.97942 -0.62961686 29
-31.133635 24.403112 -0.703605 19
-28.908615 24.403748 -0.78387737 12
-24.682831 22.428164 -0.79061043 18
-23.307423 22.776554 -0.86758804 10
-21.303129 22.386122 -0.91500419 24
-11.137722 8.0949955 -0.4476141 0
-31.653791 24.81082 -1.4283619 1
-29.107269 24.571445 -1.4646729 1
-11.438071 10.393254 -0.64018011 6
-23.098446 22.572338 -1.4321113 2
-21.310667 22.394041 -1.463246 14
-14.794211 10.752564 -0.91815877 3
-14.882372 11.665074 -1.0065453 1
-13.738876 11.59793 -1.0096269 0
-11.026006 10.018829 -0.8809281 26
-10.787449 10.541745 -0.93546504 20
-19.9137 20.926058 -1.879173 4
-14.475333 10.520801 -1.2155498 20
-13.575423 10.640664 -1.2236904 18
-11.656442 9.840003 -1.1266413 12
-10.989173 9.9853601 -1.1412041 17
-10.725499 10.481207 -1.1957817 23
-10.176098 10.693422 -1.2219177 18
-13.201714 9.5951223 -1.39742 18
-12.101334 9.4852467 -1.3630484 14
-11.173809 9.43258 -1.3387607 13
-10.365479 9.4186382 -1.3246491 16
-9.6325378 9.4131393 -1.3122648 15
-9.0211096 9.4797173 -1.315161 14
-13.691577 9.9511595 -1.7491179 6
-12.162027 9.5328188 -1.6437923 7
-11.169361 9.4288254 -1.5969518 11
-11.137217 9.4016895 -1.8508085 7
-10.608795 8.9556122 -2.0087953 1
-9.4459963 7.9740143 -2.0096879 1
-5.6880517 4.8016753 -1.3204461 0
-7.7025337 6.5022378 -1.9970078 1
-7.0779352 5.9749713 -1.9992807 2
-6.5361967 5.5176525 -1.9980717 1
-6.0740471 5.1275206 -1.9972236 2
-4.3969283 3.7117491 -1.9883871 3
-0.65061134 0.54922569 -0.39831656 0
-20.8592 17.733744 3.7917998 14
-19.041576 16.188467 2.1351826 11
-19.093122 16.232288 1.254607 13
-19.381157 16.477165 0.82344234 3
-20.314703 18.588926 0.81051737 9
-21.500769 21.158268 0.79728645 14
-19.456736 20.589315 0.6666007 20
-12.293908 9.0010767 0.31304607 0
-33.286495 26.278645 0.74766314 1
-22.664951 19.26893 0.43565226 0
-28.253832 25.853611 0.44919556 1
-26.088907 25.673319 0.3200649 1
-21.192585 22.426208 0.17987093 23
-2.6658452 1.9518186 0.0093994932 0
-31.342014 24.743538 -0.0034847243 23
-29.722233 25.268778 -0.1184743 1
-27.068989 24.769423 -0.21965457 31
-23.736851 23.35873 -0.29702216 20
-21.188694 22.422092 -0.36722717 28
-33.729382 24.695219 -0.6194818 24
-30.94154 24.427374 -0.70118636 17
-28.789747 24.476013 -0.7829659 14
-24.448025 22.371115 -0.78558618 25
-23.301882 22.930689 -0.87035578 9
-21.156199 22.387703 -0.91204453 21
-13.767391 10.079899 -0.55470878 0
-31.369329 24.765102 -1.4194177 1
-28.87211 24.546034 -1.457142 1
-11.425306 10.454703 -0.64150447 8
-22.914135 22.549118 -1.425555 1
-21.161009 22.392796 -1.4583287 21
-14.624426 10.707383 -0.90993589 0
-14.803944 11.687249 -1.0039939 0
-11.614051 9.8738499 -0.85600752 0
-11.005692 10.070737 -0.88210863 21
-10.773353 10.601736 -0.93744588 17
-19.730867 20.879404 -1.8687866 8
-14.461059 10.587772 -1.2174474 23
-13.325246 10.519863 -1.2044419 16
-11.549084 9.8186169 -1.1195703 12
-11.013094 10.077509 -1.1473347 11
-10.705902 10.53536 -1.1976894 21
-10.056567 10.641961 -1.2120184 29
-13.049156 9.554038 -1.3847939 15
-12.008735 9.4805193 -1.3563374 13
-11.067982 9.4096022 -1.3300083 14
-10.2444 9.3741169 -1.3133497 19
-9.5996237 9.4467039 -1.3122648 16
-9.0836363 9.6123962 -1.3291606 19
-13.117418 9.6040163 -1.6800412 5
-12.11307 9.5628881 -1.6416767 5
-11.078823 9.4188185 -1.5886978 12
-11.049915 9.3942423 -1.8417383 7
-10.598584 9.0105371 -2.012805 1
-9.4181061 8.0069361 -2.0096879 1
-8.437871 7.1735759 -1.9646003 1
-7.6917496 6.5392499 -2.0001173 2
-7.0421424 5.9869771 -1.9950609 2
-6.5198665 5.5429568 -1.9989816 1
-6.0620241 5.1537156 -1.999173 2
-4.3954678 3.7368693 -1.9936129 3
-0.66249228 0.56322718 -0.40679136 0
-20.785124 17.796144 3.7896049 14
-19.069714 16.327417 2.1447163 10
-19.048477 16.309235 1.255407 1
-19.347813 16.565525 0.82447767 13
-28.426609 26.194597 1.1378077 2
-21.287603 21.095282 0.79210788 18
-19.332762 20.6017 0.6648128 23
-35.83136 26.4268 0.91473544 2
-33.000473 26.24036 0.74329168 1
-30.402481 26.030489 0.58612156 1
-8.4681454 7.8032393 0.1350636 0
-25.919573 25.685404 0.3190856 0
-21.037539 22.418373 0.17921804 22
-35.858093 26.446518 0.12675661 7
-31.152126 24.770645 -0.003473205 27
-29.5518 25.302139 -0.11814632 13
-27.011786 24.890862 -0.21989404 26
-23.714825 23.500574 -0.29777133 14
-21.011772 22.390915 -0.36551315 30
-33.391911 24.627628 -0.61485881 26
-30.831034 24.515329 -0.70061725 16
-28.682861 24.558157 -0.78238589 15
-24.199228 22.299143 -0.78008795 25
-23.363701 23.152622 -0.87567842 10
-21.00132 22.379776 -0.90872973 21
-9.6298618 7.1023383 -0.38899797 0
-31.145014 24.76499 -1.4131711 1
-28.652653 24.532293 -1.4503796 2
-11.400502 10.505353 -0.64216667 6
-7.0223083 6.9588656 -0.43838695 0
-21.003431 22.382027 -1.4528441 26
-15.866579 11.702122 -0.98975831 1
-14.700524 11.689137 -0.99974144 0
-11.588612 9.9221258 -0.85668033 10
-10.988093 10.125325 -0.88352531 16
-10.795829 10.698294 -0.94264567 21
-19.71796 21.012182 -1.8744991 4
-14.446496 10.654764 -1.219345 17
-13.035477 10.365172 -1.1815137 16
-11.420801 9.7784462 -1.1104369 19
-10.927993 10.069943 -1.1421237 15
-10.703046 10.60635 -1.2015047 21
-10.046639 10.706067 -1.2153182 24
-12.980449 9.5735064 -1.3810401 23
-11.931904 9.4876661 -1.3513924 12
-10.971524 9.3937778 -1.3223499 18
-10.164762 9.366641 -1.3073235 17
-9.5609322 9.4745541 -1.311489 16
-8.9982834 9.5889015 -1.3215609 17
-13.038987 9.6166792 -1.6742848 10
-12.042253 9.5754099 -1.6365993 5
-10.985465 9.405714 -1.5800092 13
-10.968825 9.3914661 -1.833676 4
-10.561049 9.0423307 -2.0116594 1
-9.4110899 8.0577393 -2.0141811 1
-8.4367104 7.2234797 -1.9701895 1
-7.6509914 6.5507498 -1.9954532 2
-7.0122895 6.0038958 -1.9925292 1
-6.4975171 5.5631495 -1.9980717 1
-6.0439959 5.1748462 -1.999173 2
-4.3910108 3.7595668 -1.9975321 2
-0.63575244 0.54432881 -0.39153668 0
-20.425814 17.612432 3.7352796 11
-19.3235 16.661949 2.1797862 6
-19.070099 16.443451 1.260607 13
-19.308041 16.648619 0.82525414 17
-28.346718 26.304552 1.1382785 2
-21.222334 21.177929 0.79242492 10
-19.290712 20.701244 0.6658479 16
-11.839128 8.7957211 0.30302203 0
-32.746353 26.225384 0.73962528 1
-30.184219 26.026751 0.58366156 1
-27.843964 25.838018 0.44553632 1
-25.073811 25.021349 0.30974701 0
-20.896431 22.424372 0.17868173 26
-35.820133 26.612087 0.12695006 5
-31.031134 24.851725 -0.0034693654 30
-29.48451 25.423418 -0.11823135 10
-26.95698 25.014935 -0.22015744 31
-23.680786 23.631237 -0.29837778 4
-20.887125 22.414385 -0.36470374 31
-33.084209 24.57947 -0.61076921 27
-30.701572 24.587791 -0.69962138 20
-28.033632 24.172379 -0.7669735 18
-24.018644 22.288284 -0.77677006 20
-23.37332 23.324415 -0.87908489 10
-20.890356 22.417854 -0.90730911 18
-33.561371 24.933971 -1.3592185 1
-30.905495 24.751104 -1.4062146 1
-28.430628 24.514694 -1.4434636 1
-11.354971 10.536932 -0.64167005 5
-22.569466 22.522242 -1.41386 2
-20.832556 22.355827 -1.446414 26
-15.767909 11.714557 -0.98614824 1
-14.566104 11.665471 -0.99336284 0
-11.520638 9.9338264 -0.85421342 13
-10.984876 10.193499 -0.88612252 18
-10.85733 10.834613 -0.95131195 9
