# .PCD v0.7 - Point Cloud Data file format
VERSION 0.7
FIELDS x y z intensity
SIZE 4 4 4 4
TYPE F F F F
COUNT 1 1 1 1
WIDTH 1350
HEIGHT 1
VIEWPOINT 0 0 0 1 0 0 0
POINTS 1350
DATA ascii
-44.448807 -5.6703687 0.78996772 2
-6.715631 -0.60998696 0.098750971 0
-46.452724 -2.5157926 0.54564947 14
-47.018753 -0.83712691 0.41121224 20
-46.14732 0.8538385 0.26906022 14
-36.232002 -5.9656949 0.1044641 17
-14.744506 -1.880968 -0.0012971286 0
-45.994446 -4.1777177 -0.14025472 18
-46.151535 -2.4994807 -0.2766934 6
-6.1187873 -0.10893954 -0.054581303 0
-46.804672 0.86600119 -0.55724448 12
-36.200546 -5.9605155 -0.5436765 3
-45.841179 -5.8479948 -0.82197505 17
-12.50184 -1.1355536 -0.26010478 0
-41.607319 -2.2533746 -0.98778909 5
-34.698208 -0.61777061 -0.92390138 0
-35.434402 0.65562332 -1.0493721 16
-36.256409 -5.9697132 -1.1945474 3
-42.72657 -5.4506617 -1.5297287 7
-39.241337 -3.564327 -1.5150834 12
-36.902225 -1.9985555 -1.5308367 19
-34.692406 -0.61766732 -1.5386071 5
-6.535563 0.12092394 -0.30940551 0
-35.993423 -5.9264121 -1.8313036 6
-35.620483 -4.5441327 -1.911458 1
-34.459633 -3.1300001 -1.9430048 0
-33.823265 -1.8318048 -2.0029249 1
-31.195107 -0.55540103 -1.9350606 10
-31.823277 0.58880866 -2.0705438 1
-15.188029 -2.5007491 -1.0455788 0
-5.6043801 -0.71495509 -0.40082017 0
-26.061438 -2.3671844 -1.9327319 0
-25.324091 -1.3715054 -1.9492121 0
-24.908979 -0.44348213 -1.9865048 0
-24.145271 0.44674671 -1.9990218 0
-11.718754 -1.9295237 -1.0169259 0
-20.927658 -2.6697576 -1.8702621 0
-20.636387 -1.8744221 -1.8970944 1
-20.160351 -1.0918468 -1.9095737 1
-19.767246 -0.35193816 -1.9263101 1
-19.339252 0.35782355 -1.9439424 1
-7.8479743 -1.2921896 -0.82192916 0
-17.494715 -2.2318141 -1.876081 1
-17.115282 -1.5545968 -1.8775914 1
-14.756267 -1.3403252 -1.8815461 1
-13.034056 -1.1838952 -1.8936633 1
-11.658316 -1.0589356 -1.9031379 1
-10.531554 -0.95659077 -1.8758719 1
-9.6831627 -0.87953061 -1.9262692 2
-8.9015198 -0.80853331 -1.929234 0
-8.2199688 -0.74662739 -1.9280118 1
-7.5956712 -0.6899218 -1.9163209 2
-0.88042021 -0.079969376 -0.41357124 0
-49.200516 -4.2958336 9.473031 3
-31.786516 -2.7753689 4.4190106 13
-47.620705 -4.157896 4.0837793 14
-46.862797 -4.0917211 2.3550131 9
-46.924805 -4.0971351 1.5247207 4
-46.536152 -2.35741 1.3715361 19
-34.660343 -0.49608505 0.91618186 13
-47.159534 1.0372651 1.1099974 11
-44.793785 -5.5555525 0.79574937 2
-46.298874 -4.0424833 0.68059683 24
-7.9532542 -0.40289283 0.093404531 0
-34.655128 -0.49601036 0.30306661 12
-46.128059 1.014578 0.26896697 12
-54.805412 -8.8274603 0.15792514 20
-15.453597 -1.9166336 -0.0013589134 0
-11.902662 -1.0392544 -0.036284499 0
-50.458393 -2.5561016 -0.30245906 17
-34.67107 -0.49623859 -0.30925837 10
-46.78537 1.0290353 -0.55705404 12
-48.481747 -7.8089128 -0.72770739 21
-45.603329 -5.6559563 -0.81735122 14
-43.851719 -3.8288152 -0.91206539 13
-41.335373 -2.093951 -0.98115325 85
-34.688156 -0.49648309 -0.92358202 10
-35.303986 0.77650446 -1.0455837 15
-46.274822 -7.453445 -1.5237595 44
-42.269291 -5.2424517 -1.5126922 18
-8.3500385 -0.72906506 -0.32228953 0
-37.01276 -1.8749778 -1.535141 19
-34.686359 -0.4964574 -1.5382527 1
-34.089581 0.74979383 -1.6139771 35
-33.623749 -5.4157476 -1.7097648 3
-32.702785 -4.0559654 -1.7541188 0
-5.904201 -0.51551217 -0.33280462 0
-12.765306 -0.64665985 -0.75578952 0
-31.912811 0.70191628 -2.0765162 2
-13.094509 -1.6240475 -0.93609625 0
-25.966217 -2.2671826 -1.9250717 0
-25.181351 -1.275627 -1.9378706 0
-7.9070373 0.17391379 -0.65468132 0
-21.377247 -3.4432144 -1.8540131 0
-21.008022 -2.6055217 -1.8766199 1
-20.686455 -1.8061918 -1.9011059 1
-10.439961 -0.52886349 -0.98868459 0
-19.776314 -0.28305355 -1.9270859 1
-19.413485 0.42699593 -1.9515421 0
-17.676823 -2.8471904 -1.8502657 2
-17.545818 -2.1761215 -1.8807353 1
-17.168139 -1.4989978 -1.8828045 1
-14.780622 -1.2905371 -1.8840656 1
-13.038109 -1.1383935 -1.8936633 1
-11.689473 -1.0206404 -1.9076309 1
-10.562295 -0.92222327 -1.8807625 2
-9.6900835 -0.84606814 -1.9270465 2
-8.9237642 -0.77915865 -1.9334538 0
-8.2225256 -0.71793151 -1.9280118 1
-7.6173568 -0.66509259 -1.9211947 2
-3.9787898 -0.33340979 1.0480703 0
-32.284267 -2.7053177 6.2141337 4
-31.776268 -2.6627488 4.4162669 13
-46.332249 -3.8824933 3.9721003 9
-11.075264 -0.9280715 0.5564031 0
-50.719578 -4.2501373 1.6475317 2
-46.711834 -2.2028747 1.376479 18
-48.056404 -0.52003157 1.2702261 7
-34.591187 0.88163352 0.81424278 11
-11.164011 -1.7582215 0.23219638 0
-45.01144 -5.4230666 0.79927474 0
-46.320671 -3.8815229 0.68071395 19
-5.7931628 -0.27319866 0.068024389 0
-47.42741 -0.51322508 0.41474482 19
-46.124237 1.1755791 0.26896697 9
-54.843792 -8.6373558 0.1579479 13
-47.607712 -5.7358708 -0.0041846014 10
-46.165981 -3.8685606 -0.14069203 6
-46.579399 -2.196629 -0.27915981 2
-48.279255 -0.52244312 -0.4306215 8
-34.682278 0.88395524 -0.41298178 13
-48.307213 -7.6079087 -0.72468466 15
-45.662506 -5.5015082 -0.8180626 14
-43.813007 -3.6713889 -0.91098815 12
-5.3457932 -0.057848301 -0.14232701 0
-34.62957 0.88261181 -1.025695 37
-46.114941 -7.2626481 -1.517651 13
-41.731705 -5.0279183 -1.4928163 15
-38.516441 -3.2275538 -1.4861896 20
-37.082951 -1.748788 -1.5377897 17
-36.549942 -0.39551699 -1.6208267 21
-34.082756 0.86867505 -1.613788 17
-33.610874 -5.2933807 -1.7081604 13
-32.641399 -3.9327004 -1.750079 14
-34.44482 -2.8863649 -1.9409864 0
-33.847195 -1.5961936 -2.0036333 0
-32.727196 -0.35415 -2.0298946 0
-31.886225 0.81269151 -2.0749581 2
-26.937141 -4.2423339 -1.8523309 0
-14.787753 -1.239166 -1.0960004 0
-25.404758 -1.1980582 -1.9547297 0
-24.022013 0.61225456 -1.9891224 0
-21.428505 -3.374778 -1.8574256 0
-21.013035 -2.5316918 -1.8762667 0
-8.3953419 -0.70350266 -0.77130997 0
-20.15555 -0.95051181 -1.9084437 2
-19.801067 -0.21427281 -1.9294132 1
-19.407896 0.49465352 -1.9511422 0
-17.729885 -2.7922819 -1.8547885 1
-5.4733152 -0.65943581 -0.58643401 0
-7.853579 -0.6581046 -0.86103338 0
-10.890074 -0.91255313 -1.3877285 0
-13.053838 -1.0938696 -1.8953817 1
-11.681162 -0.97884369 -1.9057053 1
-10.588998 -0.88732386 -1.8849543 1
-9.7007971 -0.81289554 -1.9286013 2
-8.9342213 -0.74865896 -1.9351416 0
-8.2210999 -0.68890166 -1.927102 1
-7.6389604 -0.64012027 -1.9260683 3
-0.6210025 -0.05203801 -0.29153383 0
-32.911549 -2.6422167 8.6668911 7
-30.750694 -2.4687381 5.9172535 10
-31.68663 -2.5438774 4.4025483 10
-46.28196 -3.7156246 3.9666524 18
-46.623413 -3.7430372 2.3416131 16
-47.251144 -3.793433 1.5344266 26
-47.098713 -2.0563846 1.3876594 11
-6.5135503 -0.047747821 0.1721606 0
-34.547928 1.0012246 0.8133018 16
-44.312733 -6.8203745 0.92114425 2
-44.934761 -5.254776 0.79758257 2
-46.30603 -3.717557 0.68030399 18
-46.987999 -2.0515506 0.55165434 5
-36.997589 -0.27121219 0.32352754 16
-34.620876 1.0033388 0.20190594 14
-5.293643 -0.81476873 0.015237193 0
-45.617142 -5.3345752 -0.0040079742 1
-46.111427 -3.7019339 -0.14048551 14
-46.61076 -2.03508 -0.27930349 5
-36.869541 -0.27027354 -0.32884344 20
-34.627007 1.0035164 -0.41236281 20
-47.934227 -7.3777752 -0.71869844 14
-45.379536 -5.3067884 -0.81265628 12
-43.642185 -3.5036974 -0.90717649 14
-42.247871 -1.8445911 -1.0024827 8
-36.757988 -0.26945579 -0.97861797 28
-34.538357 1.0009474 -1.0230905 33
-45.914787 -7.0669537 -1.5102427 9
-41.359898 -4.8367229 -1.4789033 12
-38.164909 -3.0639689 -1.4722037 22
-37.244549 -1.6261402 -1.5442462 17
-36.61903 -0.26843715 -1.6238391 15
-34.131439 0.98915464 -1.6162466 15
-36.444408 -5.6093254 -1.851159 9
-32.726337 -3.8270943 -1.7539062 3
-34.828896 -2.7961457 -1.962067 0
-7.0170469 -0.3063724 -0.41531828 0
-32.696297 -0.23968139 -2.0279138 0
-31.895164 0.92434567 -2.075737 1
-6.5768681 -0.52800643 -0.4873077 0
-25.42074 -1.109899 -1.9556493 0
-24.796627 -0.18177259 -1.9772844 0
-24.103407 0.69853473 -1.996052 0
-21.491364 -3.3078334 -1.8618618 0
-19.359632 -2.2639606 -1.7279173 0
-20.730324 -1.6642792 -1.9040233 1
-20.198528 -0.88189125 -1.9122102 1
-19.809656 -0.14521541 -1.930189 1
-6.8665123 0.19899665 -0.69037956 0
-17.723797 -2.7279501 -1.8531439 1
-17.442062 -2.0397155 -1.8680419 1
-17.098913 -1.372741 -1.8741159 2
-3.5835993 -0.28769979 -0.45652941 0
-13.061523 -1.0486099 -1.8959545 2
-11.672701 -0.93711191 -1.9037797 1
-10.580254 -0.84940761 -1.8828584 2
-9.7074871 -0.77933991 -1.9293786 1
-8.9406776 -0.71777868 -1.9359856 1
-8.2506323 -0.66238022 -1.933471 1
-7.6488829 -0.6140703 -1.9280177 2
-32.554104 -2.4991908 8.5704117 9
-9.1693764 -0.70393646 1.7639489 0
-31.730873 -2.435991 4.4074869 10
-46.211201 -3.5476511 3.9595022 12
-46.600349 -3.5775261 2.339813 14
-47.176399 -3.6217499 1.5315795 14
-47.473145 -1.9067162 1.3984867 16
-37.106766 -0.14248912 0.98075533 11
-34.664124 1.1257 0.81612474 9
-44.510277 -6.691823 0.92475945 2
-45.600578 -5.1713376 0.8090753 3
-46.418423 -3.5635598 0.68176824 15
-46.89896 -1.8836545 0.55052847 2
-36.974312 -0.1419805 0.32331768 21
-34.577187 1.1228766 0.20167276 17
-45.314548 -6.8127398 0.13036391 3
-47.53133 -5.390295 -0.0041744784 18
-46.25568 -3.5510659 -0.14088638 13
-50.458408 -2.0266166 -0.30231538 19
-36.870262 -0.14158094 -0.32884344 28
-34.623291 1.1243739 -0.41236281 22
-47.821255 -7.1896062 -0.71662402 14
-45.11166 -5.1158919 -0.80753452 11
-43.598328 -3.34706 -0.90601641 13
-42.389904 -1.7025523 -1.0057058 7
-36.738712 -0.14107579 -0.97808576 26
-34.56662 1.1225336 -1.0240376 32
-45.014065 -6.7675638 -1.4798299 28
-41.225594 -4.6751924 -1.4735085 11
-37.928288 -2.9117687 -1.462675 19
-37.317886 -1.4988393 -1.5470605 18
-36.587776 -0.14049621 -1.6224215 16
-34.083851 1.1068559 -1.6141663 15
-36.47562 -5.4838657 -1.8517606 7
-35.636803 -4.0413947 -1.9091191 1
-31.692669 -2.433058 -1.7849002 12
-33.989178 -1.3651447 -2.011425 0
-32.744843 -0.12573943 -2.0308852 0
-7.4722586 0.24265783 -0.48634672 0
-44.792225 -6.7342119 -3.0768266 0
-6.5786715 -0.50504708 -0.4873077 1
-13.170507 -0.52898163 -1.0130754 0
-24.280113 0.78848445 -2.0109012 0
-8.8911772 -1.3367292 -0.76986074 0
-21.085625 -2.3912172 -1.8812118 1
-20.724092 -1.5909963 -1.9029293 1
-20.165674 -0.80993617 -1.9088204 1
-19.829948 -0.076146536 -1.9321285 1
-19.403971 0.63013417 -1.9511422 1
-17.756817 -2.6696188 -1.855611 1
-17.555788 -1.9909159 -1.8794659 1
-17.17893 -1.3188329 -1.8823701 1
-14.82102 -1.1378152 -1.8875928 2
-13.061157 -1.0027099 -1.8953817 1
-11.691647 -0.8975721 -1.9063473 1
-10.58708 -0.81277412 -1.8835571 2
-9.7179728 -0.74605238 -1.9309332 1
-8.9392309 -0.68626809 -1.9351416 2
-8.2412434 -0.63268334 -1.9307414 1
-7.6316395 -0.58588386 -1.9231441 3
-0.96092606 -0.073770657 -0.45086044 0
-32.419449 -2.3807309 8.532836 10
-30.657089 -2.2513115 5.8961554 26
-31.782246 -2.3339379 4.4135232 10
-46.055771 -3.382118 3.9452019 10
-8.2036085 -0.60243422 0.41180226 0
-47.363586 -3.4781578 1.5372736 14
-47.495193 -1.7498775 1.3989575 10
-47.415436 -0.024824603 1.2532108 17
-34.672192 1.2410663 0.81640708 17
-10.524719 -1.5466458 0.2185571 0
-53.365486 -5.8727531 0.94649476 15
-46.489819 -3.4139922 0.68264681 14
-53.420078 -1.9681695 0.62699723 12
-47.434185 -0.024834419 0.41477978 18
-34.605251 1.2386702 0.2018593 18
-45.554554 -6.6944075 0.13098979 1
-47.544971 -5.2322183 -0.0041741291 17
-46.143536 -3.3885629 -0.14050981 11
-50.824608 -1.8725438 -0.30447051 14
-36.906528 -0.01932261 -0.32916451 3
-48.573452 1.738652 -0.57857442 17
-47.504528 -6.9809632 -0.71152687 13
-7.5611496 -0.8320877 -0.13530044 0
-43.48156 -3.1930802 -0.90336484 9
-42.239468 -1.5562394 -1.0020087 26
-36.870934 -0.019303974 -0.98159868 13
-34.966274 1.2515928 -1.0359945 13
-44.541832 -6.5455842 -1.4635838 14
-40.859413 -4.4964876 -1.4598793 9
-37.794228 -2.7754292 -1.457142 15
-37.350609 -1.3761179 -1.5482193 18
-36.628002 -0.019176785 -1.6241935 12
-34.163849 1.2228705 -1.6181378 18
-36.074638 -5.3012996 -1.8305013 5
-15.119191 -1.6638334 -0.80965877 0
-31.736412 -2.3305719 -1.7869185 6
-34.093277 -1.2561073 -2.0173278 1
-32.948685 -0.01725046 -2.0435131 0
-31.237926 1.1181393 -2.0334122 9
-27.191092 -2.9923191 -1.9406942 0
-25.467562 -0.93830782 -1.9587145 0
-25.088366 -0.013135148 -2.0004942 0
-24.361027 0.8719855 -2.0178306 0
-21.552811 -3.167264 -1.8652743 0
-21.081556 -2.3199782 -1.8801521 0
-20.729254 -1.5222584 -1.9029293 1
-20.243858 -0.74584961 -1.9159765 1
-19.838055 -0.010386319 -1.9329044 1
-19.469391 0.69689292 -1.957942 1
-17.808876 -2.617079 -1.8601338 1
-7.1719942 -0.789262 -0.76752615 0
-17.191139 -1.2624359 -1.8832389 1
-14.868244 -1.0918535 -1.8931357 2
-13.095995 -0.96170795 -1.8999641 1
-11.741811 -0.86226302 -1.9140496 1
-10.589718 -0.77765876 -1.8835571 2
-9.7125673 -0.71324503 -1.9293786 2
-8.9687548 -0.65862286 -1.9410491 2
-8.2471809 -0.60563397 -1.9316512 1
-7.6296716 -0.560287 -1.9221693 3
-32.419838 -2.2670183 8.5308046 14
-30.531517 -2.134974 5.8705363 19
-33.209156 -2.3222127 4.6105213 8
-37.233124 -2.6035962 3.1886437 2
-46.332691 -3.2399008 2.325213 14
-47.47913 -3.3200676 1.5406383 9
-47.940575 -1.5987236 1.4119031 4
-9.3007107 0.027594293 0.24582294 0
-34.711601 1.3638235 0.81744218 13
-45.077339 -6.4636226 0.93560517 2
-47.51181 -5.0607638 0.84235495 6
-46.625134 -3.2603502 0.68446255 10
-12.971896 -0.43258718 0.1522339 0
-47.409977 0.14066073 0.41456994 18
-34.720619 1.3641778 0.20255883 2
-5.986743 -0.85843682 0.017205851 0
-47.200989 -5.0276566 -0.0041423645 15
-45.971531 -3.2146459 -0.13995102 10
-50.423065 -1.6815099 -0.30202803 11
-47.425903 0.14070798 -0.42298725 46
-47.372089 1.8612559 -0.56433856 4
-47.231674 -6.772532 -0.70708168 11
-7.0589461 -0.75189012 -0.12626618 0
-43.384724 -3.0337586 -0.90112752 9
-42.316586 -1.4111747 -1.003715 9
-40.905327 0.12136208 -1.0890093 14
-35.153458 1.3811841 -1.041677 29
-44.231987 -6.3424077 -1.4526664 12
-40.358112 -4.2987809 -1.4414232 20
-37.59634 -2.6289949 -1.4491501 16
-37.514957 -1.2510499 -1.5548414 16
-34.757694 0.10312266 -1.541265 0
-34.179333 1.3429105 -1.6190834 12
-35.586746 -5.1027699 -1.8048298 4
-7.514791 -0.80044484 -0.40227792 0
-34.005669 -1.134022 -2.0118971 0
-32.924591 0.097684018 -2.0420275 0
-31.532969 1.2389346 -2.052887 1
-27.621189 -3.9605918 -1.8954335 0
-27.110119 -2.8876591 -1.9341837 0
-26.415373 -1.8471447 -1.9557126 0
-25.478653 -0.8496629 -1.9593276 0
-25.199903 0.07476563 -2.0093966 0
-24.333933 0.95608354 -2.0158508 0
-9.2787962 -1.3304832 -0.80262077 0
-5.5388236 -0.58997285 -0.49379158 0
-20.738415 -1.4501728 -1.903294 1
-20.246338 -0.67517549 -1.9159765 1
-19.881762 0.05898723 -1.9371712 1
-9.7035933 0.38125551 -0.9759711 0
-17.810022 -2.5537724 -1.8593115 1
-17.517515 -1.8658942 -1.8739655 2
-17.191473 -1.2021462 -1.8828045 1
-14.868006 -1.0396733 -1.8926318 1
-13.095323 -0.9157151 -1.8993913 1
-11.732932 -0.82044744 -1.912124 1
-10.612012 -0.74206495 -1.8870503 1
-9.7032547 -0.67851841 -1.9270465 3
-8.9592962 -0.62649572 -1.9385173 2
-8.2337017 -0.57575715 -1.9280118 1
-7.6548004 -0.53527635 -1.9280177 4
-32.481602 -2.1574192 8.545022 13
-30.577982 -2.0309813 5.8780713 19
-31.904509 -2.1190889 4.4283395 10
-38.542374 -2.559974 3.2999823 0
-46.471279 -3.0866098 2.3316128 8
-47.622074 -3.1630452 1.5449089 8
-16.47752 -0.49192137 0.48522767 0
-11.363794 0.073386334 0.3003563 0
-46.991985 2.0106211 1.1067981 14
-44.88575 -6.2763371 0.93116832 2
-13.474625 -1.3877134 0.23880942 0
-46.767944 -1.3962144 0.54879266 20
-47.405201 0.3061384 0.41453496 18
-46.788395 2.0019102 0.2730009 18
-44.558319 -6.2305532 0.12799697 2
-45.793789 -4.7161722 -0.0040173987 3
-46.082253 -3.0607708 -0.14025472 12
-49.605011 -1.4809124 -0.29709521 14
-47.505119 0.30678368 -0.42370075 6
-48.32436 2.0676286 -0.57576537 12
-47.03717 -6.5771689 -0.7038219 10
-44.577133 -4.5908728 -0.79707754 19
-43.24342 -2.8722162 -0.89797878 11
-42.117397 -1.2573766 -0.99888039 21
-40.796696 0.26346126 -1.086135 13
-35.220325 1.5069532 -1.043808 21
-43.786652 -6.1226516 -1.43733 25
-40.122356 -4.1320877 -1.432479 14
-37.098782 -2.4640911 -1.4296314 16
-37.563038 -1.1214104 -1.5566624 17
-34.789089 0.2246647 -1.5426826 3
-34.521729 1.4770628 -1.6355371 9
-35.803673 -3.6873188 -1.915923 0
-34.844212 -2.3143432 -1.9609457 0
-34.189022 -1.0206821 -2.0225222 1
-33.123661 0.21390952 -2.0544078 0
-31.955156 1.3672483 -2.0806706 1
-25.465519 -0.76024985 -1.9581014 0
-25.095821 0.16206647 -2.0011301 0
-12.143319 0.51956969 -1.0061105 0
-21.696754 -3.0338392 -1.8758531 0
-5.5249953 -0.56900364 -0.49237874 0
-20.826818 -1.3833116 -1.9109523 1
-20.288378 -0.60569108 -1.9197431 1
-19.885414 0.12841816 -1.9375591 1
-19.46405 0.83279794 -1.957942 1
-17.834593 -2.4937963 -1.8609561 1
-17.5714 -1.8096287 -1.8790427 1
-17.259047 -1.1463412 -1.8897554 1
-14.887382 -0.98881584 -1.8946474 2
-13.11424 -0.87104422 -1.9016825 1
-11.763302 -0.78131533 -1.9166172 1
-10.618467 -0.70527571 -1.887749 1
-9.7486305 -0.64750141 -1.9355974 1
-8.9458237 -0.59417915 -1.9351416 2
-8.2201157 -0.54597789 -1.9243723 2
-7.6217842 -0.50623685 -1.9192451 3
-32.481213 -2.0435452 8.5429916 9
-30.620173 -1.9264585 5.8848529 15
-31.729811 -1.9962709 4.4030972 12
-31.411249 -1.9762287 2.6888115 5
-9.4374981 -0.59375721 0.47340262 0
-47.449284 -2.9852567 1.5389559 12
-47.922592 -1.2632589 1.4110793 0
-47.241161 0.46998316 1.2486664 7
-47.076553 2.1789062 1.1089623 17
-46.234837 -6.3005004 0.95869333 2
-46.168991 -4.5920115 0.81795931 16
-46.630791 -2.9337614 0.68422824 17
-47.16037 -1.2431664 0.55334324 15
-47.799809 0.47554088 0.41799757 7
-46.433502 2.149143 0.27097228 16
-44.445045 -6.0566025 0.12761007 1
-8.1477985 -0.81038773 -0.0007145378 0
-46.200439 -2.9066861 -0.1405827 11
-47.758553 -1.2589347 -0.2860083 4
-47.359776 0.47116318 -0.42241648 4
-48.101093 2.2263262 -0.57319432 5
-45.225006 -6.1628895 -0.67638028 7
-44.457577 -4.4217925 -0.7946589 14
-43.133442 -2.7137268 -0.89549291 12
-42.097542 -1.1097083 -0.99831158 11
-40.743549 0.40534103 -1.0847511 10
-35.418541 1.639323 -1.0498457 15
-43.340328 -5.9060607 -1.4219936 18
-39.846153 -3.963136 -1.4221152 13
-36.827915 -2.3170166 -1.4188731 18
-37.690575 -0.9935388 -1.5617944 15
-34.424469 0.34247506 -1.5265577 19
-34.224998 1.5840807 -1.6217312 10
-35.724419 -4.868228 -1.8100444 0
-35.776581 -3.5583725 -1.9137968 0
-34.891933 -2.195215 -1.9631884 0
-34.216328 -0.90195626 -2.0239387 1
-31.994049 1.4808228 -2.0835268 1
-27.810291 -3.7897561 -1.9065481 0
-27.15344 -2.700707 -1.9358821 0
-10.028802 -0.63095891 -0.74215728 0
-25.495926 -0.6720829 -1.9602472 0
-25.063206 0.24934365 -1.9985865 0
-24.394361 1.1290764 -2.0214605 0
-21.636131 -2.9483929 -1.8697106 0
-21.203815 -2.1089516 -1.8889824 1
-20.855371 -1.3121091 -1.9131404 1
-13.431372 -0.35405639 -1.2707893 0
-7.9101481 0.07869485 -0.77075678 0
-19.504757 0.90276438 -1.9623418 1
-17.839247 -2.4309847 -1.8605449 1
-17.557821 -1.7463176 -1.8769273 1
-17.239134 -1.0845946 -1.8871487 1
-14.894703 -0.93709552 -1.8951513 2
-13.144857 -0.82700455 -1.9056921 1
-11.758077 -0.73975569 -1.9153334 1
-10.624796 -0.66845566 -1.8884475 2
-9.7312517 -0.61223865 -1.9317106 2
-8.9673548 -0.56417829 -1.9393613 2
-8.2414083 -0.51850557 -1.9289217 1
-7.6506071 -0.48133552 -1.9260683 3
-32.464973 -1.9287821 8.5368977 9
-30.434557 -1.8081528 5.8479314 15
-31.669346 -1.881513 4.3937688 12
-31.378172 -1.8642141 2.6854067 20
-46.774841 -2.7789483 2.345813 16
-46.705139 -2.7748072 1.5144973 13
-53.071136 -1.2136221 1.5625437 6
-47.371178 0.63666856 1.252154 8
-45.81057 2.2805796 1.079321 13
-9.7206936 -1.2901123 0.20146692 0
-46.316113 -4.4434156 0.82028604 14
-46.632763 -2.7705071 0.68411112 16
-47.164425 -1.0785484 0.55334324 17
-47.62188 0.64003801 0.41645864 14
-45.986267 2.2893262 0.26840734 8
-45.036907 -5.9772139 0.12924872 1
-46.096352 -4.4223323 -0.0040411353 14
-46.210304 -2.7454083 -0.1405827 13
-45.687237 -1.0447683 -0.27358046 5
-46.933895 0.63079149 -0.41863504 25
-48.316738 2.4053435 -0.57586056 15
-46.213654 -6.1333895 -0.69084191 7
-44.317478 -4.2516727 -0.7918846 13
-42.947037 -2.5515339 -0.89143264 13
-42.009212 -0.96065986 -0.99613124 13
-40.681911 0.54676485 -1.0831543 11
-7.4475088 0.37075803 -0.2207896 0
-43.051552 -5.7137218 -1.4118561 12
-39.728424 -3.8114142 -1.4174302 10
-36.835777 -2.1884568 -1.4188731 17
-37.709797 -0.86234146 -1.5624566 15
-34.343147 0.46157187 -1.5230137 4
-34.354942 1.710286 -1.6281613 9
-36.857983 -4.8917227 -1.8666019 0
-10.799059 -1.0360261 -0.57747722 0
-35.892067 -2.13239 -2.0190296 2
-6.351243 -0.14523919 -0.37565172 0
-8.019865 0.10778698 -0.49744552 0
-8.9101095 0.44357041 -0.58034432 0
-27.724445 -3.6795368 -1.899771 0
-27.119013 -2.6017087 -1.9327683 0
-26.552731 -1.5775288 -1.9645512 0
-25.653616 -0.58664268 -1.9722017 0
-25.086103 0.33715722 -2.0004942 0
-9.8421087 0.48996794 -0.8157118 0
-21.64234 -2.8723309 -1.8693693 0
-21.278471 -2.0413864 -1.894987 1
-5.8929205 -0.35010532 -0.54046398 0
-20.323959 -0.46476501 -1.9227562 1
-19.884035 0.26724139 -1.9375591 2
-3.8875775 0.19353458 -0.39118841 0
-17.898897 -2.3755083 -1.8658901 1
-17.575687 -1.6861537 -1.8781966 1
-17.298384 -1.0277174 -1.8932308 1
-14.897883 -0.88510072 -1.8951513 1
-13.120001 -0.77947462 -1.9016825 1
-11.756646 -0.69847614 -1.9146916 1
-10.627064 -0.63136631 -1.8884475 2
-9.74508 -0.57896662 -1.9340427 2
-8.9731722 -0.53310668 -1.9402052 2
-8.247057 -0.48996732 -1.9298315 2
-7.6561136 -0.45485869 -1.927043 2
-33.433369 -1.8692141 8.7897749 4
-30.146513 -1.6854506 5.7914186 17
-31.125835 -1.7402031 4.3174934 26
-30.950747 -1.7304142 2.6482937 14
-46.477119 -2.5984724 2.3304129 10
-46.654663 -2.6083987 1.5125561 18
-1.3551587 -0.026256675 0.039896239 0
-47.1008 0.79747564 1.2450731 16
-32.784409 1.7468523 0.77255672 5
-44.358055 -5.7296124 0.91892582 2
-46.53046 -4.3001261 0.82381141 9
-46.466442 -2.5978756 0.68153399 7
-47.231884 -0.91513437 0.55409384 14
-6.0748973 0.10285564 0.053128466 0
-45.850178 2.4430358 0.26766118 6
-44.83931 -5.7917747 0.12862284 2
-46.238968 -4.2731876 -0.0040523051 17
-46.267532 -2.5867548 -0.14072846 11
-45.818581 -0.8877511 -0.27434671 4
-46.515488 0.78756559 -0.41492492 13
-47.021961 2.5054719 -0.56052965 14
-46.016621 -5.9438448 -0.68758214 9
-44.10107 -4.0756135 -0.78775871 12
-42.927734 -2.4000311 -0.89085263 12
-41.876373 -0.81136948 -0.99290818 10
-35.770199 0.60563439 -0.95243067 7
-35.537991 1.8935714 -1.0537524 2
-42.627163 -5.5060377 -1.3972994 13
-9.1551914 -0.84607971 -0.32653141 0
-36.875122 -2.0616379 -1.4201026 16
-34.679749 -0.67193234 -1.4368045 4
-34.197491 0.57900649 -1.5166346 20
-34.979164 1.8637954 -1.6580428 9
-7.3416858 -0.94830608 -0.37163571 0
-10.556011 -0.97553682 -0.5642947 0
-35.63612 -1.992367 -2.0042284 0
-31.231575 -0.60512275 -1.847092 12
-33.80619 0.57238126 -2.0969965 0
-32.170269 1.7141291 -2.095731 2
-7.9633398 -1.0286036 -0.54542512 0
-7.8745689 -0.72773057 -0.56103498 0
-26.617819 -1.488166 -1.9689707 0
-25.124641 0.42539173 -2.0036736 0
-9.5656681 0.50968766 -0.79294312 0
-12.533633 -1.6189362 -1.0821048 0
-21.297369 -1.9682027 -1.8960466 1
-20.903793 -1.1687027 -1.9167874 1
-20.29759 -0.39327294 -1.9201196 1
-19.962593 0.33799177 -1.9453171 1
-19.501955 1.0391231 -1.9627419 0
-8.9614325 -1.1575245 -0.93376744 0
-17.617113 -1.6280906 -1.8820046 1
-17.313778 -0.96798974 -1.894534 1
-14.904844 -0.83330953 -1.8956552 1
-13.142406 -0.73477399 -1.9045465 2
-11.762955 -0.65765077 -1.9153334 1
-10.629203 -0.59426427 -1.8884475 1
-9.7627115 -0.54581994 -1.937152 2
-8.9671707 -0.5013423 -1.9385173 2
-8.2603836 -0.46182683 -1.9325612 2
-7.6808949 -0.4294284 -1.9328914 3
-32.107033 -1.677045 8.4394026 2
-29.983797 -1.5661421 5.7590179 21
-31.1597 -1.627563 4.3213348 10
-31.239464 -1.6317294 2.6724682 7
-46.374622 -2.4222834 2.3248129 8
-46.687866 -2.4386446 1.5133326 14
-34.664707 -0.54455656 1.0204728 10
-32.614098 1.8576705 0.76869863 11
-44.763653 -5.6152859 0.92689574 1
-46.633553 -4.1373181 0.82536256 7
-6.8659029 -0.35862634 0.10068382 0
-34.697334 -0.5450691 0.40702042 8
-45.956497 0.94661182 0.40194362 21
-4.6803346 0.26658779 0.02732807 0
-44.852295 -5.6264057 0.12860009 1
-46.011276 -4.0821099 -0.0040310123 19
-46.352596 -2.4211328 -0.14095926 9
-34.667103 -0.54459417 -0.20756195 12
-46.396313 0.95567119 -0.41389036 9
-47.583496 2.7103145 -0.56733811 10
-45.883324 -5.7557406 -0.68527061 7
-44.055958 -3.9086344 -0.78669167 11
-42.772499 -2.2341337 -0.88745528 12
-34.689972 -0.54495347 -0.82246238 12
-35.539867 0.73205012 -0.94636285 21
-39.386871 2.2434418 -1.1681131 12
-42.222607 -5.2965293 -1.3833927 16
-39.014061 -3.4613187 -1.3910238 10
-37.030117 -1.9341922 -1.4257891 13
-34.673981 -0.54470229 -1.4364734 3
-34.167171 0.70377535 -1.5153942 8
-35.000023 1.9935708 -1.6593667 32
-36.991138 -4.6402783 -1.8716159 0
-35.983521 -3.1924498 -1.9229395 1
-35.495617 -1.8540407 -1.9959306 1
-34.084248 -0.535438 -2.0156748 2
-32.969643 0.67910862 -2.0452464 0
-32.15979 1.8317935 -2.0954714 2
-27.793623 -3.4865148 -1.9027529 0
-5.9774389 -0.53031701 -0.42572987 0
-9.616662 -0.50230658 -0.71122175 0
-9.3831663 -0.14740251 -0.72126061 0
-25.10298 0.51707113 -2.002084 0
-7.9916692 0.45519853 -0.66260082 0
-12.571117 -1.5769584 -1.0848348 0
-11.529322 -1.0228789 -1.0260834 0
-20.884071 -1.0908365 -1.9145992 1
-20.302874 -0.31894293 -1.9204962 1
-19.9652 0.41124314 -1.9457051 1
-8.1417236 0.46374547 -0.81957573 0
-3.5293965 -0.442738 -0.36758611 0
-17.662582 -1.5670203 -1.8862357 1
-17.281471 -0.90266216 -1.8906242 1
-14.943462 -0.78054106 -1.9001902 1
-13.172683 -0.68804806 -1.908556 1
-11.765285 -0.61453557 -1.9153334 0
-10.63131 -0.55530465 -1.8884475 1
-9.7646465 -0.51003629 -1.937152 1
-8.9572334 -0.4678627 -1.9359856 2
-8.254241 -0.43114334 -1.9307414 2
-7.6746688 -0.40087056 -1.9309419 3
-0.8285681 -0.043278553 -0.38814676 0
-32.132015 -1.5658934 8.4444809 11
-29.993006 -1.4616529 5.7597718 22
-30.868382 -1.5043128 4.280179 18
-31.173319 -1.5191733 2.6663394 24
-9.9158001 -0.48322791 0.49700275 0
-7.726778 -0.37655005 0.25041035 0
-37.217102 -0.45472294 1.0955577 5
-10.737135 0.25865963 0.28386948 0
-5.1611433 0.31205353 0.12167063 0
-44.715496 -5.4507594 0.92549896 0
-46.496284 -3.9616196 0.82268327 17
-8.0216188 -0.39091855 0.11761088 0
-34.703022 -0.4240056 0.40706736 2
-45.880936 1.1052805 0.40131405 16
-32.655807 1.9744384 0.19071355 9
-45.431519 -5.5380411 0.1302046 1
-46.009296 -3.9201269 -0.0040296162 17
-50.272106 -2.4499168 -0.15285164 10
-48.075546 -0.58739269 -0.28782818 8
-46.488663 1.1199208 -0.41474655 9
-2.9304404 0.17718056 -0.03494681 1
-46.02224 -5.6100492 -0.68704873 5
-44.053394 -3.7534783 -0.78640711 12
-42.732105 -2.082469 -0.8864609 11
-41.633194 -0.50867927 -0.98703068 11
-35.385193 0.85243607 -0.94231766 19
-32.741833 1.9796396 -0.97123748 1
-41.792397 -5.0944376 -1.3687062 17
-6.4087248 -0.54604208 -0.22843 0
-37.012688 -1.803744 -1.424867 14
-36.841652 -0.45013565 -1.5262012 13
-34.044659 0.82014233 -1.5100782 7
-32.648903 -3.9798577 -1.6512017 11
-5.9738674 -0.508991 -0.31914333 0
-34.18573 -0.41768527 -2.0215776 3
-32.181087 1.9457359 -2.0972891 3
-32.61882 -3.9761908 -2.2321224 0
-26.536146 -1.2931893 -1.9621942 0
-14.424379 -0.17623876 -1.1087121 0
-25.224594 0.6076653 -2.0119402 0
-11.26483 0.68109518 -0.93417478 0
-21.865545 -2.6653805 -1.8860905 0
-8.3885899 -0.71473241 -0.74633878 0
-20.935495 -1.0202521 -1.9189755 1
-20.383503 -0.24904805 -1.9280291 1
-19.943743 0.4804486 -1.9437655 1
-19.490047 1.178409 -1.9623418 1
-17.946871 -2.1876993 -1.8683572 1
-17.671906 -1.5056982 -1.8866588 1
-17.336147 -0.84484464 -1.8962717 1
-14.954023 -0.72875631 -1.901198 1
-13.190822 -0.64282995 -1.9108472 2
-11.798906 -0.5749976 -1.9204683 1
-10.644985 -0.51876342 -1.8905435 2
-9.7663679 -0.47594559 -1.937152 2
-8.9783392 -0.43754253 -1.9402052 2
-8.2790384 -0.40346342 -1.9362006 2
-7.6915207 -0.37483183 -1.9348408 3
-0.89385325 -0.043560263 -0.41865611 0
-32.133419 -1.4535542 8.4434652 7
-30.03717 -1.3587303 5.7673068 20
-7.3344226 -0.33177236 1.016817 0
-31.254078 -1.4137772 2.6728086 10
-10.779464 -0.48760867 0.54020298 0
-47.606361 -2.1534722 1.5425794 15
-37.038548 -0.32322824 1.0902618 12
-34.558781 0.95323396 0.91375113 10
-47.565598 3.0425835 1.1215717 11
-45.079769 -5.3355436 0.93264723 1
-46.446049 -3.7940707 0.8215552 10
-47.210655 -2.1355724 0.6920768 3
-37.036041 -0.32320637 0.43441784 6
-34.71347 0.95750076 0.3036612 3
-32.65271 2.088665 0.19073687 13
-45.62138 -5.3996477 0.13069393 2
-45.899113 -3.7493925 -0.0040187952 15
-46.664066 -2.1108475 -0.14185818 2
-36.92593 -0.32224545 -0.22106738 5
-34.649441 0.95573461 -0.30915135 16
-32.682884 2.0905952 -0.3898426 20
-5.7115026 -0.67600107 -0.085229129 0
-43.747341 -3.5736194 -0.78071624 9
-42.615269 -1.9277002 -0.88389218 12
-36.816254 -0.32128832 -0.87279981 18
-34.622559 0.95499313 -0.92209172 40
-32.67886 2.0903378 -0.96958005 37
-41.547897 -4.9175191 -1.3601283 14
-38.292229 -3.1280038 -1.3644754 24
-37.1106 -1.6786968 -1.4284018 14
-36.783054 -0.32099858 -1.523718 18
-7.2660933 0.20042047 -0.32232249 0
-32.676559 2.0901904 -1.5498644 22
-5.1653953 -0.61136502 -0.26112774 0
-35.427902 -1.6025801 -1.9914453 0
-34.127087 -0.29782048 -2.0180359 4
-6.4491606 0.41252735 -0.4203926 0
-28.352312 -3.3557181 -1.9393495 0
-12.33978 -1.0080081 -0.87835097 0
-36.77813 -0.3209556 -2.826802 0
-25.27812 0.69724572 -2.0163913 0
-24.438299 1.5632216 -2.0270703 0
-21.882631 -2.5899808 -1.8867731 0
-7.1996894 -0.588126 -0.6403749 0
-20.915052 -0.94609171 -1.9167874 1
-20.392214 -0.17795889 -1.9287825 1
-20.009598 0.55192423 -1.9503598 1
-19.620857 1.2550688 -1.9759414 1
-17.926739 -2.1217701 -1.865479 1
-10.089281 -0.82417011 -1.0768214 0
-17.346935 -0.78468806 -1.8971406 1
-14.980261 -0.67763162 -1.9042214 2
-13.189031 -0.59660536 -1.9102744 1
-11.792953 -0.53345388 -1.9191846 0
-10.674273 -0.4828504 -1.895434 1
-9.7797289 -0.4423857 -1.9394841 3
-8.9876232 -0.40655485 -1.9418931 2
-8.2726154 -0.37421149 -1.9343809 3
-7.6811562 -0.34745684 -1.9319167 3
-31.380646 -1.3097477 8.2444134 16
-29.837629 -1.2453462 5.7281246 20
-30.929596 -1.290922 4.287313 13
-31.314569 -1.3069899 2.6775756 7
-47.167812 -1.9686636 2.3634131 13
-48.712051 -2.0331163 1.5781674 10
-37.091427 -0.19421756 1.0917917 11
-34.515278 1.072628 0.91269428 17
-32.820271 2.2144356 0.77406228 8
-44.820004 -5.1462088 0.92689574 2
-47.12886 -3.6842957 0.83340049 6
-47.241798 -1.9717516 0.69242823 3
-36.984947 -0.19366002 0.43380797 18
-34.577984 1.0745767 0.30250698 17
-45.228397 3.0516315 0.26425683 14
-47.416271 -5.4443107 0.13578057 16
-46.091373 -3.6031902 -0.0040345029 13
-46.547264 -1.9427634 -0.14148161 13
-36.866837 -0.19304156 -0.22070819 24
-34.609917 1.0755692 -0.30883029 16
-32.735245 2.2086987 -0.39055678 4
-46.624516 -5.3534017 -0.69546491 8
-43.588097 -3.4074967 -0.77765745 17
-42.421955 -1.7705836 -0.87974906 13
-36.785164 -0.19261391 -0.87204146 35
-34.519096 1.0727468 -0.91943038 37
-32.687325 2.2054653 -0.97005361 26
-8.1302595 -0.93351197 -0.26604706 0
-38.099663 -2.9784386 -1.3572348 19
-37.232048 -1.5539702 -1.4328589 12
-36.716011 -0.19225182 -1.5209037 26
-34.034111 1.0576749 -1.509901 15
-32.665077 2.2039642 -1.5496752 35
-31.746063 -2.4817464 -1.6950103 1
-12.872496 -0.537265 -0.72346878 0
-34.09198 -0.17851192 -2.0159111 6
-33.790726 1.0501113 -2.0967491 1
-32.230438 2.1746385 -2.1014435 2
-15.589414 -1.789968 -1.0659103 0
-31.691412 -2.4774742 -2.2551794 0
-26.688011 -1.1138892 -1.9728007 0
-36.783012 -0.19260265 -2.8271086 0
-24.512239 1.6538795 -2.0336697 0
-12.381053 -1.4215858 -1.0670898 0
-21.430317 -1.6753136 -1.9055834 1
-20.954046 -0.87456822 -1.9200695 1
-9.3421793 -0.048917376 -0.88360155 0
-20.007549 0.62177271 -1.9503598 1
-9.6413994 0.65052044 -0.9711712 0
-13.506856 -1.5508499 -1.4049684 0
-17.678022 -1.3819783 -1.8862357 2
-17.361486 -0.72462398 -1.8984438 1
-15.002358 -0.62615997 -1.9067409 1
-13.171256 -0.54973447 -1.9074104 1
-11.818413 -0.49327025 -1.9230357 1
-10.648348 -0.44443473 -1.8905435 2
-9.7772932 -0.40807915 -1.9387068 2
-8.9968014 -0.37550342 -1.943581 2
-8.2699785 -0.34516773 -1.933471 3
-7.6861982 -0.32080221 -1.9328914 2
-31.350231 -1.1988769 8.2352734 10
-29.873199 -1.1423931 5.7341528 15
-30.827015 -1.1788683 4.2724967 18
-30.653852 -1.1722463 2.6207144 16
-47.230286 -1.8061525 2.3662131 14
-47.360558 -1.8111342 1.5341678 4
-47.363415 -0.082659289 1.3941323 17
-34.591248 1.195858 0.91480798 8
-32.82431 2.3298445 0.77434462 5
-45.620693 -5.0768714 0.94308209 1
-47.017803 -3.5105195 0.83121473 15
-47.252392 -1.8069978 0.69248676 2
-37.045395 -0.064652137 0.43451166 6
-34.562031 1.1948481 0.30240205 18
-45.357113 3.2194133 0.26507294 9
-7.9310093 -0.88259751 0.022702165 0
-46.291149 -3.456265 -0.0040509091 4
-6.371314 -0.24364799 -0.01936307 0
-36.899281 -0.064397134 -0.22089976 14
-34.653919 1.1980247 -0.30925837 14
-47.325573 3.359133 -0.56476712 15
-12.13972 -1.3509613 -0.18100818 0
-43.531925 -3.2502513 -0.77644813 11
-42.467838 -1.6240298 -0.88057768 12
-36.805603 -0.064233653 -0.87251544 23
-34.58308 1.1955757 -0.92124009 27
-39.878151 2.8305206 -1.18374 9
-40.695156 -4.5287356 -1.331145 28
-37.806866 -2.8227975 -1.3464451 18
-37.301151 -1.4264483 -1.435318 15
-36.732441 -0.064105965 -1.5215659 20
-34.165993 1.1811566 -1.5159258 15
-32.728924 2.3230739 -1.5530795 10
-37.385841 -4.1604605 -1.8884629 0
-8.9025812 -0.66469902 -0.47520673 0
-35.777447 -1.3681798 -2.0105076 0
-34.064445 -0.059449743 -2.0142581 7
-33.730995 1.1661183 -2.0932825 1
-32.222652 2.2871392 -2.1014435 3
-27.926853 -3.1078229 -1.9087168 0
-31.711805 -2.3677182 -2.2560287 0
-26.671806 -1.0199673 -1.9713275 0
-26.071072 -0.045499597 -2.0037742 0
-24.542105 1.7419798 -2.0366397 0
-21.931868 -2.4406743 -1.8895031 0
-21.443981 -1.6010854 -1.9062898 1
-8.5380259 -0.32650611 -0.78225052 0
-20.460655 -0.035708223 -1.9351853 1
-20.017193 0.69201672 -1.9515235 1
-19.552067 1.3877908 -1.9699416 1
-17.97275 -2.0000865 -1.8687683 1
-11.011055 -0.82212532 -1.1745604 0
-17.387753 -0.66493207 -1.9010504 1
-15.000487 -0.57363969 -1.906237 1
-13.224521 -0.50572425 -1.9148568 1
-11.85557 -0.45337364 -1.9288126 1
-10.657705 -0.40756559 -1.8919408 2
-9.7865 -0.37424952 -1.9402615 3
-8.9785223 -0.34335127 -1.9393613 1
-8.2789183 -0.31659746 -1.9352908 2
-7.6872711 -0.29397205 -1.9328914 2
-0.84357351 -0.032259434 -0.39492664 0
-31.361959 -1.0896971 8.2373037 8
-30.049751 -1.0441034 5.7673068 11
-30.767584 -1.0690451 4.2637172 16
-30.490467 -1.0594164 2.6064141 14
-47.232307 -1.6411254 2.3660131 12
-47.290676 -1.6431535 1.531709 5
-47.30344 0.082555749 1.3923669 15
-34.714725 1.3214732 0.91818988 9
-46.968838 3.4986222 1.1083037 21
-53.288227 -5.7419171 1.1011662 17
-46.754505 -3.3267989 0.82634968 13
-46.814724 -1.6266162 0.68598539 24
-47.460663 0.082830139 0.55667412 21
-34.625599 1.3180805 0.30299667 17
-45.186047 3.3658252 0.26414025 1
-47.703671 -5.1401696 0.13649748 6
-46.047581 -3.2764978 -0.004028569 19
-5.0369377 -0.17501254 -0.015305815 0
-7.6518507 0.013354299 -0.045808263 0
-47.483723 1.8075461 -0.42380777 8
-7.4149308 0.55232447 -0.088509694 0
-45.487671 -4.901391 -0.67798054 19
-43.483166 -3.094028 -0.77538109 9
-42.713051 -1.4841001 -0.88554943 10
-40.948433 0.071464755 -0.97072554 18
-35.437771 1.3489971 -0.94412738 14
-39.987644 2.978606 -1.1872916 18
-40.460297 -4.3596807 -1.322957 20
-37.589207 -2.6746454 -1.3383528 16
-37.35384 -1.2978899 -1.4371623 15
-34.842068 0.06080769 -1.4432609 1
-34.145691 1.2998121 -1.5152169 11
-35.055523 2.6112213 -1.6639056 20
-37.169762 -4.0051188 -1.8768305 0
-31.73074 -2.2577887 -1.6933094 2
-5.5997934 -0.19456944 -0.31463939 0
-34.024517 0.059380874 -2.0118971 6
-31.221354 1.1884923 -1.9377843 10
-8.7770805 0.65378851 -0.57255447 0
-37.335529 -2.6565952 -2.6554334 0
-26.894474 -0.93447065 -1.9875319 0
-10.066298 0.017568082 -0.77367693 0
-11.930034 0.88864619 -0.99027145 0
-21.971952 -2.3675234 -1.8922331 0
-10.011328 -0.71235216 -0.88974321 0
-20.999451 -0.72964323 -1.9237163 1
-20.420834 0.035639212 -1.9314189 1
-20.042505 0.76295096 -1.9542388 1
-19.60664 1.4604623 -1.9759414 1
-17.979622 -1.9373416 -1.8687683 1
-17.695175 -1.2590934 -1.887082 1
-17.43368 -0.60574758 -1.9058291 1
-15.030159 -0.52223521 -1.9097643 1
-13.210381 -0.45900556 -1.9125656 2
-11.821568 -0.41075012 -1.9230357 1
-10.722042 -0.37254617 -1.9031192 1
-9.807353 -0.34076455 -1.9441482 2
-8.9796658 -0.31200588 -1.9393613 2
-8.2877588 -0.287965 -1.9371105 2
-7.6960049 -0.26740402 -1.9348408 3
-31.462248 -0.98324472 8.2626934 9
-30.061064 -0.93945557 5.7688136 9
-30.66024 -0.95818073 4.2483521 18
-30.442194 -0.95136642 2.6019878 5
-47.15789 -1.4737582 2.3620131 7
-53.829514 -1.6822569 1.7432959 9
-47.26688 0.24749924 1.3913077 12
-34.661957 1.4406424 0.91692168 15
-46.85667 3.6547911 1.1059512 16
-47.110832 -4.9099822 0.97315425 7
-6.839304 -0.46266082 0.12085012 0
-47.155918 -1.4736966 0.69090533 16
-47.488083 0.24865751 0.55700248 24
-47.009617 1.9538435 0.4114221 18
-48.248631 3.7633634 0.28211802 39
-47.403049 -4.9404373 0.13558713 16
-8.6402531 -0.58449024 -0.00075572752 0
-47.632526 -1.4885913 -0.14472498 21
-9.5196981 0.049847126 -0.05699094 0
-47.365223 1.9686235 -0.42280889 16
-47.217228 3.6829143 -0.56376725 14
-45.21809 -4.7127166 -0.67371315 2
-43.334095 -2.9314368 -0.77253562 9
-42.290276 -1.3216375 -0.87668318 7
-40.779984 0.21353251 -0.96674407 17
-35.400883 1.471354 -0.94327575 26
-40.048752 3.1237779 -1.1894226 10
-40.16909 -4.1865001 -1.3129494 17
-37.303173 -2.5234611 -1.327847 17
-37.44603 -1.1702474 -1.4405434 15
-34.877613 0.18262644 -1.4447509 10
-34.168896 1.4201493 -1.5164573 10
-36.664181 -2.4802349 -1.9561083 1
-36.061558 -1.1269803 -2.0259817 2
-33.984173 0.17794821 -2.009536 7
-31.248924 1.2987877 -1.9397652 6
-32.293446 2.5188687 -2.1071563 2
-11.80868 -1.2307234 -0.80648094 0
-37.149513 -2.5130663 -2.6415634 0
-27.029148 -0.84470344 -1.9972545 0
-25.90325 0.13563481 -1.9908999 0
-5.9599209 0.24771002 -0.47564197 0
-9.6615095 0.75359178 -0.80218256 0
-21.964228 -2.2891543 -1.8908681 0
-5.9708843 -0.40391454 -0.53052574 0
-21.049646 -0.65783453 -1.9280926 1
-20.476336 0.10721836 -1.9366919 1
-7.9991813 0.33246705 -0.78006637 0
-19.601421 1.5288987 -1.9759414 0
-18.049593 -1.8811636 -1.875347 1
-5.4606414 -0.36939794 -0.58220285 0
-17.407867 -0.54402322 -1.9027882 1
-7.8927336 -0.24666034 -1.0027522 0
-13.215858 -0.41301638 -1.9131384 2
-11.846607 -0.3702251 -1.926887 1
-10.699656 -0.3343811 -1.8989273 1
-9.8045616 -0.30640796 -1.9433708 2
-8.9846077 -0.28078315 -1.9402052 2
-8.2887135 -0.25903532 -1.9371105 3
-7.7085233 -0.24090348 -1.937765 3
-0.81118596 -0.025350837 -0.37967196 0
-31.484825 -0.87395835 8.2677717 7
-30.02882 -0.83354247 5.762032 19
-30.798059 -0.85489511 4.2670093 10
-30.409475 -0.8441087 2.5989234 4
-53.999546 -1.4989239 2.7044148 3
-52.60817 -1.4603019 1.7035668 0
-47.201759 0.41192174 1.3894247 14
-34.700661 1.5636157 0.9180842 3
-46.720074 3.808248 1.103034 17
-46.180672 -4.6501555 0.95359915 19
-46.748653 -2.998518 0.82585615 16
-47.164772 -1.3092037 0.69096392 12
-47.906879 0.4180752 0.56192839 9
-46.606926 2.1001134 0.40795949 10
-13.443186 1.0957813 0.078626491 0
-47.04192 -4.7368789 0.13450606 10
-46.304848 -2.9700518 -0.0040491638 13
-47.593449 -1.3211029 -0.14459136 13
-8.4355268 0.073615417 -0.050501637 0
-50.223042 2.2630558 -0.44838718 3
-48.986053 3.9929526 -0.58504957 6
-10.171441 -1.0242116 -0.1514921 0
-43.240292 -2.7734871 -0.77068609 10
-42.222672 -1.1720203 -0.87519163 17
-40.906952 0.35698801 -0.96977758 12
-35.499393 1.5996065 -0.94604349 25
-40.073471 3.2664702 -1.1904881 10
-39.845348 -4.0122209 -1.3019021 15
-36.980644 -2.3719854 -1.3160635 21
-37.585735 -1.0433079 -1.445769 15
-35.016636 0.30558425 -1.4505451 12
-34.107841 1.5369031 -1.5139766 10
-35.370956 2.8831584 -1.6797919 24
-37.7215 -3.7983603 -1.9033042 0
-14.174764 -0.90918732 -0.75607836 0
-35.921551 -0.99711335 -2.0179083 7
-33.899494 0.29583514 -2.0045776 5
-32.300373 2.6328692 -2.1081948 3
-39.862095 -4.0139074 -2.7214327 0
-9.6579638 -0.26808655 -0.71357876 0
-25.309904 1.140467 -2.0202067 0
-24.594036 2.0047097 -2.0425792 0
-22.027599 -2.2180655 -1.8956456 0
-21.527166 -1.3807797 -1.9122944 1
-3.3526816 -0.093064018 -0.30706525 0
-20.503712 0.17893241 -1.9393284 1
-20.084415 0.90500599 -1.9588937 1
-19.647533 1.6015104 -1.9811413 0
-18.048132 -1.8173538 -1.8745247 0
-17.703535 -1.1355271 -1.887082 1
-17.457357 -0.48458278 -1.9080013 1
-15.005672 -0.41652867 -1.906237 2
-13.233048 -0.36732405 -1.9154296 2
-11.847828 -0.32887298 -1.926887 1
-10.712569 -0.29736039 -1.9010233 1
-9.8094931 -0.2722927 -1.9441482 2
-8.9855337 -0.24942118 -1.9402052 2
-8.2700987 -0.22956207 -1.9325612 2
-7.6821718 -0.21324237 -1.9309419 2
-31.151186 -0.75587708 8.1794167 14
-30.117945 -0.7308057 5.7786093 14
-30.741444 -0.74593472 4.2587781 9
-30.424189 -0.73823661 2.5999448 17
-34.738255 -0.84291661 1.7396096 3
-52.53701 -1.2747997 1.701108 0
-47.108078 0.57557315 1.3867179 17
-47.978691 2.3297594 1.2695919 3
-46.798138 3.9791129 1.1051984 3
-46.120995 -4.4815655 0.95203805 12
-46.770809 -2.8360524 0.82606769 10
-9.3682375 -0.22731835 0.13723221 0
-11.166398 0.13643263 0.13098215 0
-46.595318 2.2625852 0.4079245 12
-48.121544 4.0916381 0.28153509 9
-46.338886 -2.8098617 -0.0040512583 15
-45.626358 -1.1071142 -0.13860266 4
-47.395615 0.5790863 -0.28375742 10
-47.909641 2.3264065 -0.42780325 2
-54.630989 4.6451178 -0.65265787 6
-44.541306 -4.3280673 -0.66316324 11
-43.357494 -2.6290781 -0.77260679 9
-42.13855 -1.0224832 -0.87336868 13
-40.729515 0.49763897 -0.96560651 10
-8.0276937 0.38981044 -0.21396956 0
-40.085724 3.4083753 -1.1911983 10
-39.608425 -3.8487406 -1.2937139 14
-36.857025 -2.2349079 -1.3113785 18
-37.740993 -0.91577739 -1.4516091 15
-34.823536 0.42547885 -1.4425987 9
-34.421577 1.6714503 -1.5281523 11
-35.022274 2.9778447 -1.6637166 8
-8.8471365 -0.85967404 -0.44624361 0
-36.672626 -2.2237265 -1.9556831 3
-31.241573 -0.75807029 -1.7548491 2
-33.894264 0.41412491 -2.0043416 6
-33.125244 1.6085026 -2.0568841 1
-32.36655 2.7520361 -2.1131284 3
-39.709038 -3.8585169 -2.710047 0
-7.3896914 -0.17930934 -0.54593784 0
-8.2231321 0.10047139 -0.63206095 0
-13.839714 0.67203176 -1.1048502 0
-24.559082 2.0881891 -2.0402694 0
-22.031242 -2.1407702 -1.8953043 0
-21.583557 -1.3087672 -1.9168862 1
-7.4386911 -0.1804983 -0.68123263 0
-20.471107 0.25011888 -1.9363153 1
-20.065228 0.9743315 -1.957342 1
-19.618031 1.6680654 -1.9787414 0
-18.054367 -1.7543383 -1.8745247 0
-17.818558 -1.0804679 -1.8989291 1
-17.474844 -0.42402348 -1.909739 1
-15.034802 -0.36481637 -1.9097643 2
-13.230292 -0.32103032 -1.9148568 2
-11.88048 -0.28827739 -1.932022 1
-10.721417 -0.26015297 -1.9024205 1
-9.8339195 -0.23861802 -1.9488122 2
-9.0098019 -0.21862097 -1.9452689 1
-8.2864246 -0.20106839 -1.9362006 2
-7.7138958 -0.18717608 -1.9387398 1
-1.2434646 -0.030172409 -0.42981562 0
-0.85118586 -0.020653849 -0.39831656 0
-31.153633 -0.6471411 8.1794167 12
-30.163515 -0.6265738 5.7868977 14
-30.478449 -0.63311577 4.2220125 15
-29.6695 -0.61631185 2.5352528 11
-34.501339 -0.71668154 1.7276095 0
-1.3909711 -0.028894048 0.045035038 0
-47.049816 0.73911846 1.3850702 18
-32.748207 1.7048051 0.86672139 5
-46.98711 4.1604223 1.1099974 1
-46.275719 -4.3336067 0.95491379 10
-46.349197 -2.6481242 0.81845284 11
-47.632614 -0.98945189 0.69769961 2
-47.542862 0.7468639 0.55770618 12
-45.7523 2.3817718 0.40061453 22
-48.318138 4.2782764 0.2827709 4
-46.114044 -4.3184662 0.13176359 18
-46.104813 -2.6341612 -0.004029965 14
-45.65794 -0.9484328 -0.13868769 0
-5.0592852 0.079477698 -0.030291403 0
-49.930401 2.5992756 -0.44592568 2
-49.215946 4.3577724 -0.5881443 5
-44.468529 -4.1643677 -0.66185927 7
-43.390366 -2.4790738 -0.77303362 8
-42.121872 -0.87497956 -0.87295437 11
-40.571594 0.63735026 -0.96190941 12
-35.683025 1.8575859 -0.95125967 5
-36.445374 3.227016 -1.0833489 1
-39.346966 -3.684746 -1.2847461 16
-36.896526 -2.1080534 -1.3125142 18
-37.775925 -0.78470314 -1.4528387 15
-34.382271 0.54012054 -1.4243883 9
-34.411545 1.7913953 -1.5279752 13
-35.262405 3.1222711 -1.6756313 9
-37.707321 -3.5311975 -1.9012986 1
-36.632313 -2.0929577 -1.9531316 4
-31.208092 -0.64827234 -1.7528307 15
-33.824738 0.53136206 -2.0003278 9
-10.098894 0.52572793 -0.62719238 0
-31.660948 2.8033841 -2.0676875 7
-39.404388 -3.6901236 -2.6883602 0
-31.17634 -0.64761281 -2.3030739 0
-25.464584 1.3256346 -2.0332422 0
-24.503994 2.1696794 -2.0363097 0
-22.094131 -2.0690608 -1.9000819 0
-21.615839 -1.2350036 -1.9193587 1
-7.4193635 -0.15411927 -0.67940921 0
-10.284825 0.16156715 -0.97286564 0
-20.153147 1.049132 -1.9662638 1
-19.639839 1.738988 -1.9815413 0
-18.072264 -1.6924227 -1.8757583 0
-17.778538 -1.0157624 -1.8942748 1
-17.420559 -0.36186984 -1.903657 1
-15.07169 -0.31307775 -1.9142994 2
-13.27487 -0.27575317 -1.9211576 1
-11.881413 -0.24680752 -1.932022 1
-10.734073 -0.22297429 -1.9045165 1
-9.834692 -0.20429185 -1.9488122 2
-4.761302 -0.098904483 -1.0279121 0
-8.310442 -0.17262925 -1.9416598 1
-7.7106233 -0.16016948 -1.937765 2
-31.008707 -0.53584218 8.1408243 12
-30.369764 -0.52480102 5.8260798 10
-30.599323 -0.52876788 4.2384748 9
-29.779064 -0.51459354 2.5444458 8
-11.835408 -0.20452034 0.59260327 0
-34.672661 -0.59915674 1.1225113 3
-47.238827 0.90702277 1.3907193 7
-32.77 1.8206531 0.86746114 10
-4.1612458 0.38309801 0.098333955 0
-46.254719 -4.1688042 0.95417428 10
-46.242344 -2.4801173 0.8164081 7
-47.743752 -0.82503009 0.69928104 23
-46.196308 0.88700551 0.54194331 11
-45.651848 2.5363495 0.39981008 18
-48.267059 4.443625 0.28256103 55
-46.081036 -4.1531506 0.13162704 18
-46.137688 -2.4745045 -0.0040320596 15
-45.784954 -0.79118139 -0.13906427 1
-46.118668 0.8855148 -0.27614266 12
-10.667125 0.59264982 -0.095285401 0
-51.602108 4.7506604 -0.61685401 11
-44.462879 -4.0073109 -0.66156292 6
-42.935493 -2.3027608 -0.76478183 8
-34.707371 -0.59975648 -0.71924478 9
-35.74337 0.68630087 -0.84748894 1
-39.357338 2.1866357 -1.0494089 19
-36.390095 3.3501923 -1.0820466 0
-38.961414 -3.5114796 -1.2717491 16
-36.915638 -1.9798977 -1.3129401 17
-34.697174 -0.59958035 -1.3343432 5
-34.33622 0.65928251 -1.4225672 10
-34.269424 1.9039588 -1.5219505 8
-37.906429 -3.4163969 -1.9107249 1
-36.65934 -1.9661518 -1.9541947 4
-31.274055 -0.54042751 -1.7564189 1
-33.854614 0.65003532 -2.0022166 7
-32.826202 1.8237756 -2.0390563 3
-31.587372 2.9080377 -2.0635331 9
-39.2183 -3.534632 -2.6748059 0
-27.953466 -1.4992293 -1.9859846 0
-8.8562431 0.17004685 -0.68079889 0
-25.39212 1.410749 -2.0278373 0
-10.773437 0.99183816 -0.89556706 0
-4.9497523 -0.44610688 -0.42553917 0
-14.327141 -0.76840812 -1.2719195 0
-21.200159 -0.36634678 -1.9412212 1
-20.508677 0.39378276 -1.9400816 3
-20.089735 1.1161562 -1.9604452 1
-19.677244 1.811552 -1.9859412 0
-10.794529 -0.97287977 -1.1200275 0
-17.805807 -0.95497954 -1.8968135 0
-17.4575 -0.30167222 -1.9075668 0
-15.072692 -0.26046181 -1.9142994 1
-13.248045 -0.22893123 -1.917148 2
-11.897993 -0.20560183 -1.9345894 1
-10.738724 -0.18556921 -1.9052151 1
-9.8510389 -0.17022969 -1.9519217 2
-8.9876528 -0.15531005 -1.9402052 2
-8.2876272 -0.14321333 -1.9362006 1
-7.7033782 -0.1331173 -1.9358156 2
-30.94849 -0.42675138 8.1245756 12
-30.230003 -0.4168441 5.798954 24
-30.593058 -0.42185029 4.2373776 19
-29.900232 -0.41229683 2.5546603 1
-34.501507 -0.47574422 1.7274096 4
-34.634563 -0.47757894 1.1212171 2
-47.874935 1.0864378 1.4095494 12
-32.57584 1.9239435 0.86249399 8
-5.7880101 0.55324394 0.13682064 0
-46.294655 -2.3208768 0.81718367 2
-34.692978 -0.47838444 0.5081048 17
-46.040981 1.0448194 0.5401606 23
-32.765652 1.935154 0.28701264 1
-49.366158 4.7186379 0.28908995 13
-9.9387531 -0.86078954 0.028380552 0
-46.329819 -2.3226395 -0.0040481165 7
-34.680546 -0.47821298 -0.10533074 16
-46.179283 1.0479579 -0.2765258 10
-10.996401 0.64945233 -0.098246343 0
-51.513546 4.9238954 -0.61599702 16
-44.568241 -3.8600292 -0.66292614 5
-42.795479 -2.1454537 -0.76214981 10
-41.607113 -0.57372403 -0.86218226 9
-35.676788 0.80962223 -0.84597218 11
-39.433289 2.3289475 -1.0516444 14
-40.238884 3.8462126 -1.1968809 8
-38.746403 -3.355803 -1.2643409 17
-36.986202 -1.8542187 -1.3152117 14
-34.782986 -0.47962555 -1.3375707 0
-33.994091 0.77143633 -1.4084955 17
-35.291763 2.0843472 -1.5676675 9
-35.605667 3.4033492 -1.6930306 7
-6.8258185 -0.59118015 -0.34395856 0
