# .PCD v0.7 - Point Cloud Data file format
VERSION 0.7
FIELDS x y z intensity
SIZE 4 4 4 4
TYPE F F F F
COUNT 1 1 1 1
WIDTH 1387
HEIGHT 1
VIEWPOINT 0 0 0 1 0 0 0
POINTS 1387
DATA ascii
-2.8022823 6.5130816 -0.6491403 0
-2.5348244 6.5385532 -0.66326612 3
-2.2743633 6.5642591 -0.67688501 0
-2.2088456 7.2113018 -0.75797755 0
-3.3644981 6.4796982 -0.75449723 0
-3.0716004 6.4804506 -0.76287192 0
-2.7879274 6.4797182 -0.77067262 0
-2.7555132 6.4043808 -0.88534456 4
-2.7286747 6.3420024 -0.99895608 4
-2.7244818 6.3322577 -1.1207011 10
-2.7100391 6.2986894 -1.2163475 5
-2.8223827 6.5597992 -1.4147739 0
-2.7135699 6.3068962 -1.4819489 0
-2.7171431 6.3152008 -1.6059183 0
-2.698509 6.2718911 -1.7155263 0
-2.3115327 5.372479 -2.0210478 0
-1.6868407 3.9205654 -1.9966676 0
-4.7127428 11.054221 3.1543665 14
-4.8868508 11.46261 2.3901093 13
-5.149539 12.078773 1.8185275 11
-5.7159357 13.407314 1.2451544 10
-4.900353 12.765851 0.402493 10
-27.628599 91.279907 2.2441785 1
-19.340185 37.551266 0.86781961 4
-8.2552128 19.363447 0.30825999 39
-4.8949709 12.751831 0.16020918 12
-19.170082 55.927528 0.51697952 1
-27.517582 90.913132 0.55371988 11
-10.034728 19.483618 0.062348455 0
-9.1508732 19.473053 -0.0018776251 0
-8.2748842 19.409592 -0.064077914 24
-4.8894863 12.737542 -0.081679031 12
-6.6870165 19.508957 -0.18393542 0
-23.486074 77.59375 -0.96503663 6
-3.365921 6.535336 -0.10893681 0
-9.1936502 19.564083 -0.38448942 0
-8.2543268 19.36137 -0.4361043 45
-4.8867679 12.73046 -0.3232592 13
-6.677135 19.480127 -0.54823047 0
-22.169735 73.244804 -2.2659051 1
-14.203077 27.576963 -1.0084314 6
-9.1060038 19.377571 -0.76039225 0
-8.2641096 19.384317 -0.81025767 27
-4.8853846 12.726857 -0.56468952 12
-19.20512 56.029747 -2.6264234 1
-3.4535162 6.7054124 -0.37865525 0
-3.1547031 6.7132063 -0.39483622 0
-2.8693485 6.7303514 -0.41084772 0
-2.6015084 6.7771587 -0.42924881 0
-2.4038923 7.0132065 -0.45980904 0
-2.2618341 7.472692 -0.50789863 0
-3.4042332 6.6097236 -0.50503331 0
-3.103734 6.6047444 -0.517726 0
-2.8081779 6.5868697 -0.52884966 0
-2.5297852 6.5903134 -0.54255474 3
-2.2858238 6.6687493 -0.56212234 0
-2.3120122 7.6384711 -0.66062093 0
-3.3394194 6.4838796 -0.62448812 0
-3.0654886 6.5233583 -0.63896209 0
-2.7525477 6.4563832 -0.64257598 0
-2.5102749 6.5394874 -0.66251284 4
-2.2654901 6.6094265 -0.68076402 0
-2.2056754 7.2871532 -0.76517731 0
-3.3320627 6.4695959 -0.75203019 0
-3.043328 6.4762006 -0.76117945 0
-2.7570662 6.4669814 -0.76806611 0
-2.7342587 6.4134841 -0.88534456 5
-2.7045221 6.3437343 -0.99781048 6
-2.7019181 6.3376265 -1.1200593 10
-2.6922243 6.3148885 -1.2177448 6
-2.7575259 6.46806 -1.3930082 0
-2.7033727 6.3410382 -1.4878564 0
-2.6854913 6.2990956 -1.5995492 2
-2.6746511 6.2736688 -1.7135769 1
-2.3011162 5.3975043 -2.02758 0
-1.6766709 3.9328036 -2.0000577 1
-4.6530614 11.020702 3.1401484 14
-4.8590355 11.50855 2.3961372 10
-5.0981007 12.074771 1.815235 11
-5.1125798 12.109064 1.1229202 5
-4.8642774 12.805305 0.40319914 3
-30.385328 89.666466 2.5023 2
-28.073568 93.931358 2.3069427 3
-18.365107 35.965931 0.82969534 3
-8.1813536 19.377405 0.30802572 47
-4.8603678 12.795014 0.16053757 11
-19.140354 56.482784 0.52149141 0
-27.273352 91.253914 0.5552122 4
-21.119333 41.359764 0.13211636 8
-9.0456896 19.425104 -0.0018699457 0
-8.1946392 19.408875 -0.063980736 20
-4.8520927 12.773229 -0.081798762 10
-19.203226 56.66832 -0.53364819 1
-5.8160768 19.460012 -0.24177098 0
-25.2132 49.377125 -0.82158983 19
-24.10902 51.772751 -1.0158204 13
-8.175808 19.364273 -0.43552426 41
-4.8508167 12.769871 -0.32382798 8
-19.165106 56.555824 -1.5897619 0
-5.8242455 19.487345 -0.60222876 0
-20.030128 39.226681 -1.4318713 20
-2.0638244 4.4319458 -0.17362952 0
-8.1839619 19.383585 -0.80902815 27
-4.8466034 12.758779 -0.56535172 12
-3.2050042 9.4579 -0.44281688 0
-2.9118571 9.7427835 -0.48131847 0
-3.4228199 6.7031956 -0.37785304 0
-3.1363072 6.7350416 -0.39547408 0
-2.156127 5.1067529 -0.31127548 0
-2.5835059 6.8011298 -0.43019325 0
-2.3781168 7.0177732 -0.45956144 0
-2.2665951 7.5838008 -0.51490951 0
-3.3775086 6.6144586 -0.50449109 0
-3.0621309 6.5757518 -0.51461232 0
-2.7727571 6.5672312 -0.52649266 0
-2.5053473 6.595376 -0.54224819 3
-2.332917 6.8843889 -0.57960916 0
-2.316154 7.74962 -0.66953039 0
-3.3167644 6.4954977 -0.62448812 0
-3.0376515 6.5231838 -0.63790244 0
-2.7423906 6.4953089 -0.64549345 0
-2.48036 6.5295968 -0.66062963 3
-2.2743492 6.7115569 -0.69046152 0
-2.1665468 7.2490492 -0.76037747 0
-3.3130763 6.4882755 -0.75285256 0
-3.0106273 6.4651508 -0.75864077 0
-2.7267435 6.4582491 -0.76589394 0
-2.7087693 6.4156775 -0.88433677 4
-2.674664 6.3348999 -0.99494654 7
-2.6751735 6.3361063 -1.1181337 10
-2.6640384 6.3097329 -1.2149502 10
-2.6632018 6.3077517 -1.3564728 1
-2.6933899 6.3792515 -1.4946078 0
-2.6619735 6.304842 -1.5986394 1
-2.657264 6.2936878 -1.7165011 0
-2.2852037 5.4124689 -2.0301929 0
-1.6460224 3.8985782 -1.979718 0
-4.5813069 10.96272 3.1188214 12
-4.8562016 11.620522 2.4157283 6
-5.0599184 12.108001 1.8174299 15
-5.048183 12.079919 1.1184938 10
-33.842121 90.083221 2.8325152 10
-2.9717519 8.8764849 0.24740821 0
-2.2044406 7.4755878 0.18339989 0
-18.345118 36.25423 0.83478951 4
-8.1241512 19.440477 0.30855286 28
-19.121126 57.113914 0.52666783 1
-27.171785 92.143585 0.56001556 7
-9.8661547 19.497822 0.062166382 0
-2.2281132 4.8309331 -0.00046425758 0
-8.1126461 19.412947 -0.063895702 11
-19.197287 57.3414 -0.53932035 0
-4.542151 15.403114 -0.19115999 0
-25.104296 49.611942 -0.8239606 22
-8.9361677 19.375153 -0.37950993 2
-8.1448669 19.490047 -0.43767869 13
-6.5274115 19.497074 -0.54737884 0
-19.860958 39.249886 -1.4300517 17
-8.9319496 19.366005 -0.75741088 14
-8.1359749 19.468771 -0.81133348 12
-18.810032 56.184685 -2.6273093 8
-3.3910151 6.7014365 -0.37705079 0
-3.1182942 6.7609987 -0.39632455 0
-2.8041749 6.7101774 -0.40838087 0
-2.5613711 6.8180289 -0.43066546 0
-2.3625174 7.0567288 -0.46154231 0
-2.2545915 7.6456566 -0.51854479 0
-3.3496406 6.6196709 -0.50394893 0
-3.0346684 6.5796838 -0.51404619 0
-2.7425141 6.5626278 -0.52531415 1
-2.4783535 6.5970469 -0.54163516 3
-2.3190598 6.9269238 -0.58247066 0
-2.2945015 7.7809978 -0.67151028 0
-3.2911367 6.5040536 -0.62414688 0
-3.0070491 6.5198007 -0.63648957 0
-2.7262435 6.5236936 -0.64731687 0
-2.4438086 6.5050931 -0.65723985 4
-2.1423023 6.3989568 -0.65749002 0
-2.1748617 7.3752813 -0.77277708 0
-3.2677176 6.4577718 -0.74791849 0
-2.9785831 6.4580812 -0.75652522 0
-2.6953869 6.4498563 -0.76372182 0
-2.6821747 6.4182405 -0.88332897 4
-2.6514261 6.3446612 -0.99494654 9
-2.6534534 6.3495126 -1.1187755 10
-2.64393 6.3267236 -1.2163475 14
-2.6370375 6.3102307 -1.3549181 1
-2.6850653 6.4251575 -1.5030472 0
-2.6598723 6.3648725 -1.6113775 0
-2.6311853 6.296227 -1.7145517 0
-2.2653491 5.4208088 -2.0301929 0
-1.6526767 3.9547298 -2.0051425 0
-4.5726008 11.050143 3.139133 10
-4.7690473 11.524877 2.3923697 14
-5.0736794 12.261049 1.8377334 9
-5.0242743 12.141657 1.1225797 9
-38.09203 92.053177 4.9874277 4
-38.08614 92.038933 3.2242758 4
-33.425751 89.927223 2.8239238 9
-30.031837 90.754715 2.5266075 6
-2.6488678 9.0996799 0.22301576 0
-18.347553 36.575424 0.84070539 5
-8.8518858 19.369902 0.37545326 3
-8.1281214 19.642412 0.3113057 12
-1.3030787 3.9378388 0.03627006 0
-27.476007 94.388573 0.57307333 4
-21.073923 42.010376 0.13370949 6
-8.8549252 19.376551 -0.0018591246 18
-8.1075439 19.592684 -0.064393751 4
-5.4448271 14.648532 -0.093556136 0
-19.122681 57.787792 -0.54288775 0
-4.5017672 15.464961 -0.19173133 0
-9.7575397 19.451429 -0.32248378 0
-8.8551865 19.377125 -0.37894082 22
-8.0859623 19.540531 -0.43817586 2
-19.866234 53.447273 -1.3517164 1
-19.158123 57.894894 -1.6235074 0
-5.6466537 19.398001 -0.59820366 0
-19.693344 39.258228 -1.4278423 8
-3.3679352 7.3697934 -0.28777355 0
-8.107707 19.593079 -0.81532943 1
-19.385536 52.154026 -2.3047807 0
-7.2675076 21.962046 -1.0257971 0
-5.6606784 19.446178 -0.95866537 0
-3.3532701 6.6846666 -0.37544632 0
-3.0979967 6.779108 -0.39674979 0
-2.7807362 6.7199249 -0.40838087 0
-2.5403368 6.8344145 -0.43113768 0
-2.350414 7.1028342 -0.46401837 0
-3.3014596 6.5813837 -0.50015372 0
-3.0033917 6.5720911 -0.51263088 0
-2.7256918 6.5869045 -0.52649266 2
-2.4608667 6.6206117 -0.54286122 2
-2.3086469 6.9766164 -0.58596802 0
-2.2584112 7.7583404 -0.66887045 0
-3.2719858 6.5226278 -0.62482935 0
-2.9776495 6.5157614 -0.6350767 0
-2.6775637 6.4705987 -0.64111722 0
-2.4405091 6.5658426 -0.66251284 4
-2.2712898 6.8637252 -0.70442593 0
-2.1802483 7.4898267 -0.78397679 0
-3.2398019 6.4584703 -0.74668503 0
-2.9543703 6.4648213 -0.75610209 0
-2.6682963 6.4482026 -0.76241851 0
-2.6521692 6.4092302 -0.88080949 4
-2.6292639 6.3538775 -0.99494654 10
-2.6237264 6.3404951 -1.1155661 12
-2.6158068 6.3213568 -1.2135528 17
-2.6179965 6.3266482 -1.3564728 1
-2.6043167 6.2935896 -1.4701338 0
-2.6316822 6.3597212 -1.607738 0
-2.6210592 6.3340497 -1.7223495 0
-2.2435231 5.4216962 -2.02758 0
-1.6347067 3.9504309 -2.0000577 0
-4.5916977 11.201278 3.1777246 9
-4.8812976 11.907745 2.4684737 5
-5.1231651 12.497772 1.8706578 2
-4.9734044 12.132437 1.1201962 10
-6.4582849 15.754748 0.55116159 0
-33.119095 90.015053 2.8232179 6
-29.759296 90.941223 2.5290382 5
-28.77343 100.08109 2.4504445 6
-18.331268 36.847313 0.84555304 5
-8.7760468 19.373652 0.37495971 13
-18.163242 44.308559 0.70127243 9
-18.099287 49.192417 0.6147998 15
-29.035107 100.99126 0.61257315 3
-21.094854 42.402344 0.13473365 11
-8.7807121 19.383949 -0.0018570303 25
-7.9879136 19.486221 -0.063956439 0
-7.1724062 19.494028 -0.1243504 0
-6.3443117 19.387537 -0.18193768 0
-1.0222689 3.5557032 -0.044040598 0
-24.863997 49.978622 -0.82722038 24
-8.7776737 19.377241 -0.37837175 24
-7.9649997 19.430325 -0.43510994 5
-7.1691394 19.485149 -0.49218819 0
-6.3783808 19.49165 -0.54599494 0
-19.571962 39.341209 -1.4284921 15
-8.7817774 19.386301 -0.75584918 23
-20.190876 49.254898 -2.0468535 9
-7.1677694 19.481426 -0.85986435 0
-3.4053018 10.406238 -0.48552153 0
-3.3346448 6.7029023 -0.37584743 0
-3.0886829 6.8184528 -0.39845076 0
-2.7569234 6.7254133 -0.4081566 0
-2.5245545 6.8615375 -0.43231824 0
-2.34547 7.1675053 -0.46773252 0
-5.5850997 19.426353 -1.3149278 0
-3.2813957 6.5958676 -0.5004248 0
-2.9898114 6.6001878 -0.51404619 0
-2.7008092 6.5885243 -0.5259034 2
-2.4320142 6.6100206 -0.54132861 3
-2.3102989 7.0600262 -0.59232688 0
-5.5491891 19.301447 -1.6624417 17
-3.2254865 6.4834862 -0.62005186 0
-2.9675324 6.5510058 -0.63754922 0
-2.6681802 6.5089273 -0.64403468 0
-2.4104738 6.551475 -0.66025299 4
-2.2262275 6.803113 -0.69744372 0
-2.2169833 7.7112145 -0.8063761 0
-3.2290018 6.4905515 -0.749152 0
-2.9361966 6.4818301 -0.75694835 0
-2.6423755 6.4459772 -0.76111525 1
-2.6293974 6.4143181 -0.88030559 4
-2.6081808 6.3625607 -0.99494654 9
-2.6116726 6.371079 -1.1194173 14
-2.5948315 6.3299956 -1.2135528 13
-2.5821209 6.2989888 -1.3486993 7
-2.5789843 6.291337 -1.4676019 2
-2.5765991 6.2855186 -1.5868111 1
-2.6103418 6.3678327 -1.7291726 0
-2.2327027 5.4465961 -2.0341122 0
-1.6147274 3.9390678 -1.9915828 0
-4.5423822 11.192144 3.1706157 12
-4.7879925 11.797313 2.442101 10
-5.085465 12.530266 1.8728528 8
-4.9535027 12.205119 1.1253035 8
-32.765041 90.021141 2.8198049 7
-29.43923 91.036942 2.5288267 4
-28.439161 100.23478 2.451762 6
-18.344027 37.198021 0.85212624 9
-8.7050972 19.396868 0.37481868 11
-18.134796 44.682999 0.70619243 8
-18.082056 49.680008 0.62010098 9
-19.110437 59.096508 0.54310656 0
-30.678167 108.12623 0.65519744 2
-21.065233 42.716087 0.13549608 4
-8.6998978 19.385284 -0.0018542378 28
-7.8867459 19.432446 -0.063689195 16
-19.444193 53.422443 -0.34034127 1
-6.3036771 19.493292 -0.18272251 0
-5.5252442 19.473909 -0.24096158 0
-2.7454257 5.5671749 -0.091985814 0
-8.6886978 19.360327 -0.37744698 27
-7.8896022 19.439484 -0.43469563 25
-19.433609 53.393368 -1.3469765 1
-6.2414098 19.300737 -0.54003364 0
-5.5112104 19.424446 -0.59784853 0
-19.441578 39.423637 -1.4290119 2
-8.69769 19.380365 -0.75442952 24
-7.8974929 19.458925 -0.80749124 0
-19.415579 53.343826 -2.3514657 1
-7.0453043 21.786674 -1.0153425 1
-5.5096407 19.418915 -0.95545024 0
-3.3112249 6.7145028 -0.37584743 0
-3.0681355 6.8364801 -0.39887598 0
-2.7304249 6.7275953 -0.40770808 0
-2.529269 6.9491043 -0.43727654 0
-2.3364072 7.2250309 -0.47095141 0
-3.2618802 6.6144414 -0.50096703 0
-2.9700229 6.6178637 -0.51461232 0
-2.6747923 6.5905204 -0.52531415 2
-2.4130197 6.6297121 -0.54224819 3
-2.3028183 7.1211619 -0.59677809 0
-5.4730711 19.290022 -1.6598018 21
-3.2134099 6.5161533 -0.62209934 0
-2.9218094 6.5104332 -0.63260424 0
-2.6409478 6.5071292 -0.64294064 0
-2.3916774 6.571075 -0.66138291 4
-2.2355418 6.9131188 -0.70791698 0
-2.223727 7.8376007 -0.81877571 0
-3.1869662 6.4625311 -0.74462914 0
-2.9102972 6.4847813 -0.75610209 0
-2.6183615 6.451478 -0.76068085 1
-2.6069894 6.4234581 -0.88030559 4
-2.5904198 6.3826318 -0.99666494 6
-2.5834765 6.3655238 -1.1168499 14
-2.5771616 6.3499637 -1.2156488 15
-2.5586402 6.3043289 -1.347922 9
-2.5437722 6.267695 -1.4600066 1
-2.5517116 6.2872567 -1.5849913 2
-2.5487058 6.279851 -1.7028549 1
-2.2079885 5.4403448 -2.0288866 0
-1.6105042 3.9681811 -2.0034475 1
-4.4994731 11.192786 3.1665533 9
-4.5422487 11.299193 2.3358572 3
-5.2049732 12.947771 1.9326656 7
-4.9040852 12.199289 1.1232606 12
-8.0554028 20.038433 1.081206 0
-32.729187 90.85907 2.8426363 4
-29.116495 91.069305 2.5270302 5
-28.19725 100.65199 2.4596663 3
-18.340048 37.502937 0.8577134 8
-8.6228418 19.385435 0.37404311 11
-18.138695 45.121399 0.71216667 9
-18.079861 50.191265 0.62573057 8
-19.072723 59.654831 0.54765344 0
-28.340532 101.16344 0.61243325 2
-21.120287 43.188152 0.13677059 40
-8.6258078 19.392103 -0.0018521433 39
-7.817791 19.447357 -0.063652754 19
-7.0205693 19.489712 -0.12401516 0
-6.221952 19.460749 -0.18222307 1
-23.339085 83.310432 -1.0298834 4
-21.429052 43.819538 -0.72284728 35
-8.6276941 19.396343 -0.37758926 24
-7.8221159 19.458115 -0.4345299 24
-7.0119476 19.465776 -0.49048182 0
-6.2212129 19.458439 -0.54386592 0
-23.385519 83.476189 -2.5668418 3
-19.380999 39.631542 -1.4342108 8
-8.6219969 19.383535 -0.75343573 18
-7.8150358 19.440502 -0.80564696 0
-7.0133257 19.469603 -0.85721552 0
-6.1893177 19.358679 -0.90122718 0
-5.4290519 19.379366 -0.95261341 0
-3.334573 6.8187542 -0.38106197 0
-3.0568099 6.8721642 -0.40036434 0
-2.6991642 6.7143788 -0.4063625 0
-2.511622 6.9724813 -0.43822101 0
-2.3245945 7.2707653 -0.4734275 0
-5.4161286 19.333237 -1.3060993 6
-3.2399292 6.6252208 -0.50096703 0
-2.9286001 6.58393 -0.51121551 0
-2.6469724 6.584548 -0.52413565 1
-2.396426 6.6526866 -0.54347432 2
-2.2925494 7.1705365 -0.60027546 0
-5.4015493 19.281195 -1.657492 22
-3.195287 6.5339332 -0.62278187 0
-2.900202 6.5200868 -0.63260424 0
-2.6238134 6.526938 -0.64403468 0
-2.3631241 6.5602379 -0.6594997 0
-2.2162433 6.9318695 -0.7090807 0
-5.4014459 19.280825 -2.0123403 10
-3.1585279 6.458766 -0.74298447 0
-2.8806922 6.4762259 -0.75398654 0
-2.5969546 6.4601245 -0.76068085 2
-2.5827155 6.4247036 -0.87929779 4
-2.5603821 6.3691473 -0.99322814 7
-2.5564647 6.3594027 -1.1142824 13
-2.5443394 6.3292403 -1.2100596 16
-2.5450392 6.3309813 -1.3518088 10
-2.5288088 6.2906065 -1.4633822 6
-2.5424724 6.3245955 -1.5922703 0
-2.5235276 6.2774692 -1.6999307 1
-2.1913469 5.4511442 -2.0301929 0
-1.5878775 3.9499676 -1.9915828 0
-4.4627061 11.219989 3.1696 11
-4.532742 11.396071 2.3524342 16
-4.8572845 12.212026 1.8201736 8
-4.900579 12.320875 1.1327943 8
-5.0673094 12.740063 0.68640381 5
-5.0709996 12.749341 0.44413865 0
-32.343666 90.83152 2.8380466 6
-28.899254 91.545288 2.5372815 4
-27.898392 101.00906 2.4658768 4
-18.366369 37.908218 0.86543685 9
-8.5533485 19.420567 0.37411362 4
-18.106218 45.52206 0.7174381 9
-19.272388 54.123127 0.67386371 0
-19.059837 60.376583 0.55363429 0
-28.245344 102.26524 0.61847246 0
-9.4772148 19.560989 0.061836373 0
-8.559515 19.434566 -0.0018531906 16
-7.7420201 19.464733 -0.063616313 23
-19.277393 54.13718 -0.34402892 0
-19.089911 60.471848 -0.56557643 0
-5.3689241 19.438755 -0.24005696 0
-9.4622612 19.530125 -0.32159474 0
-8.5662212 19.449793 -0.37801605 12
-7.7433505 19.468077 -0.43411562 23
-19.309885 54.228428 -1.3646089 0
-19.064648 60.391827 -1.685995 0
-5.3371482 19.323706 -0.59358662 3
-9.4513311 19.507565 -0.70469332 0
-8.5718451 19.462564 -0.75528133 10
-19.583853 49.23708 -2.0374784 15
-5.6307607 15.813004 -0.69530809 0
-2.1184349 6.7106481 -0.31204504 0
-5.3377709 19.32596 -0.94902009 13
-3.3269758 6.8668838 -0.38306755 0
-3.0396531 6.9015989 -0.40142745 0
-2.6819148 6.7427821 -0.40748382 0
-2.4954274 7.0079708 -0.43987375 0
-2.3195617 7.3477654 -0.47788447 0
-5.3377891 19.326027 -1.3042816 18
-3.2138834 6.633461 -0.50069588 0
-2.8996258 6.5836644 -0.51036632 0
-2.6095505 6.5608459 -0.52148408 2
-2.3653388 6.6426392 -0.54194164 0
-2.2902579 7.2549386 -0.60663432 0
-5.3319001 19.304705 -1.657822 38
-3.1591518 6.5204949 -0.6203931 0
-2.8602269 6.4942083 -0.62907213 0
-2.588094 6.5069013 -0.64111722 2
-2.3323858 6.5500965 -0.6576165 0
-2.2195837 7.0310612 -0.71839029 0
-5.3233199 19.27364 -2.0095406 19
-3.1296282 6.459558 -0.74175096 0
-2.8569376 6.4867401 -0.75398654 0
-2.5717883 6.4659057 -0.7602464 3
-2.554749 6.4230657 -0.8777861 4
-2.5355558 6.3748112 -0.99265534 7
-2.5331373 6.3687305 -1.1142824 12
-2.5138445 6.3202252 -1.2065663 15
-2.5160155 6.3256836 -1.3486993 11
-2.5086241 6.3070998 -1.4650701 9
-2.5106351 6.3121562 -1.5868111 1
-2.5134048 6.3191199 -1.7087033 0
-2.1713512 5.4591398 -2.0301929 0
-1.5720494 3.952395 -1.9898878 0
-4.4291854 11.249897 3.1736624 11
-4.491498 11.408168 2.3516808 10
-4.8001146 12.192039 1.8146862 10
-4.8254232 12.256321 1.1253035 11
-5.0111022 12.727935 0.68480378 10
-5.0132866 12.733483 0.44297394 6
-31.859047 90.468697 2.8232179 7
-28.505737 91.408936 2.5307291 5
-27.681255 101.60354 2.4780157 6
-18.329151 38.170372 0.8699559 11
-8.4711075 19.417316 0.37347904 3
-5.0183048 12.74623 0.20060621 0
-19.221502 54.582428 0.67874271 1
-19.029978 61.023155 0.55895066 1
-5.2718878 19.350367 0.11691377 4
-3.9010322 8.1238804 0.025638085 0
-8.4564295 19.383671 -0.0018455111 16
-7.6652403 19.469305 -0.063543424 20
-6.8570094 19.47154 -0.12358414 1
-6.0718174 19.470407 -0.18190201 2
-5.2758088 19.364759 -0.23891428 18
-21.047417 43.831146 -0.72053581 38
-8.4582911 19.387938 -0.37623766 21
-5.0206962 12.752304 -0.2839691 2
-6.8671613 19.500368 -0.49010265 0
-6.0603843 19.433746 -0.54194975 0
-5.2665143 19.330645 -0.59323144 20
-19.328804 40.25214 -1.4516267 1
-8.4479046 19.36413 -0.75031239 19
-5.0166011 12.741902 -0.52654451 0
-6.8685145 19.50421 -0.85655338 0
-6.0756149 19.482586 -0.90494829 0
-5.2650309 19.325199 -0.94807446 19
-3.3029871 6.8784547 -0.38306755 0
-3.0123472 6.9048462 -0.4010022 0
-2.7139592 6.8933129 -0.41600576 0
-2.4842112 7.0543022 -0.44223487 0
-2.3283684 7.4663453 -0.4850651 0
-5.2587585 19.302177 -1.3014253 21
-3.1647973 6.5906754 -0.49662963 0
-2.8702433 6.5791183 -0.50923407 0
-2.6027093 6.6107445 -0.5247249 1
-2.3487589 6.6696649 -0.54347432 0
-2.289849 7.3428259 -0.61331111 0
-5.2623901 19.315506 -1.6571621 27
-3.1329226 6.5242968 -0.61971062 0
-2.859844 6.5552812 -0.63401711 0
-2.5668256 6.5196018 -0.64148194 3
-2.3134739 6.5694675 -0.65874642 0
-2.2353261 7.1679878 -0.73157889 0
-5.2591529 19.303623 -2.0107405 21
-3.1087844 6.4740291 -0.74216211 0
-2.8374565 6.5039649 -0.75483274 0
-2.5433769 6.460043 -0.75850868 5
-2.5323141 6.4319439 -0.8777861 4
-2.5103889 6.3762555 -0.99150974 8
-2.5079994 6.3701859 -1.1129987 11
-2.4903262 6.3252969 -1.2058678 20
-2.4939208 6.3344269 -1.3486993 12
-2.4880266 6.3194561 -1.4659141 10
-2.4942954 6.3353786 -1.5904505 1
-2.4856482 6.3134155 -1.7048043 0
-2.1619782 5.4913106 -2.0393379 0
-1.5662079 3.9780853 -2.0000577 0
-4.3547668 11.175167 3.148273 10
-4.4915838 11.526266 2.3727787 7
-4.7733493 12.24933 1.8207223 12
-4.7869496 12.284231 1.126325 9
-4.9709911 12.756516 0.68540376 14
-4.9615464 12.732281 0.4423269 11
-31.170961 89.51078 2.789912 7
-28.275923 91.798317 2.5387611 6
-28.151407 104.76977 2.5528247 7
-18.305794 38.465225 0.8752144 11
-8.3731394 19.37701 0.37213939 12
-4.9679694 12.748763 0.20037192 8
-19.204498 55.147785 0.68493527 0
-18.895725 61.345325 0.56129402 0
-5.2053518 19.372513 0.11693709 22
-20.887915 43.89093 0.13828407 15
-8.3633337 19.354321 -0.001839926 28
-4.9626703 12.735164 -0.041507911 16
-19.254145 55.290356 -0.35049427 0
-5.9932137 19.457081 -0.18158093 0
-5.199882 19.352156 -0.23853339 24
-20.969921 44.063248 -0.72314364 10
-8.3747034 19.38063 -0.37552631 30
-4.9558201 12.717586 -0.28280905 11
-19.434511 55.808296 -1.4009162 17
-5.1979723 19.345049 -0.59311306 25
-9.28228 19.504478 -0.7022239 0
-8.3802643 19.393499 -0.75031239 20
-4.9561257 12.718369 -0.52485394 9
-19.437773 55.817657 -2.4483123 5
-5.9969788 19.469305 -0.90335357 0
-5.1996183 19.351175 -0.94845271 32
-3.2858248 6.9043708 -0.3838698 0
-2.9929812 6.9263186 -0.40164006 0
-2.7130799 6.9622836 -0.41959396 0
-2.4792712 7.1194944 -0.44577652 0
-2.3340213 7.5774441 -0.49175054 0
-5.1913533 19.320415 -1.3014253 23
-3.1383436 6.5944743 -0.49608746 0
-2.8488445 6.5927596 -0.50951713 0
-2.5723741 6.6012053 -0.52325183 2
-2.3175952 6.6552243 -0.54163516 0
-2.2947202 7.4498525 -0.62157756 0
-5.1897659 19.314508 -1.6555121 32
-3.1084182 6.5315933 -0.61936933 0
-2.8274629 6.5432787 -0.63189781 0
-2.5368192 6.5099649 -0.63965851 3
-2.3127933 6.6414351 -0.66514933 0
-2.2138054 7.1871614 -0.73274261 0
-5.1865788 19.302647 -2.0087404 23
-3.0912979 6.4956188 -0.74339563 0
-2.79896 6.4773173 -0.75060165 0
-2.5208101 6.4688821 -0.75850868 5
-2.4997597 6.4148631 -0.87425882 4
-2.4895523 6.3886685 -0.99208254 7
-2.4814458 6.367866 -1.1110731 12
-2.4696598 6.3376212 -1.2065663 21
-2.4646695 6.3248148 -1.3448126 12
-2.4602721 6.3135304 -1.4625384 10
-2.4707496 6.3404179 -1.5895406 1
-2.4635935 6.3220539 -1.7048043 0
-2.1400499 5.4917789 -2.036725 0
-1.5483646 3.9734008 -1.9949727 0
-4.3246508 11.207595 3.1533508 10
-4.4971795 11.654713 2.3961372 6
-4.9081488 12.719764 1.8882176 3
-4.7562327 12.326064 1.1287084 6
-4.9401693 12.802748 0.68700379 8
-4.9193001 12.748663 0.4423269 15
-30.953384 89.844254 2.797091 2
-28.106441 92.335312 2.5510206 7
-18.316359 38.81868 0.88186967 10
-8.2930984 19.367905 0.37143433 12
-4.9227886 12.757705 0.20025478 12
-19.207808 55.751942 0.69164389 0
-18.6759 61.354084 0.56080437 0
-5.1308246 19.351006 0.11670391 27
-20.726879 43.927402 0.13818166 13
-8.2959623 19.374592 -0.001839228 36
-4.9175339 12.744086 -0.041483618 16
-6.716495 19.495073 -0.12344046 0
-5.9228387 19.457716 -0.18140256 0
-5.1346488 19.365427 -0.23848578 33
-24.17738 51.2402 -0.83960766 6
-8.2993727 19.382557 -0.37502834 33
-4.9136219 12.733949 -0.28280905 12
-6.7277546 19.527756 -0.48962867 0
-5.9151545 19.43247 -0.54077882 0
-5.1307135 19.350586 -0.59275794 22
-9.169776 19.433918 -0.69858474 0
-8.2938814 19.369734 -0.74832475 21
-4.898097 12.693715 -0.52316332 13
-6.7238784 19.516504 -0.85506338 0
-6.5700779 21.584026 -1.0004579 0
-5.1261978 19.333555 -0.94675058 34
-3.2714331 6.9332943 -0.38487259 0
-2.9794312 6.9582362 -0.40291578 0
-2.7302346 7.0755682 -0.42587328 0
-2.4673524 7.1616549 -0.44790152 0
-2.3193455 7.6195159 -0.49397901 0
-5.1262274 19.333668 -1.3011657 24
-3.1130507 6.5976281 -0.49554527 0
-2.8112626 6.5654912 -0.50668651 0
-2.5418544 6.587369 -0.52148408 1
-2.2942121 6.6591034 -0.54132861 0
-2.3199329 7.6214457 -0.63524914 1
-5.1236396 19.323908 -1.6548522 30
-3.0918419 6.5526791 -0.6203931 0
-2.7916355 6.5196533 -0.62871891 0
-2.5166526 6.5220571 -0.64002317 3
-2.3089149 6.7017794 -0.67042232 0
-2.2143071 7.2744436 -0.74088848 0
-5.1051946 19.254341 -2.0019407 20
-3.0493646 6.4626546 -0.73846161 0
-2.779032 6.4902191 -0.75102478 0
-2.4993458 6.4772058 -0.75850868 5
-2.4827604 6.4342237 -0.87577051 4
-2.4612284 6.3784223 -0.98921859 8
-2.4645808 6.3871098 -1.1129987 12
-2.4500492 6.3494501 -1.207265 20
-2.4394455 6.3219709 -1.3424805 12
-2.4407308 6.3253016 -1.4633822 9
-2.4384937 6.3195038 -1.5822617 0
-2.4370301 6.315711 -1.7009054 0
-2.1259108 5.5094261 -2.0406444 0
-1.5417023 3.9954147 -2.0034475 0
-4.3365669 11.356355 3.190927 9
-4.3948045 11.508863 2.3629832 9
-4.5937443 12.029837 1.783408 11
-4.7060657 12.323977 1.1270059 10
-4.8847489 12.791903 0.44323277 8
-30.555803 89.705742 2.7894413 5
-3.3334277 11.089799 0.30606329 0
-27.318266 104.50243 2.5417209 7
-18.295938 39.128719 0.88745689 11
-8.2176285 19.378326 0.37108177 12
-4.8753691 12.767339 0.20013765 12
-19.19751 56.360058 0.69835252 1
-27.387281 91.113258 0.83193797 13
-5.0652738 19.376537 0.11675055 37
-20.546318 43.941505 0.13799958 2
-8.2189054 19.381338 -0.0018371335 37
-4.8787236 12.776124 -0.041532207 11
-6.6084266 19.401022 -0.12269814 0
-23.398785 77.844139 -0.72496814 4
-5.0589309 19.352274 -0.23810489 31
-24.171177 51.693832 -0.84565312 13
-8.2191668 19.381954 -0.37445927 35
-4.8776989 12.77344 -0.28330621 10
-3.5947402 10.55344 -0.26429519 0
-23.338478 77.643509 -2.1584313 0
-5.0530286 19.329695 -0.59157407 20
-19.477194 41.655014 -1.4949063 0
-8.2152872 19.372807 -0.74733096 23
-4.8665876 12.744344 -0.52454656 10
-19.133411 56.171879 -2.4580796 8
-5.8378587 19.421656 -0.89927799 0
-5.0536313 19.332001 -0.94580495 35
-3.2472129 6.9446712 -0.38487259 0
-2.867794 6.7626624 -0.39100903 0
-2.7226143 7.1298275 -0.42856443 0
-2.4513524 7.1966815 -0.44955429 0
-2.2984784 7.6466827 -0.49521706 0
-5.0526567 19.328272 -1.2996078 16
-3.0832415 6.5939932 -0.49446094 0
-2.7961142 6.5936313 -0.50810182 1
-2.5231121 6.6073823 -0.52236795 2
-2.2979596 6.7463503 -0.54776567 0
-2.3334861 7.7631483 -0.64637709 0
-5.0521269 19.326246 -1.6535323 29
-3.0402539 6.5020571 -0.61459184 0
-2.7657478 6.5220227 -0.62801248 0
-2.4896061 6.519639 -0.63892913 3
-2.2816567 6.6984887 -0.66929239 0
-2.2037973 7.3316936 -0.74593115 0
-5.040977 19.283594 -2.0031407 21
-3.0251031 6.469655 -0.7380504 0
-2.7439351 6.4705858 -0.74763983 0
-2.4738822 6.4784617 -0.75763983 5
-2.4602838 6.4428515 -0.87577051 4
-2.4389467 6.3869753 -0.98921859 8
-2.436635 6.3809209 -1.1104312 13
-2.4222486 6.3432469 -1.2044704 16
-2.4159615 6.3267827 -1.3417032 13
-2.4144504 6.3228254 -1.4608505 10
-2.4164181 6.3279781 -1.5822617 1
-2.4094319 6.3096833 -1.6970065 0
-2.1053162 5.5132823 -2.0393379 0
-1.5355002 4.0210805 -2.0136173 0
-4.2812481 11.335978 3.1807714 12
-4.3872943 11.616769 2.3818209 7
-4.5524249 12.054005 1.7845055 6
-4.6453781 12.300129 1.1232606 10
-30.398949 90.328705 2.8053293 7
-27.791773 93.7033 2.5832546 3
-5.0936341 19.781065 0.48066014 0
-18.288521 39.489456 0.89411217 11
-8.1697712 19.463629 0.37213939 4
-4.8426757 12.822537 0.20072335 5
-19.147713 56.896313 0.70412284 1
-27.029287 91.132484 0.83120346 10
-4.9902258 19.379478 0.11665728 31
-4.3906918 9.4805937 0.029723337 0
-8.1431751 19.400267 -0.0018360863 25
-4.8361063 12.805142 -0.041568652 4
-6.5551305 19.478188 -0.12303338 0
-5.7641163 19.43441 -0.1807961 0
-4.9909544 19.382309 -0.23824772 15
-8.9939146 19.420095 -0.31714955 1
-8.1387911 19.389824 -0.37403244 18
-6.5572329 19.484436 -0.48735353 0
-4.9980946 19.410036 -0.59346825 10
-8.9464712 19.317652 -0.69208628 7
-4.8466797 12.833139 -0.52746665 1
-6.5356092 19.420181 -0.84877253 0
-4.991704 19.38522 -0.94750708 13
-3.2200568 6.9529018 -0.38467202 0
-2.8182549 6.7141986 -0.3876071 0
-2.7077539 7.1696467 -0.43035853 0
-2.4440613 7.2623854 -0.45309594 0
-2.2727087 7.6627102 -0.49571228 0
-4.9917293 19.385317 -1.3022044 9
-3.0607281 6.6088719 -0.49473202 0
-2.765753 6.5891185 -0.50696957 2
-2.4960606 6.6091213 -0.5217787 2
-2.3469965 6.9739633 -0.56554431 0
-2.303885 7.7678251 -0.64605916 0
-4.9703188 19.30217 -1.6499025 28
-3.0230999 6.5276232 -0.61595684 0
-2.7449102 6.539463 -0.62871891 0
-2.4656954 6.5287194 -0.63892913 3
-2.2481971 6.680387 -0.6666559 0
-2.1848364 7.3664384 -0.7486465 0
-4.9633126 19.274963 -2.0003407 26
-3.0063846 6.4915309 -0.73928392 0
-2.729439 6.502604 -0.75017852 0
-2.4543371 6.4986444 -0.75894314 5
-2.4338508 6.4444003 -0.87476271 4
-2.408529 6.3773532 -0.98635459 3
-2.4132328 6.3898082 -1.1104312 13
-2.3948102 6.3410277 -1.2023745 16
-2.3913717 6.3319235 -1.3409259 12
-2.392643 6.3352895 -1.4616944 10
-2.3890815 6.3258595 -1.5795321 1
-2.3849204 6.3148417 -1.6960318 0
-2.081089 5.5103507 -2.0354187 0
-1.509232 3.996176 -1.9983627 0
-4.2538428 11.38347 3.1899116 13
-2.1492953 5.7516084 1.1777241 1
-4.8723135 13.038525 1.9277269 7
-4.6191578 12.361069 1.1273464 15
-2.3101981 6.1821909 0.33040184 0
-33.606232 89.931747 3.1076765 8
-30.126385 90.563255 2.8093307 8
-29.22407 99.809258 2.7487569 4
-26.425165 104.12547 2.5278883 8
-18.282341 39.840195 0.90060318 10
-8.1570358 19.624983 0.37467766 4
-18.046337 48.292786 0.75498217 8
-19.143429 57.547268 0.71134752 1
-26.997597 92.205162 0.84012228 7
-4.9314079 19.431671 0.11686714 15
-8.8753023 19.340727 0.060539108 15
-8.1337395 19.568933 -0.0018493509 17
-7.2864842 19.498949 -0.063215442 0
-6.4757395 19.466791 -0.12281787 0
-23.326696 79.6679 -0.74037933 3
-4.9301586 19.426748 -0.238581 13
-8.8777008 19.345953 -0.31543076 21
-8.1278486 19.55476 -0.37666449 7
-19.967829 53.434784 -1.1819478 1
-3.1505547 9.4709167 -0.23661436 0
-4.921463 19.392485 -0.59240276 10
-8.8873262 19.366928 -0.69273615 24
-8.1270809 19.552914 -0.75201601 7
-19.44528 52.036423 -2.1359942 1
-18.823055 56.584194 -2.4701648 8
-2.0953364 7.1562233 -0.33065078 0
-4.9131994 19.359922 -0.9454267 13
-3.2074318 6.9895153 -0.38607594 0
-2.7947991 6.7239962 -0.3876071 0
-2.6771202 7.1640906 -0.42946148 1
-2.4476862 7.3580165 -0.45852649 0
-5.6720762 19.371899 -1.2519087 0
-4.8994894 19.305899 -1.2957128 18
-3.0376415 6.6195145 -0.49473202 0
-2.750391 6.6171556 -0.50838488 3
-2.4687874 6.6065831 -0.52089483 1
-2.3352289 7.0199571 -0.5686096 0
-2.2935607 7.8332205 -0.6508283 0
-4.9029155 19.319401 -1.6499025 26
-2.9986348 6.534513 -0.61561561 0
-2.7144186 6.5306096 -0.62695283 0
-2.441498 6.5335555 -0.63856441 3
-2.2764025 6.8431182 -0.68209821 0
-2.2049744 7.5306711 -0.76455039 0
-4.1989532 16.545513 -1.7155491 8
-2.9671135 6.4658227 -0.73517221 0
-2.7006159 6.4974012 -0.7484861 0
-2.4218955 6.4810987 -0.75590211 5
-2.4057858 6.4379883 -0.87274712 4
-2.3765545 6.3597636 -0.98234504 0
-2.3922968 6.4018912 -1.1110731 13
-2.3740411 6.3530378 -1.2030731 16
-2.3678823 6.3365569 -1.3401486 13
-2.3623033 6.3216267 -1.4566308 10
-2.3628964 6.3232141 -1.5768025 1
-2.37237 6.3485661 -1.7028549 0
-2.0539024 5.4963326 -2.02758 0
-1.4965426 4.0048137 -2.0000577 0
-4.3053098 11.645012 3.2589705 10
-4.3047247 11.64343 2.3810673 15
-4.5780787 12.382799 1.8284048 3
-4.5925632 12.421976 1.1314323 13
-33.219994 89.853516 3.1009471 6
-29.797609 90.629875 2.8081536 9
-29.531649 102.18091 2.8112168 3
-26.085766 104.31406 2.5302408 5
-18.26564 40.173176 0.90668333 10
-18.155714 44.114597 0.84101528 8
-18.062105 48.854424 0.76277214 7
-19.132334 58.19128 0.71847832 1
-29.303175 101.39038 0.9228754 6
-4.8412251 19.359518 0.11633083 20
-8.8077316 19.371592 0.060539108 26
-7.2100482 19.501757 -0.06314256 0
-6.4002566 19.466476 -0.1226742 0
-5.6260767 19.466492 -0.18072475 0
-4.8429046 19.366236 -0.23762877 22
-8.8001785 19.35498 -0.31507513 24
-22.009634 53.478813 -1.0286248 4
-7.1988268 19.471403 -0.4301382 0
-6.4235539 19.537336 -0.48754311 0
-5.6298585 19.479578 -0.53982073 0
-4.8362761 19.339729 -0.59027183 24
-8.7865696 19.325048 -0.69013673 31
-7.1922827 19.453703 -0.79750133 0
-6.4011288 19.46913 -0.84893805 0
-4.8320155 19.322691 -0.942779 26
-3.1912801 7.0188537 -0.38707873 0
-2.7652316 6.718935 -0.38675663 0
-2.6562493 7.1846299 -0.43013427 3
-2.4494264 7.4499669 -0.46372092 0
-4.1348524 16.534813 -1.1087562 16
-3.0062559 6.6119142 -0.49337658 0
-2.7212036 6.6119566 -0.50725263 3
-2.4443262 6.6114192 -0.5206002 2
-2.3368709 7.1076279 -0.57504672 0
-5.5841427 19.3214 -1.6037019 14
-4.1352711 16.536488 -1.4109966 27
-2.9758053 6.5449414 -0.61561561 0
-2.6855419 6.5253062 -0.62553996 0
-2.4159124 6.5345654 -0.63783503 3
-2.2599659 6.8737202 -0.68435806 0
-2.2361546 7.7372012 -0.78472114 0
-4.1266851 16.502153 -1.7095493 26
-2.9478176 6.4833856 -0.73599458 0
-2.6627824 6.4700055 -0.74425495 0
-2.4020138 6.4969726 -0.75677097 5
-2.3832967 6.4463472 -0.87274712 4
-2.3584569 6.3791599 -0.98406339 2
-2.3589811 6.3805776 -1.1059382 14
-2.3532147 6.3649807 -1.2037718 17
-2.3403051 6.3300629 -1.3370391 13
-2.3375092 6.3225002 -1.4549429 10
-2.3367562 6.3204641 -1.5740728 1
-2.3407764 6.3313379 -1.6960318 0
-2.0465019 5.5353832 -2.0393379 0
-1.4762712 3.9930217 -1.9915828 0
-4.2108288 11.506625 3.2163165 6
-4.2444921 11.598614 2.3690112 13
-4.5424395 12.412794 1.8305997 5
-4.5540867 12.444622 1.1321132 10
-33.232899 90.813118 4.8412266 1
-32.91362 89.940651 3.1001706 7
-29.524076 90.811852 2.8107429 7
-28.602228 100.20964 2.7543583 5
-4.0779209 16.539995 0.40086377 3
-18.270353 40.539783 0.91358513 10
-18.157276 44.537502 0.84792501 7
-18.053951 49.334717 0.76933211 6
-19.121029 58.813564 0.72537458 0
-28.785673 100.85236 0.91710436 9
-4.0933437 16.602549 0.099682167 4
-8.7270136 19.364225 0.060425311 30
-7.9263563 19.442348 -0.0018322465 2
-7.1384687 19.506775 -0.063081823 0
-6.3035083 19.388693 -0.1220516 1
-2.6523049 9.292511 -0.086188518 0
-4.0816331 16.555052 -0.20296764 8
-8.7343073 19.380409 -0.31501585 23
-7.9326515 19.45779 -0.37374792 12
-19.544552 53.407974 -1.1783848 1
-6.2672319 19.277113 -0.48052812 2
-23.282679 81.572281 -2.2583902 3
-4.0791769 16.54509 -0.50456047 8
-8.7257261 19.361368 -0.69039667 23
-7.9787087 19.570763 -0.75059628 0
-1.8324147 5.0073066 -0.20502347 0
-7.0804005 21.778303 -0.94859892 0
-4.0802269 16.549349 -0.80679941 12
-3.1581399 7.007544 -0.38587537 0
-2.7429335 6.7280688 -0.38675663 0
-2.6241763 7.1708956 -0.42878869 0
-2.4493971 7.5339966 -0.46844313 0
-5.5477643 19.43693 -1.253642 0
-4.0656686 16.490301 -1.1048613 27
-2.9777558 6.6072927 -0.49229226 0
-2.6947417 6.6098604 -0.50640345 3
-2.433357 6.6494575 -0.52295721 1
-2.3305495 7.1684384 -0.57933807 0
-5.5167608 19.328306 -1.6027482 17
-4.0737348 16.523016 -1.4086868 28
-2.9508111 6.5475059 -0.61493307 0
-2.6623824 6.5304871 -0.62518674 0
-2.3969688 6.5500226 -0.63856441 3
-2.2704008 6.9834294 -0.69452739 0
-2.2290621 7.8096542 -0.79131544 0
-4.064321 16.484833 -1.7063494 31
-2.8985112 6.431458 -0.72900468 0
-2.6338027 6.4603848 -0.7421394 0
-2.3831899 6.5123701 -0.75763983 5
-2.3605444 6.4504881 -0.87224323 3
-2.3400121 6.394381 -0.98520899 1
-2.3323834 6.3735342 -1.1033707 13
-2.3320959 6.3727489 -1.2037718 19
-2.3193021 6.3377881 -1.3370391 14
-2.3192186 6.3375597 -1.4566308 10
-2.3144464 6.3245196 -1.573163 1
-2.3171029 6.331779 -1.6940823 0
-2.0307341 5.5492396 -2.0419507 0
-1.4692481 4.0149074 -2.0000577 0
-4.1482472 11.459412 3.1990516 11
-4.314959 11.919949 2.4315519 8
-4.3925371 12.134254 1.7872492 9
-4.5214686 12.490424 1.1348372 14
-32.893917 90.868484 4.8380265 7
-32.811726 90.641434 3.1203587 6
-29.167791 90.792534 2.8069768 8
-28.252228 100.30888 2.7543583 4
-4.008832 16.5075 0.39973459 10
-18.257526 40.8918 0.92007613 10
-18.139425 44.941803 0.85441172 7
-18.039537 49.833691 0.77612638 6
-19.093016 59.43211 0.73217702 0
-28.565723 101.42194 0.92137146 4
-4.0155373 16.53511 0.0991925 10
-8.6528387 19.379961 0.060379796 36
-7.8509598 19.451349 -0.0018305012 1
-7.058075 19.497726 -0.062972493 0
-6.2565932 19.475317 -0.12245868 1
-5.4869351 19.481236 -0.18051071 3
-4.0077696 16.503126 -0.20215824 12
-8.6470318 19.366957 -0.31430462 26
-7.8527126 19.455692 -0.37317881 26
-7.0552316 19.48987 -0.42947531 0
-6.2586174 19.481617 -0.48507839 0
-5.4884624 19.486656 -0.5389691 0
-4.0081854 16.504835 -0.50290304 13
-8.6417856 19.355206 -0.68909699 26
-19.911278 49.331703 -1.8893391 4
-7.0488138 19.472143 -0.7962718 0
-6.2623458 19.493223 -0.84811032 0
-4.0045147 16.489721 -0.80320609 14
-3.1532025 7.0623007 -0.38828209 0
-2.7179382 6.7338982 -0.38654402 0
-2.620877 7.2400966 -0.43237686 0
-2.4536183 7.6375418 -0.47434589 0
-4.0099616 16.512152 -1.1053807 27
-2.9546723 6.6176476 -0.49229226 0
-2.6597071 6.5896263 -0.50413889 3
-2.4033403 6.6391573 -0.52148408 1
-2.3213725 7.2258916 -0.58332294 0
-5.4416866 19.320581 -1.6005225 14
-4.0188518 16.548758 -1.4096767 33
-2.9165628 6.5322928 -0.61254436 0
-2.6350982 6.528656 -0.62412715 1
-2.3795118 6.5733318 -0.64002317 0
-2.2460117 6.9913111 -0.69452739 0
-5.4267535 19.267563 -1.9503598 5
-4.0170803 16.541464 -1.7107493 28
-2.8922632 6.4778686 -0.73311639 0
-2.6082597 6.4621615 -0.74129319 1
-2.3550274 6.5056944 -0.75590211 5
-2.3272066 6.4288397 -0.8682121 5
-2.316328 6.3987889 -0.98463619 2
-2.3128073 6.3890624 -1.1046544 13
-2.2964289 6.3438177 -1.1967853 18
-2.2971632 6.3458462 -1.3370391 14
-2.2944188 6.3382649 -1.4549429 11
-2.3016348 6.3581986 -1.5795321 1
-2.2923441 6.3325334 -1.6921328 0
-2.0100629 5.5527401 -2.0406444 1
-1.4552233 4.0200119 -2.0000577 0
-4.0840607 11.412611 3.181787 7
-4.228889 11.817324 2.4074399 11
-4.3346863 12.112967 1.7817618 12
-4.4488044 12.431862 1.1280274 10
-32.707386 91.398422 4.859827 5
-32.42543 90.610519 3.1151822 4
-28.941189 91.234215 2.8173335 3
-2.8524227 10.271572 0.28175578 0
-3.9501646 16.52986 0.39992279 12
-18.244986 41.269341 0.92706007 8
-18.125868 45.386837 0.8616035 4
-17.991535 50.276039 0.78198349 2
-19.078222 60.142197 0.74005848 1
-28.914108 104.11968 0.94491023 4
-3.9511914 16.534155 0.099099226 14
-8.5882235 19.426178 0.060425311 19
-3.0115573 7.5408835 -0.00070860365 0
-6.3221445 17.666775 -0.056983791 0
-6.1670237 19.440928 -0.1220995 1
-3.9528375 16.541044 -0.20244391 14
-8.5824642 19.413149 -0.3145417 12
-7.7650294 19.443489 -0.37239632 40
-19.34108 54.047249 -1.1894054 0
-5.3977494 19.437292 -0.53705293 0
-3.9569616 16.558302 -0.50408691 10
-8.5998878 19.452562 -0.69143641 8
-7.7880502 19.501133 -0.74576932 0
-2.618041 7.3159256 -0.29877484 0
-19.144154 60.350033 -2.6226358 10
-4.4373832 15.979013 -0.73537016 0
-3.9505539 16.531488 -0.80452996 15
-3.1321447 7.0847712 -0.38888377 0
-2.651757 6.6399503 -0.38059065 0
-2.6239283 7.3323774 -0.43731064 0
-2.4340584 7.6731272 -0.47599867 0
-5.3764873 19.360727 -1.2462137 0
-3.9586959 16.565559 -1.1079773 21
-2.9191036 6.6028819 -0.49039465 0
-2.6399746 6.6104474 -0.50498807 3
-2.3843682 6.6629443 -0.52266258 2
-2.3141656 7.295177 -0.58822739 0
-5.3655066 19.321184 -1.5989329 25
-3.9720721 16.621534 -1.4146264 15
-2.8780994 6.5101323 -0.60947311 0
-2.6052389 6.5234699 -0.62271428 2
-2.3527207 6.5745077 -0.63929379 0
-5.3582335 19.294994 -1.9511356 16
-4.6058135 19.273487 -1.991541 13
-2.8749378 6.5029807 -0.73476106 0
-2.581605 6.4642911 -0.74044693 2
-2.3244698 6.4955626 -0.75373 6
-2.3089774 6.45227 -0.87022769 6
-2.2915273 6.4035072 -0.98406339 2
-2.2840552 6.3826265 -1.1020869 1
-2.2705097 6.3447752 -1.195388 27
-2.2712467 6.3468342 -1.3354845 15
-2.2685392 6.3392682 -1.4532551 10
-2.2730675 6.351922 -1.5758926 1
-2.2704275 6.3445449 -1.6931076 0
-1.9935204 5.5707483 -2.0445638 1
-1.4319352 4.0014391 -1.9881928 0
-4.05194 11.448682 3.1878803 11
-4.2819781 12.098651 2.4616921 12
-4.2738671 12.075733 1.7740794 10
-4.4186759 12.484888 1.1314323 11
-32.454765 91.700348 4.8698268 6
-32.035557 90.515877 3.1080647 4
-28.667995 91.47966 2.8218055 5
-3.9070983 16.605829 0.40142837 6
-18.229166 41.625835 0.93363321 8
-18.123192 45.84407 0.86907732 3
-19.225069 54.32008 0.84383464 1
-19.046398 60.777111 0.74704856 1
-27.807533 101.50802 0.92032218 3
-3.899868 16.5751 0.099262454 8
-8.4914818 19.390083 0.06022048 18
-7.6909804 19.454954 -0.0018256144 0
-3.1375563 8.8651075 -0.028558707 0
-6.1003246 19.466152 -0.12212344 1
-5.3019485 19.354118 -0.17897673 0
-3.9069865 16.605354 -0.20306286 4
-8.4825621 19.369715 -0.31335631 17
-7.6912346 19.455597 -0.37211177 78
-6.8995733 19.494617 -0.42848095 0
-6.0987206 19.461035 -0.48346683 0
-5.3002815 19.348034 -0.53407228 6
-3.9092147 16.614824 -0.50538915 3
-8.4758062 19.354288 -0.6868875 16
-19.488688 49.298203 -1.8826665 14
-6.8879566 19.461796 -0.79381275 0
-6.110744 19.499401 -0.84645486 0
-5.2948427 19.32818 -0.88864613 15
-3.9092994 16.615185 -0.80793417 2
-1.7612319 4.021728 -0.22041427 0
-2.8312137 7.1617827 -0.40993226 0
-2.6356246 7.446909 -0.44358996 0
-2.4108431 7.6930075 -0.47670698 0
-5.2941008 19.325472 -1.2427472 19
-4.5508399 19.341841 -1.2925968 12
-2.8960385 6.6130304 -0.49039465 0
-2.6110179 6.6047797 -0.50385582 3
-2.3531082 6.648664 -0.52089483 1
-2.3244674 7.4173822 -0.59742326 0
-5.2980251 19.339798 -1.5989329 39
-4.5403495 19.297255 -1.640993 15
-2.8473649 6.5018854 -0.60776687 0
-2.5883129 6.5473452 -0.62412715 3
-2.3231103 6.5639057 -0.63747036 0
-2.2542772 7.1934047 -0.71298283 0
-5.2813768 19.279024 -1.9476445 18
-4.5439816 19.312691 -1.9939409 4
-2.8346648 6.4728851 -0.7302382 0
-2.5575638 6.4695635 -0.74002385 2
-2.3031068 6.5073857 -0.75416446 3
-2.2837911 6.4528093 -0.8692199 7
-2.2585926 6.3816123 -0.97948104 6
-2.2604427 6.3868394 -1.1014451 1
-2.2483468 6.3526626 -1.195388 41
-2.2477672 6.3510251 -1.3347071 15
-2.2411773 6.3324056 -1.4498793 14
-2.2508795 6.3598185 -1.5758926 1
-2.2469709 6.3487749 -1.6921328 0
-1.970277 5.5669813 -2.0406444 1
-1.4252107 4.026907 -1.9983627 0
-4.0375161 11.535789 3.2081919 11
-4.4733162 12.780936 2.5973225 8
-4.2251468 12.071877 1.7713357 6
-4.4040365 12.582994 1.1389229 10
-31.599997 90.285934 4.7888265 6
-31.613764 90.325264 3.0977118 8
-28.558929 92.259041 2.8427539 8
-27.398626 101.40302 2.7762351 5
-18.223789 42.012077 0.94086367 6
-4.9884453 12.748648 0.2413477 8
-6.9920921 19.977457 0.30995855 0
-19.052923 61.550083 0.75572753 1
-5.2364569 19.380262 0.17554429 11
-8.3998642 19.364563 0.060049787 40
-4.9935932 12.761805 -0.0011958996 6
-6.8249931 19.500029 -0.062741697 0
-6.0287848 19.475866 -0.1220516 0
-5.2312317 19.360924 -0.17886971 17
-4.5348649 19.58029 -0.23924758 0
-8.4021597 19.369856 -0.31288218 22
-4.9811449 12.729991 -0.24314243 31
-19.532688 55.807823 -1.2251191 25
-5.2275009 19.347116 -0.53354001 16
-4.5250802 19.538042 -0.59382337 1
-8.395462 19.354416 -0.68584776 27
-4.9817066 12.731426 -0.48553798 4
-19.518494 55.767262 -2.2718568 19
-6.0355458 19.497707 -0.84546155 0
-5.219008 19.315683 -0.88722855 19
-4.5229025 19.528639 -0.94883096 1
-3.0778375 7.0954695 -0.38828209 0
-2.8265758 7.2236977 -0.41290894 0
-2.6439178 7.55407 -0.44942078 0
-2.3698037 7.6556029 -0.47387367 0
-5.2182832 19.313 -1.2407663 22
-4.5040059 19.447048 -1.2985691 0
-2.8649948 6.604794 -0.48903921 0
-2.5835867 6.602706 -0.50300664 3
-2.3259337 6.6455417 -0.52001095 1
-2.33512 7.5435572 -0.60692561 0
-5.2284083 19.350475 -1.598297 17
-4.4747558 19.320755 -1.6416529 21
-2.8389237 6.544692 -0.61083812 0
-2.5610881 6.545208 -0.6230675 3
-2.3054488 6.5870128 -0.63892913 0
-2.2303295 7.2050343 -0.71335948 0
-5.2098985 19.281969 -1.946093 17
-4.4621668 19.266399 -1.9875411 9
-2.0029533 4.6174936 -0.52013022 0
-2.5364161 6.4821553 -0.74044693 4
-2.2816927 6.5191383 -0.75459886 0
-2.2586322 6.4532514 -0.8682121 7
-2.2323811 6.3782477 -0.97776264 18
-2.2472658 6.4207759 -1.1059382 5
-2.2261596 6.3604717 -1.195388 79
-2.2242897 6.3551292 -1.3339298 17
-2.2229357 6.3512607 -1.4524112 12
-2.2260935 6.3602834 -1.5740728 2
-2.231205 6.3748875 -1.6970065 0
-1.9520828 5.5773935 -2.0419507 2
-1.4207215 4.0592146 -2.0119224 0
-4.0207644 11.611266 3.2254565 8
-4.1918192 12.105243 2.457171 9
-4.1837978 12.082078 1.770787 11
-4.3831544 12.657785 1.1443707 14
-31.389336 90.646927 4.8024263 4
-31.255209 90.25959 3.0918882 8
-28.291445 92.479408 2.8466377 9
-27.04364 101.42379 2.7743328 5
-18.229677 42.410294 0.94842279 5
-4.9316883 12.727829 0.24064262 14
-19.187321 55.409637 0.85871172 1
-19.258249 62.951591 0.77214724 1
-5.1649413 19.370466 0.17529947 23
-29.528816 129.4485 0.77399993 6
-8.3245497 19.366587 0.059970133 53
-4.9353452 12.737267 -0.0011920598 13
-6.7642221 19.533894 -0.062778138 0
-5.9606605 19.484276 -0.12197977 1
-5.1577196 19.343382 -0.17854863 23
-4.4307742 19.423639 -0.23715267 0
-8.3252497 19.368214 -0.31240803 24
-4.9287853 12.720336 -0.24264449 17
-6.756258 19.510895 -0.42781806 0
-5.9544144 19.463858 -0.48251885 0
-5.1550679 19.333437 -0.53268838 27
-4.4389281 19.459385 -0.59098214 0
-8.3296604 19.378475 -0.68571776 27
-4.925014 12.710605 -0.48411828 12
-6.7422547 19.470457 -0.79227585 0
-5.9264312 19.372387 -0.83917063 0
-5.1549206 19.332884 -0.88722855 24
-12.604836 55.257114 -2.6827121 4
-3.0385165 7.068934 -0.38627651 0
-2.7867289 7.1920619 -0.41057011 1
-2.6188545 7.5627952 -0.44942078 0
-6.6360569 21.69202 -1.3413434 1
-5.1511188 19.318628 -1.2400235 21
-8.8639011 38.857597 -2.5927238 0
-2.84623 6.6215911 -0.48958138 1
-2.5631168 6.6149583 -0.5032897 2
-2.3078008 6.664526 -0.52089483 0
-2.3590951 7.7114372 -0.61979979 1
-5.1529055 19.325327 -1.5947996 16
-4.3973665 19.277187 -1.6367033 27
-2.7983203 6.5101314 -0.6067431 0
-2.5379281 6.5499506 -0.62271428 3
-2.3096626 6.6699028 -0.64622283 0
-2.2250652 7.2733188 -0.71938574 0
-5.1459227 19.299141 -1.946093 19
-4.3956013 19.269449 -1.9863411 14
-2.7905397 6.4920301 -0.7302382 0
-2.5134676 6.4868221 -0.74002385 3
-2.248353 6.4928517 -0.75068903 0
-2.2424152 6.4757042 -0.87022769 2
-2.2073328 6.3743925 -0.97604424 255
-2.2298386 6.4393849 -1.1078638 2
-2.2115002 6.3864269 -1.1988813 14
-2.2006364 6.3550539 -1.332375 20
-2.2018633 6.3585968 -1.4524112 11
-2.2049911 6.36763 -1.5740728 3
-2.2024376 6.3602562 -1.6911582 0
-1.9335779 5.5838356 -2.0419507 2
-1.4001404 4.0433612 -2.0017526 0
-3.9864721 11.643534 3.2305343 7
-4.0948191 11.95999 2.4247704 13
-4.1800971 12.209066 1.7872492 7
-4.3363585 12.665468 1.1436898 14
-31.049408 90.687912 4.7988267 6
-30.886837 90.213081 3.0865824 6
-28.07366 92.925903 2.8573472 8
-27.582125 104.91296 2.8671241 3
-18.230328 42.823235 0.95622844 4
-4.8929601 12.759902 0.24092466 11
-19.164783 55.975761 0.8664431 1
-18.598822 61.563488 0.75432014 0
-5.0881453 19.353561 0.17498468 31
-29.715321 132.39598 0.7909984 6
-8.2443581 19.366085 0.059879094 47
-4.8851275 12.739476 -0.0011906635 18
-6.6830325 19.519543 -0.062656663 0
-5.8856659 19.481993 -0.1218361 0
-5.0972905 19.388346 -0.17879836 19
-25.959541 115.66218 -1.4110607 4
-8.2575855 19.397158 -0.31240803 24
-4.8800592 12.726259 -0.24243107 14
-19.298742 56.367023 -1.2344825 0
-2.6621933 8.8120584 -0.21822366 0
-5.087554 19.351313 -0.53268838 21
-4.3578362 19.416245 -0.58920634 0
-8.2369061 19.348581 -0.68363827 21
-4.8820496 12.73145 -0.48426026 12
-19.2472 56.21648 -2.2847667 2
-5.9038444 19.542164 -0.84562707 0
-5.0772481 19.312111 -0.88545656 20
-1.0482488 4.6704502 -0.22656956 0
-2.8682935 6.7376528 -0.36762452 0
-2.7587478 7.1942859 -0.4101449 1
-2.5937314 7.5756702 -0.44964504 0
-5.8708892 19.433081 -1.2003856 0
-5.0745206 19.301737 -1.237795 22
-4.3496761 19.379889 -1.2920775 0
-2.8152814 6.6131263 -0.48822597 2
-2.5385833 6.6201386 -0.50300664 3
-2.2754765 6.6461239 -0.51883245 0
-2.339081 7.7425327 -0.62163895 0
-5.0844059 19.339338 -1.5944816 19
-4.3300447 19.292421 -1.6367033 33
-2.777138 6.5235271 -0.60708433 0
-2.5150502 6.5587687 -0.62271428 2
-2.297977 6.7118421 -0.64950502 0
-2.2111776 7.3191628 -0.72315216 0
-5.0673938 19.27463 -1.941826 15
-4.3344073 19.311859 -1.989141 11
-2.7600672 6.483428 -0.72818232 0
-2.4908102 6.4955559 -0.74002385 4
-2.2565856 6.5909481 -0.76111525 0
-2.2197955 6.4834929 -0.87022769 1
-2.2004547 6.4270034 -0.98291779 9
-2.2060668 6.4433947 -1.1072218 1
-2.1981227 6.4201918 -1.2037718 4
-2.184793 6.381259 -1.3362617 11
-2.178386 6.3625455 -1.4515672 9
-2.1903191 6.3973994 -1.5795321 1
-2.1689117 6.3348732 -1.6823856 0
-1.9140733 5.5905514 -2.0419507 2
-1.3871905 4.0516524 -2.0034475 0
-3.9400525 11.64707 3.2274876 11
-4.0547347 11.986079 2.427031 16
-4.1035814 12.130473 1.7735307 3
-4.2860794 12.66995 1.1426682 11
-30.622099 90.521065 4.7840266 4
-30.485538 90.117378 3.0794649 6
-29.682737 99.568764 3.0582407 2
-26.996883 104.23917 2.8459871 5
-18.208364 43.210381 0.9633767 4
-4.8575029 12.807667 0.24148871 9
-3.498915 10.343038 0.15989925 0
-18.783289 63.00729 0.77116203 1
-5.0191774 19.379826 0.17505462 41
-29.366037 133.12114 0.79468256 2
-8.171773 19.392485 0.059867717 35
-4.8582578 12.809657 -0.0011955505 10
