# .PCD v0.7 - Point Cloud Data file format
VERSION 0.7
FIELDS x y z intensity
SIZE 4 4 4 4
TYPE F F F F
COUNT 1 1 1 1
WIDTH 1454
HEIGHT 1
VIEWPOINT 0 0 0 1 0 0 0
POINTS 1454
DATA ascii
9.1577454 15.491072 -2.2851665 5
8.8722363 15.008111 -2.5225933 0
3.0398989 5.1422367 -0.97114593 0
2.6316128 4.4515872 -0.91732579 0
2.3122437 3.9113486 -0.90016937 0
2.0295382 3.4331291 -0.86081308 0
1.7978588 3.0412247 -0.82525092 0
1.6642529 2.8152192 -0.82169813 2
1.7199974 2.9095156 -1.1679488 3
1.7165599 2.9037008 -1.5780115 1
8.6481924 14.518997 4.4360185 0
6.0731926 10.195966 2.2763305 4
7.2467093 12.166121 1.9612001 2
7.1343207 11.977437 1.1910172 3
5.0149422 8.4193239 0.4906027 0
39.55135 66.400688 2.5017741 2
52.39246 81.079475 2.8414595 2
4.6133599 6.6008134 0.21284926 0
9.3609295 12.408849 0.36576468 4
33.247036 66.334946 1.5244769 5
36.285812 66.27739 1.3321011 5
39.41431 66.170624 1.1279048 4
52.474499 81.206429 1.134037 2
52.336906 74.88385 0.79888564 3
33.748569 44.73711 0.32667768 0
33.235992 66.31292 0.21102203 5
36.260719 66.23156 -0.0065893158 5
4.12463 6.9246249 -0.024477156 0
45.261093 70.043388 -0.49924543 2
52.307041 74.84111 -0.81436729 2
33.7323 44.715542 -0.66675085 1
33.219936 66.280884 -1.0986733 6
36.235779 66.186005 -1.3421206 5
39.430546 66.197876 -1.596508 4
44.196583 68.396019 -1.9304546 2
12.797771 18.3111 -0.59475023 4
13.82603 18.327787 -0.67977154 0
9.2468882 18.44952 -0.6709013 2
36.247467 66.207352 -2.6806808 2
39.35466 66.070473 -2.95701 3
43.234081 66.906509 -3.2997336 1
12.778293 18.28323 -0.98911721 4
13.888808 18.411005 -1.0916189 0
9.236557 18.428909 -1.0348841 3
11.977858 18.536224 -1.3049824 0
12.764031 18.262825 -1.3819032 6
32.752476 43.416687 -3.5378931 0
9.2108335 18.377583 -1.3963642 4
10.145634 18.53138 -1.4988296 0
11.00321 18.472713 -1.5880221 0
11.900724 18.416859 -1.6852914 0
12.816621 18.33807 -1.7839754 2
9.2251863 18.406221 -1.7628992 2
11.900082 18.415863 -2.0737896 0
12.760212 18.25736 -2.1702991 2
13.760363 18.24074 -2.2963319 1
9.1831541 18.322359 -2.1179376 4
10.028116 18.316729 -2.2213409 2
10.888556 18.280228 -2.3246162 5
8.9584227 15.039827 -2.5329037 0
3.0448117 5.1117749 -0.96729469 0
2.632252 4.4191504 -0.91243529 0
2.3352413 3.9205143 -0.90405613 0
2.0128992 3.3793511 -0.84899801 0
1.8278674 3.0687108 -0.83434963 0
1.671594 2.8063517 -0.82072341 2
1.7277015 2.9005477 -1.1666424 3
1.7224714 2.8917668 -1.5746216 1
8.6868715 14.468819 4.429925 0
6.2907348 10.477823 2.3441458 3
7.2116323 12.011666 1.9403479 3
7.5022721 12.495755 1.2451544 2
7.2713599 12.111148 0.70720392 0
39.793179 66.279366 2.5024211 4
52.380627 80.443764 2.8255715 2
52.415878 74.442078 2.4063382 2
9.3920889 12.360178 0.36529416 3
33.532513 66.325554 1.5269418 6
36.582657 66.269371 1.3344984 5
4.6609755 7.7633018 0.13260509 0
52.484829 80.60379 1.1281729 2
52.323952 74.311523 0.79472351 2
33.747223 44.412022 0.32516205 0
33.514191 66.289314 0.2113179 5
36.540012 66.192123 -0.0065980423 5
39.725304 66.166306 -0.23437333 4
45.568607 69.982178 -0.49993986 2
52.300842 74.278702 -0.81022912 2
33.733307 44.393707 -0.66370368 0
2.0644145 4.0833039 -0.067803979 0
36.52457 66.164154 -1.3442547 5
39.723141 66.162704 -1.5989939 5
44.43288 68.237976 -1.9303598 4
12.930674 18.364401 -0.59794378 2
33.786228 44.463356 -1.6534951 1
9.3022137 18.399292 -0.67025143 4
36.513126 66.143417 -2.6832364 2
39.698208 66.121178 -2.9654632 6
43.386677 66.631264 -3.2936082 4
12.906451 18.33 -0.99407876 2
32.902653 43.300552 -2.5741553 1
9.2828045 18.360901 -1.0328785 4
12.903553 18.325884 -1.3900743 2
9.3019352 18.398743 -1.4004304 4
12.882849 18.29648 -1.7842933 4
9.2678013 18.331228 -1.7588042 5
12.853661 18.255026 -2.1753416 3
13.845622 18.221117 -2.2999318 3
9.2775736 18.350555 -2.1249273 4
10.105448 18.305988 -2.2243025 5
10.978909 18.286427 -2.3302639 5
10.276083 17.115803 -2.5350986 0
8.992528 14.977919 -2.5277483 0
3.1093791 5.1789694 -0.98205769 0
2.6476619 4.409935 -0.91243529 0
2.324676 3.8719711 -0.89472795 0
2.0266957 3.3756564 -0.84984195 0
1.8084933 3.0122192 -0.8207016 0
1.695358 2.8237817 -0.82754654 2
1.749492 2.9139471 -1.174481 4
1.7400149 2.8981619 -1.5814015 1
9.1285477 15.078962 4.626946 0
6.3514738 10.491662 2.3524342 2
7.2412453 11.961428 1.9365067 3
7.2673173 12.004496 1.1988484 5
7.3343205 12.115174 0.70900393 0
40.122791 66.276703 2.5078564 4
52.38332 79.806679 2.8099191 3
52.406052 73.851624 2.3934445 2
9.3960018 12.271695 0.36369449 3
33.835361 66.319763 1.5296532 5
36.866158 66.208221 1.335979 4
40.042152 66.143501 1.1322976 5
52.459469 79.922691 1.1213235 2
52.369114 73.799568 0.79129589 3
9.7631941 12.751269 0.093619622 0
33.816917 66.283615 0.21169342 5
36.867996 66.211517 -0.0066134012 6
40.031761 66.126335 -0.2347499 4
45.916988 69.955139 -0.50094557 2
52.281071 73.675499 -0.80573422 2
33.69154 44.003006 -0.65970433 1
33.818794 66.287292 -1.1027629 5
36.850491 66.180084 -1.3473135 4
40.052353 66.160347 -1.6024741 5
44.691467 68.088036 -1.930739 3
12.970126 18.277752 -0.59666634 5
52.018467 67.93898 -2.5335755 2
9.3768559 18.379318 -0.6707713 6
36.819485 66.124397 -2.6879213 1
40.025154 66.115425 -2.9717646 1
12.099021 18.433018 -0.91333687 0
12.955046 18.256502 -0.99266118 4
32.772091 42.802151 -2.5516498 2
9.3663788 18.358782 -1.0346835 6
12.940598 18.236139 -1.3868554 5
32.664356 42.661449 -3.4953086 2
9.3547993 18.336086 -1.3982618 7
12.954437 18.255642 -1.7849292 4
9.3584738 18.343288 -1.7632405 6
12.035928 18.336895 -2.0745428 0
12.945824 18.243505 -2.1796086 4
13.967963 18.242929 -2.3091316 2
9.3538113 18.334148 -2.1269832 5
10.19376 18.307053 -2.2289569 3
11.066449 18.280079 -2.3346081 6
10.377791 17.142521 -2.5446727 0
9.0924673 15.019363 -2.54035 0
3.0833571 5.0932336 -0.96793658 0
2.6515691 4.3799858 -0.90824336 0
2.3591719 3.8969905 -0.9025014 0
2.0431042 3.3748951 -0.85152984 0
1.8296074 3.0222311 -0.82525092 0
1.7056962 2.817549 -0.82754654 3
1.7640762 2.9139836 -1.1770939 3
1.754378 2.8979638 -1.5847914 1
9.1770964 15.040401 4.6249146 2
6.547657 10.730996 2.4112074 0
7.3097825 11.980048 1.9436404 2
7.4399567 12.193392 1.2202989 2
7.3578377 12.058806 0.70720392 0
40.43927 66.276176 2.5131621 4
52.357204 79.163132 2.793678 1
52.435638 73.349457 2.3830874 1
9.1872425 11.912664 0.35400224 2
34.130699 66.325706 1.532529 4
37.169487 66.20816 1.3385878 5
40.364452 66.153557 1.1348747 3
52.455711 79.312073 1.1153185 1
52.33564 73.209572 0.78692389 3
9.8613863 12.786795 0.09413261 0
34.124954 66.314545 0.21217136 5
37.145889 66.16613 -0.0066217789 4
40.354012 66.136444 -0.23528439 4
46.240334 69.914536 -0.50180763 0
13.191473 18.452858 -0.20230757 0
33.695938 43.691933 -0.65680003 1
9.5364075 18.531969 -0.30885187 0
37.157635 66.18705 -1.3500879 4
40.355953 66.139626 -1.6053742 4
44.953129 67.968307 -1.9317818 3
13.073381 18.287666 -0.59847605 4
9.4592476 18.382025 -0.67207104 5
37.149883 66.173241 -2.6951618 3
40.322319 66.084503 -2.9766827 5
44.193066 66.819107 -3.3184407 3
13.074471 18.289188 -0.99691391 4
14.184073 18.391819 -1.099373 0
9.4304056 18.325975 -1.0346835 6
13.041324 18.242821 -1.390817 6
9.2532825 11.998295 -0.98567653 0
9.4388332 18.342354 -1.4012437 6
12.146725 18.365625 -1.6923416 0
13.050548 18.255726 -1.7893804 4
9.2120199 11.944792 -1.2486461 0
9.4425049 18.349489 -1.7669942 6
13.034896 18.233829 -2.1838756 4
14.060724 18.231878 -2.3139315 4
9.4304962 18.326153 -2.1298614 4
10.292651 18.33379 -2.236573 3
11.150903 18.275284 -2.3389523 6
10.443767 17.116354 -2.5461843 0
9.148963 14.994292 -2.5414956 0
3.1196249 5.1127729 -0.9737134 0
2.6688931 4.3740659 -0.90894204 0
2.3666294 3.8786836 -0.90016937 0
2.0650549 3.3844316 -0.85574949 0
1.8442034 3.0224764 -0.82707065 0
1.7135003 2.8082664 -0.82657182 3
1.7702986 2.9013536 -1.174481 4
1.7588215 2.8825438 -1.5797065 0
9.259943 15.057711 4.6401482 1
7.3691115 11.983005 2.6982918 3
7.3183484 11.900458 1.9348605 1
7.3175435 11.89915 1.1934006 4
10.22507 16.627115 0.9772054 0
52.364925 78.577293 2.7794378 3
33.89922 47.071659 1.53317 0
9.2214088 11.871047 0.35371992 1
34.426495 66.330406 1.5354047 5
37.479168 66.217232 1.3414081 4
40.66008 66.117867 1.1366904 3
52.468292 78.732407 1.1097358 2
33.884052 47.050594 0.50701135 1
9.2360744 11.889926 0.087766938 0
34.38755 66.255379 0.21236482 6
37.469231 66.199677 -0.0066381851 5
40.634918 66.076958 -0.23557593 1
52.581863 78.902832 -0.56763452 1
33.848934 47.001835 -0.51659596 0
9.2478447 11.905079 -0.17944758 0
34.406025 66.29097 -1.1067933 5
37.455425 66.175285 -1.3525065 5
42.434284 69.002922 -1.6784588 3
45.354214 68.05722 -1.9387968 2
13.176862 18.297081 -0.60028577 4
9.2419958 11.89755 -0.44607785 1
9.5344057 18.370184 -0.67285085 5
37.500759 66.255379 -2.7038219 0
41.610123 67.662743 -3.0542965 1
44.510262 66.79081 -3.3247316 2
13.147573 18.256411 -0.99762267 4
9.2332554 11.886297 -0.71242696 1
9.5200825 18.342587 -1.0374913 5
11.353573 18.462189 -1.2170691 0
32.065975 48.117275 -3.4191153 0
13.144586 18.252262 -1.3950264 5
9.2412367 11.896572 -0.97996396 1
9.5193491 18.341173 -1.4036835 8
12.350095 18.532196 -1.7116529 1
13.139824 18.245649 -1.7928778 3
9.2365398 11.890526 -1.2463363 5
9.5101709 18.323492 -1.7676767 7
12.313817 18.477758 -2.1001544 3
13.131036 18.233448 -2.189306 4
9.2241182 11.874536 -1.5111552 5
9.5182362 18.339031 -2.1352067 4
10.358544 18.30121 -2.2369959 5
11.247955 18.290443 -2.3459032 6
10.497216 17.069654 -2.5446727 0
9.2261324 15.00273 -2.5483692 0
3.1436579 5.1119418 -0.97563899 0
2.6758931 4.3513036 -0.90614742 0
2.3719325 3.8570294 -0.89705998 0
2.0768564 3.3772025 -0.85574949 0
1.8649448 3.0326102 -0.83161998 0
1.7232927 2.802268 -0.82657182 3
1.7883375 2.9080381 -1.1797067 4
1.7631793 2.8671279 -1.5746216 0
9.4015169 15.17492 4.6858492 1
7.4026008 11.948484 2.6960313 4
7.3577709 11.876125 1.9348605 2
7.3296747 11.830775 1.1889743 4
10.341166 16.691601 0.98300546 2
52.331078 77.965012 2.7639031 2
33.928364 46.784187 1.527463 0
9.2213078 11.790005 0.35221434 2
34.713005 66.343445 1.5383626 5
8.9386663 15.671153 0.31806001 0
52.57811 84.865944 1.4619946 0
52.403645 78.07312 1.1028866 2
33.833248 46.653027 0.50393349 0
9.2606678 11.840329 0.087627038 1
34.67754 66.275658 0.21279724 5
37.742058 66.168877 -0.0066476101 3
52.423405 84.616241 -0.30228984 0
52.526684 78.256432 -0.56423426 1
33.835545 46.656193 -0.51402748 0
9.2601681 11.83969 -0.17892386 2
34.679436 66.279282 -1.108512 5
37.728161 66.144516 -1.3544271 4
42.715523 68.946815 -1.6805303 3
12.466876 18.573668 -0.53029674 0
13.338407 18.392471 -0.60486323 0
9.2493782 11.825894 -0.44453883 2
37.73016 66.148018 -2.7045317 3
41.857422 67.561768 -3.0559869 2
12.444102 18.53974 -0.92492533 0
13.224463 18.235355 -0.99886304 2
9.2652369 11.846171 -0.71185958 2
9.5993767 18.346313 -1.0394969 4
12.42638 18.513336 -1.3184408 2
13.240197 18.25705 -1.3987405 5
9.263423 11.843852 -0.97814631 2
9.6023197 18.351938 -1.4069365 7
8.9235725 15.644691 -1.2777557 0
12.342579 18.388485 -1.7021505 1
13.242393 18.260078 -1.7986007 3
9.2685528 11.85041 -1.2453464 5
9.6022921 18.351885 -1.7734779 7
12.317323 18.350857 -2.0903616 3
13.2335 18.247814 -2.1962883 3
9.2438297 11.818801 -1.5079553 6
9.5956001 18.339096 -2.1389072 4
10.427058 18.280581 -2.2386885 4
11.329488 18.286844 -2.3502474 7
10.595559 17.102217 -2.5547507 0
9.2758322 14.972054 -2.5483692 0
3.1460369 5.0779953 -0.97114593 0
2.6944559 4.349102 -0.90754473 0
2.3619783 3.8124523 -0.88850915 0
2.0962808 3.3835919 -0.85912526 0
1.8770424 3.0297205 -0.8325299 0
1.7427913 2.8130269 -0.83144546 3
1.7959799 2.8988781 -1.1784003 5
1.7898506 2.8889849 -1.5898763 0
9.4646759 15.15842 4.690927 0
7.5254059 12.052526 2.7254179 2
7.388689 11.833564 1.9321167 2
7.3857031 11.828781 1.1913576 4
10.373979 16.614737 0.98060542 3
52.411602 83.941277 3.2033112 1
52.282612 77.308258 2.7470737 2
33.914555 46.423313 1.5195366 0
9.3217964 11.833136 0.35447273 1
34.996635 66.3209 1.5406632 6
8.9614162 15.584381 0.3169319 1
52.664322 84.346031 1.4561961 1
52.418171 77.508698 1.0974915 2
9.5654716 13.093521 0.14179251 0
9.321743 11.833069 0.087813579 1
34.970276 66.27095 0.21317276 5
8.9767666 15.611076 -0.0015714944 1
52.466354 84.028969 -0.30084431 0
52.364815 77.429802 -0.55958879 1
33.854263 46.340786 -0.51185131 0
9.3063898 11.813579 -0.17901908 2
34.957249 66.246262 -1.1099938 5
8.9853153 15.625942 -0.32060939 0
43.047009 68.943153 -1.6840935 3
12.49579 18.477037 -0.52877998 4
3.2857654 4.4976597 -0.14828835 0
9.3202915 11.831225 -0.44595948 2
34.9277 66.190262 -2.4330244 4
8.9691191 15.597775 -0.63900775 0
4.760972 7.6250691 -0.34565049 0
12.468442 18.436598 -0.92194545 3
34.531918 47.268383 -2.5957682 1
9.3139486 11.823174 -0.71242696 3
8.9839878 15.623634 -0.95934355 0
12.41711 18.360695 -1.3106492 3
9.3145895 11.823988 -0.97918499 2
9.6719093 18.328896 -1.4077498 1
8.9622173 15.585773 -1.2754912 1
12.373178 18.295734 -1.6975526 4
9.3098612 11.817986 -1.2453464 7
8.9714928 15.601904 -1.5954626 3
12.365687 18.284658 -2.0877252 6
13.341735 18.26259 -2.2036583 1
9.2874918 11.78959 -1.5083553 7
9.6688414 18.323084 -2.1409631 3
8.9779577 15.613146 -1.9158536 4
11.407993 18.270794 -2.3532884 5
10.65309 17.061758 -2.5542467 0
9.3531981 14.979878 -2.5552425 0
3.1491058 5.043539 -0.96665287 0
2.6971054 4.3196249 -0.90335286 0
2.3877406 3.8241534 -0.89317322 0
2.089442 3.3464046 -0.85152984 0
1.8917327 3.0297577 -0.83434963 0
1.7443815 2.7937634 -0.82754654 3
1.8140973 2.9054186 -1.1836259 2
1.8114376 2.9011588 -1.600046 0
10.102718 16.055271 4.9793491 2
7.6050901 12.086034 2.738981 1
7.4130692 11.780873 1.9277269 2
7.4269481 11.802929 1.1913576 4
10.491486 16.673101 0.98620546 1
52.482853 83.405914 3.1898525 1
52.338264 76.811386 2.7358932 2
33.948418 46.130737 1.5138296 0
9.3630457 11.800525 0.35447273 2
35.265503 66.268944 1.5423065 5
9.0157614 15.553004 0.3169319 2
52.617603 83.620064 1.4468247 1
52.41814 76.928619 1.0918618 2
9.5802994 13.01817 0.14133781 0
9.3629923 11.800457 0.087813579 1
35.259647 66.257942 0.21352553 5
9.0191689 15.558882 -0.0015694001 2
52.395061 83.266396 -0.29876709 1
52.348728 76.826752 -0.55654764 2
33.804821 45.935616 -0.50867635 0
9.3600006 11.796687 -0.17925714 0
35.257797 66.254463 -1.1121868 5
9.0117254 15.546042 -0.31961352 2
43.398155 68.968483 -1.6884023 3
12.497164 18.340778 -0.52612567 4
33.808414 45.940495 -1.5185452 5
9.351593 11.786091 -0.44548592 0
9.8470192 18.503963 -0.68142879 0
9.0215054 15.562914 -0.63886577 2
11.608075 18.44759 -0.8380757 0
12.453956 18.277367 -0.91615117 4
33.756397 45.869816 -2.5254207 1
32.689674 41.199772 -2.4894283 3
9.0064192 15.536887 -0.95594162 2
12.465386 18.294142 -1.3089963 6
33.00304 44.846119 -3.4533961 2
9.008563 15.540587 -1.274359 2
12.468407 18.298574 -1.701844 6
9.3684025 11.807276 -1.2476562 1
9.8163023 18.446241 -1.7891755 0
9.0159082 15.553257 -1.5936965 7
12.454103 18.277582 -2.0918684 7
13.410123 18.222319 -2.2044342 3
9.3558006 11.791393 -1.5127552 0
9.7364807 18.296246 -2.1417854 3
9.012455 15.547299 -1.9116224 6
11.490761 18.261152 -2.3571982 3
10.731603 17.054697 -2.5587819 0
9.4138641 14.960542 -2.5575337 0
3.1730001 5.0425415 -0.96857846 0
2.712167 4.3101845 -0.90335286 0
2.4240618 3.8523264 -0.9017241 0
2.0990279 3.3357816 -0.85068589 0
1.881552 2.9901683 -0.82525092 0
1.7644535 2.804075 -0.83242017 4
1.8222144 2.8958688 -1.1823195 1
1.8215533 2.8948183 -1.600046 0
10.037146 15.822114 4.9184151 1
7.5819974 11.951927 2.7148688 3
7.3606877 11.603065 1.9030335 3
7.440269 11.728513 1.1865909 4
10.567506 16.658152 0.98760545 0
52.436974 82.65934 3.1686289 2
3.5921648 5.2305427 0.18677089 0
9.6130476 12.962875 0.42654401 1
9.3987417 11.756757 0.35419044 0
35.587601 66.287231 1.5457574 5
9.0969267 15.561288 0.31777799 1
52.613075 82.936935 1.4383318 1
52.400856 76.300758 1.0856693 2
9.5636206 12.896225 0.14039347 0
33.660934 42.105999 0.31424949 1
35.562801 66.241035 0.21388967 6
9.0862284 15.542988 -0.0015711454 2
52.417057 82.627945 -0.29716361 1
52.312943 76.172752 -0.55319524 2
33.801411 45.580082 -0.50610781 0
33.64164 42.081863 -0.64132631 1
35.557148 66.230507 -1.1139648 5
9.0847921 15.540531 -0.32018259 2
43.695633 68.879875 -1.6901424 3
12.571093 18.304737 -0.52641004 5
34.055164 45.92226 -1.5220581 4
51.677246 64.642357 -2.4504685 5
35.521477 66.164062 -2.4413424 5
9.0805035 15.533195 -0.63900775 1
42.704945 67.318192 -3.0653622 3
12.56385 18.294193 -0.91929662 5
32.740665 40.954845 -2.4818633 2
34.76424 64.753593 -3.6896827 1
9.0794306 15.531359 -0.95764256 2
12.561741 18.291121 -1.3120657 6
33.148163 44.6992 -3.4514153 1
32.703201 40.907982 -3.4070237 2
9.0815706 15.535021 -1.2766235 2
12.560227 18.288916 -1.7052158 6
9.0768747 15.526987 -1.5944029 5
12.550318 18.274487 -2.0967646 6
13.519506 18.230606 -2.2114162 2
14.555705 18.207531 -2.3427305 4
9.8260584 18.302504 -2.1467195 4
9.0633554 15.503862 -1.9103532 4
11.581044 18.255848 -2.3619769 5
10.787663 17.005196 -2.5572701 0
9.4665127 14.922594 -2.5569611 0
3.1999204 5.0442138 -0.97114593 0
2.7342758 4.3101921 -0.90544879 0
2.4150443 3.8069694 -0.89317322 0
1.1771001 1.8555287 -0.47429115 0
1.8778931 2.9602282 -0.81888187 0
1.7809534 2.8074167 -0.83534437 5
1.8368665 2.8955555 -1.1849325 1
2.4046984 3.7906609 -2.1000605 0
10.031879 15.692448 4.8889632 1
7.5813522 11.859191 2.6997988 4
7.4801078 11.700818 1.923337 2
7.3716826 11.531214 1.1692262 2
10.586856 16.560574 0.98400545 2
52.412949 81.987373 3.1498644 1
52.301899 75.589897 2.7056475 3
9.5433722 12.775474 0.42147115 1
10.239742 12.71748 0.38420817 2
35.879696 66.275146 1.5483867 4
39.012863 66.204269 1.3547341 6
52.566193 82.227081 1.4291948 1
52.396049 75.725975 1.0800866 2
9.6277275 12.888398 0.14067326 0
33.699841 41.854279 0.31324685 1
35.875698 66.267754 0.214379 5
38.972221 66.1353 -0.0066989227 3
52.325886 75.624565 -0.55053729 2
33.809502 45.259937 -0.50386035 0
33.693005 41.845791 -0.63951707 1
35.845245 66.21151 -1.1157429 6
9.1186781 15.474267 -0.31947124 0
43.970264 68.78083 -1.6914682 3
12.650839 18.283764 -0.52707362 5
33.617947 41.752567 -1.587199 2
35.820736 66.166229 -2.4460213 1
9.1265507 15.487626 -0.63843989 0
43.02578 67.303421 -3.0715098 1
12.657195 18.292952 -0.92144877 5
33.349575 44.644241 -2.4710209 0
14.804181 18.386387 -1.1173397 0
10.000421 18.472265 -1.0545388 0
9.196454 15.606252 -0.96423382 0
11.820327 18.49004 -1.232319 0
12.659593 18.296415 -1.3156074 7
33.232311 44.487263 -3.4439869 1
32.655544 40.557293 -3.3872893 1
9.9899931 18.453005 -1.4253703 0
9.1519489 15.530725 -1.278888 0
11.778858 18.425173 -1.6151274 0
12.646684 18.27776 -1.708281 5
32.525524 40.395809 -4.293046 0
9.1532707 15.532969 -1.5982882 1
11.69524 18.294373 -1.987901 0
12.654817 18.289513 -2.1035442 5
13.606886 18.215199 -2.2152953 4
14.651621 18.196913 -2.3479304 2
9.8993578 18.285587 -2.1487753 3
9.1315556 15.496119 -1.9133149 2
11.683249 18.275616 -2.3697968 4
10.838406 16.954062 -2.5552545 0
9.5483961 14.936155 -2.5649803 0
3.1919894 4.9930949 -0.96344352 0
2.7450616 4.2939844 -0.90405148 0
2.4346585 3.8084338 -0.89550531 0
1.9070967 2.9831913 -0.82707065 0
1.7907422 2.8011827 -0.83534437 5
1.8571441 2.9050527 -1.1914645 1
2.4218185 3.7883489 -2.1034503 0
10.555935 16.385885 5.1164513 1
7.6205754 11.829352 2.6990452 3
7.5981536 11.794546 1.9430916 2
7.3859892 11.465206 1.1651403 4
10.571038 16.40933 0.9772054 3
52.445507 81.410698 3.1347232 2
52.297924 75.023109 2.6918781 3
9.3282557 12.397011 0.41005719 3
10.495647 12.94256 0.39211252 3
36.174049 66.265327 1.5510981 5
39.307037 66.174286 1.3569198 5
52.551823 81.575729 1.4210534 2
52.344421 75.089821 1.0736126 2
9.7111368 12.90585 0.14123288 0
10.463102 12.902428 0.096837431 0
36.158539 66.236916 0.21468624 6
39.296799 66.157051 -0.0067149797 5
52.585381 81.627823 -0.29487988 3
52.287609 75.008316 -0.54737645 2
33.786915 44.901936 -0.50118476 0
33.644886 41.48872 -0.63585103 1
36.147053 66.215874 -1.1179359 5
39.290585 66.146591 -1.3684409 5
44.301052 68.768135 -1.6949484 3
12.764894 18.311665 -0.52915919 5
33.720993 44.814331 -1.493103 0
52.013947 64.140266 -2.4451413 2
36.135761 66.19519 -2.45174 3
39.263878 66.101624 -2.7305124 3
43.243137 67.125938 -3.0702803 3
12.752969 18.294558 -0.92376649 4
32.620605 40.225639 -2.4514146 2
36.103638 66.136337 -3.782742 3
12.737082 18.271769 -1.3170241 7
33.065746 43.94352 -3.4108074 3
32.643555 40.253941 -3.3714499 0
12.78567 18.341469 -1.7183964 3
14.85929 18.323524 -1.9528246 0
3.7982311 6.9577785 -0.67874688 0
12.777791 18.330166 -2.1133368 2
13.706291 18.215307 -2.2211139 3
14.775214 18.219849 -2.3575301 3
10.008881 18.334738 -2.1586432 1
10.865484 18.292288 -2.2632289 4
11.781428 18.288206 -2.3767474 3
10.886776 16.899446 -2.5527351 0
9.604764 14.909389 -2.5661259 0
3.1965702 4.9620075 -0.95959228 0
2.7664328 4.2943091 -0.90614742 0
2.4181886 3.7537327 -0.8846224 0
1.900623 2.9503202 -0.81979173 0
1.8068123 2.8046987 -0.83826858 6
1.8590838 2.8858392 -1.1862389 25
2.4428763 3.7920551 -2.1102302 0
10.704987 16.496838 5.1621523 0
7.6554837 11.797425 2.6975384 3
7.7062411 11.875645 1.9606513 4
7.3762398 11.367099 1.1576496 3
10.584077 16.310513 0.97340536 1
52.38657 80.729927 3.1151822 1
52.256962 74.436951 2.6770494 3
9.378974 12.378758 0.4104799 3
10.538508 12.907683 0.39211252 2
36.463001 66.271149 1.554056 4
39.608418 66.18084 1.3597401 4
1.2431535 1.9157522 0.033444129 0
52.324257 74.532814 1.0681237 2
9.7321415 12.844884 0.14091811 0
10.59943 12.982302 0.097700179 0
36.433914 66.218277 0.21501625 4
39.583763 66.139641 -0.0067264987 5
52.646744 81.130867 -0.29371372 2
52.262566 74.444939 -0.54452688 2
33.781033 44.585606 -0.49890164 0
33.633038 41.194118 -0.63304192 0
36.422348 66.197258 -1.1196547 4
39.585716 66.142906 -1.3710729 4
44.515789 68.600723 -1.6944512 3
12.887585 18.357603 -0.53171873 2
33.767998 44.568401 -1.488632 1
10.164158 18.473257 -0.68545783 0
39.601933 66.169998 -2.7387466 1
11.984179 18.468128 -0.84652871 0
12.884752 18.353569 -0.92889851 3
32.645157 39.984158 -2.4432821 5
36.417122 66.187759 -3.7925694 1
12.866432 18.327473 -1.3241074 4
33.10038 43.687252 -3.3994174 1
32.716274 40.071262 -3.3652179 1
10.136528 18.42304 -1.4283524 0
12.869339 18.331612 -1.7214618 3
12.849946 18.303989 -2.1152201 4
13.809896 18.226873 -2.228096 3
14.885894 18.232409 -2.3655298 2
10.075379 18.311903 -2.1598768 4
10.946512 18.290287 -2.2674601 4
11.844173 18.252375 -2.377182 5
10.966517 16.899868 -2.5582778 0
9.6692362 14.900704 -2.5701354 0
3.2323496 4.9811883 -0.96536911 0
2.7978091 4.3115425 -0.91173661 0
2.4477098 3.7720249 -0.89084119 0
2.1326277 3.2864699 -0.8456223 0
1.9337195 2.9799438 -0.82980025 0
1.8203264 2.8052003 -0.84021807 5
1.8707012 2.8828299 -1.1875453 31
2.4475486 3.7717764 -2.1034503 0
7.6350951 11.672094 3.6611369 1
7.627707 11.6608 2.6726727 4
7.7475471 11.844005 1.9601026 3
7.3720374 11.269946 1.1504995 3
52.395412 80.099098 3.0982294 2
8.8191814 12.465 0.44945052 0
9.4461193 12.372903 0.41143107 1
10.537479 12.810294 0.39032462 0
36.781338 66.27343 1.5572604 4
39.918907 66.148224 1.3620669 4
6.3646841 9.7299633 0.17026635 0
52.356831 74.000961 1.0632447 2
9.7573109 12.780514 0.14060332 0
10.672352 12.974257 0.097933352 0
36.755955 66.227692 0.21548282 5
39.898243 66.113983 -0.0067387163 4
52.696323 80.559113 -0.29234105 1
52.255531 73.857788 -0.54162943 2
33.757328 44.216694 -0.49615476 0
33.633884 40.888329 -0.63023287 0
36.769535 66.252167 -1.1228552 5
39.883667 66.089836 -1.3729936 4
44.762547 68.430405 -1.6942855 3
12.945543 18.297186 -0.53133953 5
33.931122 44.444336 -1.488632 0
15.155977 18.42495 -0.70640832 0
36.728935 66.179001 -2.460578 3
39.885494 66.092857 -2.741586 3
43.90107 67.113434 -3.0836513 1
12.938085 18.286644 -0.9279052 4
32.99321 43.21582 -2.4109511 1
32.778797 39.848812 -2.4423366 2
36.692425 66.11322 -3.7959788 2
39.497181 65.449402 -4.0691304 1
12.921988 18.263893 -1.3229269 5
32.889618 43.080128 -3.3615334 2
32.591606 39.621243 -3.3374343 1
12.920316 18.26153 -1.719316 5
11.075577 18.352951 -1.9002852 0
4.7579584 7.2736936 -0.79574388 0
12.912347 18.250267 -2.1144667 4
13.898352 18.204613 -2.2315872 4
14.970317 18.199244 -2.3683298 1
10.171391 18.327038 -2.1660445 3
11.027861 18.273882 -2.270422 3
11.934937 18.245443 -2.3819606 6
11.015351 16.839636 -2.5552545 0
9.7172842 14.855226 -2.5684168 0
3.2592301 4.9825234 -0.96793658 0
2.794189 4.2715955 -0.90544879 0
2.4658148 3.7695959 -0.89239591 0
2.1489398 3.2851756 -0.84731013 0
1.8934542 2.894604 -0.80796343 0
1.830596 2.7985098 -0.84021807 6
1.8833244 2.879118 -1.1888517 15
2.4573901 3.7567165 -2.1000605 0
7.6672754 11.632449 3.6570747 2
7.6943083 11.673463 2.6817148 3
7.8608012 11.926059 1.978211 2
7.5473199 11.450459 1.1716095 2
52.395271 79.491776 3.0817943 2
52.238281 73.289467 2.6491573 3
9.3990631 12.222574 0.40752074 1
10.411205 12.567112 0.38401997 0
37.076897 66.259804 1.5599719 5
40.222305 66.128067 1.3645346 4
52.555763 79.735268 1.3985035 2
52.329277 73.417137 1.0574744 2
9.7872343 12.727353 0.14039347 2
33.668499 40.640423 0.30765063 0
37.063084 66.235115 0.21592662 5
40.2244 66.131516 -0.0067547732 5
52.633804 79.853668 -0.29044607 1
52.24836 73.303612 -0.5388996 2
33.701778 43.825909 -0.49308679 0
33.592686 40.548912 -0.62680483 1
37.053307 66.217651 -1.1244555 5
40.21804 66.121056 -1.3765504 4
45.062767 68.367226 -1.6966057 3
13.044149 18.300732 -0.53276151 5
33.717995 43.846996 -1.4725577 0
15.123273 18.254932 -0.70190966 0
37.012428 66.1446 -2.464087 3
40.192822 66.079597 -2.7468388 2
44.280254 67.180038 -3.0937948 4
13.043593 18.299952 -0.93088508 5
32.917316 42.805794 -2.3944716 2
32.695934 39.466465 -2.4258828 0
37.01857 66.155571 -3.8058062 2
25.529455 41.972073 -2.6150191 0
13.027381 18.277205 -1.3271768 5
32.832928 42.696056 -3.3404865 2
32.587105 39.335102 -3.3228931 0
2.3886278 3.9270582 -0.32609096 0
13.02565 18.274778 -1.7248336 5
13.015267 18.26021 -2.1208696 5
13.993362 18.197018 -2.2366297 3
15.087073 18.211239 -2.3767295 3
10.225587 18.274059 -2.1639886 2
11.124654 18.28965 -2.2771916 4
12.033566 18.256792 -2.3889115 4
11.084985 16.817648 -2.5577741 0
9.7821522 14.841046 -2.5718536 0
3.2483561 4.9282618 -0.95959228 0
2.8090827 4.2618155 -0.90544879 0
2.4573643 3.7282043 -0.8846224 0
2.1969748 3.3331525 -0.86165702 0
1.9507067 2.9595256 -0.82798052 0
1.8424884 2.7953417 -0.84119278 6
1.9079274 2.8946226 -1.1979967 9
2.484446 3.7692909 -2.1119251 0
7.7592039 11.682965 3.6814482 2
7.7437024 11.659624 2.6847286 3
7.9374552 11.951356 1.9869909 3
7.5409384 11.354324 1.1644593 2
52.37825 78.865471 3.0645826 1
52.223274 72.729935 2.6355054 2
9.213954 11.895697 0.39769205 2
10.52418 12.613597 0.38656065 0
37.364944 66.230988 1.5623547 4
40.546947 66.140701 1.3677075 4
52.510704 79.064903 1.3899521 2
33.870945 47.171146 0.6811353 0
9.8781385 12.753193 0.141058 1
33.664089 40.347584 0.30632153 0
37.358921 66.220306 0.21630214 5
40.517712 66.09301 -0.006765245 3
52.642235 79.262947 -0.28896406 1
33.840004 47.128056 -0.34733343 0
9.1384268 11.798187 -0.1330999 0
33.682777 40.36998 -0.62585258 1
37.347111 66.199371 -1.1263521 5
40.507126 66.075737 -1.3785422 2
45.498051 68.506012 -1.7039804 2
13.135939 18.294065 -0.53389907 4
3.8075011 4.9156833 -0.16553366 0
33.642231 40.321384 -1.5548797 1
10.393649 18.423193 -0.68766731 0
40.506805 66.075218 -2.7525177 2
44.439297 66.911858 -3.0885694 0
13.12837 18.283525 -0.93237507 4
14.234295 18.37722 -1.0307586 0
32.610806 39.085186 -2.4094291 3
39.986538 65.226555 -4.0725327 0
13.126033 18.280272 -1.3307185 6
4.090023 5.2804337 -0.41424906 0
32.578453 39.046413 -3.3080924 1
11.377659 18.559381 -1.5444031 0
12.25753 18.456055 -1.6363404 0
13.133558 18.290751 -1.7306576 5
9.2368422 11.925246 -1.2027764 0
11.282566 18.404264 -1.9137073 0
12.29923 18.518841 -2.03531 1
13.123057 18.276127 -2.128026 5
9.2346764 11.92245 -1.4693642 0
15.181149 18.195135 -2.3815293 2
10.328414 18.30756 -2.1722119 5
11.198822 18.26766 -2.2793074 3
12.125817 18.257736 -2.3945589 6
11.132645 16.762325 -2.5552545 0
9.7791424 14.724368 -2.5575337 0
3.2786448 4.9366264 -0.96344352 0
2.8435526 4.2815123 -0.91173661 0
2.4812169 3.7359464 -0.88850915 0
2.208596 3.3254635 -0.86165702 0
1.9394757 2.9202514 -0.81888187 0
1.8565272 2.7953565 -0.84314221 6
1.9305694 2.9068413 -1.2058353 4
2.4975879 3.760596 -2.1119251 0
7.9032211 11.810148 3.7301958 2
8.0487127 12.027563 2.7759025 2
7.7014766 11.508672 1.9178495 1
7.6403737 11.417363 1.1736524 1
52.377525 78.270157 3.0485356 1
52.219067 72.190849 2.6225598 1
9.2455826 11.850852 0.39726931 1
33.587563 39.971397 1.2285627 1
8.9111099 15.667284 0.3703146 0
52.612709 85.153984 1.7646655 1
52.503887 78.458977 1.3825135 1
33.84552 46.790127 0.67733532 0
9.2533789 11.860845 0.13154455 1
10.60949 12.625987 0.096137911 1
8.8714247 15.597511 0.051048577 0
52.536789 85.031105 -0.0087224571 1
52.600483 78.603333 -0.28722697 1
33.821453 46.756855 -0.34546566 0
9.2582846 11.867133 -0.13424146 1
33.622784 40.013309 -0.62213892 1
37.643215 66.183327 -1.1283079 4
42.738777 69.172966 -1.4462636 3
12.452876 18.608908 -0.46394604 0
13.230186 18.290222 -0.53513139 0
9.2627525 11.872859 -0.40090019 1
33.888229 40.329208 -1.5597335 1
37.617584 66.138268 -2.4735749 3
41.922264 67.851433 -2.8325889 2
12.393001 18.519432 -0.85682595 0
13.215538 18.269972 -0.93403053 2
9.2495642 11.855955 -0.66679472 1
32.633938 38.836517 -2.4011078 6
37.603943 66.114288 -3.8184414 3
40.302166 65.229294 -4.0814624 0
12.398199 18.527201 -1.2518297 1
13.217849 18.273167 -1.3335518 5
5.5131049 7.0666165 -0.55588114 0
32.704281 38.920231 -3.3070538 2
12.375127 18.492722 -1.6434114 2
13.197327 18.244795 -1.7306576 3
9.2465277 11.852062 -1.1986432 2
32.589893 38.7841 -4.1933923 0
12.323923 18.416206 -2.0287459 2
13.205446 18.256021 -2.1310391 4
9.2321577 11.833643 -1.462382 5
15.277853 18.181643 -2.3867292 4
10.40996 18.302525 -2.1759124 3
11.302244 18.292749 -2.2873464 3
12.20938 18.245039 -2.3984687 6
11.186676 16.716764 -2.5542467 0
9.8855228 14.772392 -2.5718536 0
3.2892699 4.9153075 -0.96151787 0
2.8606715 4.2748332 -0.91243529 0
2.4876964 3.7174795 -0.88617712 0
2.1136389 3.1585081 -0.82030427 0
1.9648215 2.9361234 -0.82525092 0
1.8576435 2.7759624 -0.83924329 7
1.9491152 2.9126527 -1.211061 1
2.49055 3.7217436 -2.0949755 0
7.9704509 11.825582 3.7433982 3
7.7043247 11.430737 2.6440396 2
7.6421599 11.338504 1.8937049 2
7.5400872 11.18706 1.1525424 7
52.303852 77.602074 3.0292532 1
9.2329607 11.754092 0.39504993 2
33.595959 39.713253 1.224046 0
8.9490957 15.613359 0.36973947 1
52.577782 84.469749 1.7540894 1
52.4687 77.846649 1.3747822 2
9.5304041 13.083832 0.18985842 0
9.2852478 11.820657 0.13143963 1
10.661634 12.602949 0.096231177 1
8.9429913 15.60271 0.051162373 1
52.537338 84.40477 -0.0086760316 1
52.572453 78.000587 -0.28565997 1
33.820881 46.431053 -0.34388524 0
9.2827635 11.817493 -0.13402742 2
33.600292 39.718372 -0.61928219 1
8.9579573 15.62882 -0.26694852 0
43.02076 69.115746 -1.4480419 2
12.460873 18.487921 -0.46195734 2
33.762547 46.350967 -1.3593949 0
9.2823143 11.816922 -0.40004855 2
55.132069 65.170746 -2.5275378 0
8.9502335 15.615346 -0.58512157 0
11.519034 18.506104 -0.77416337 0
3.9987936 5.9329219 -0.27510646 0
9.2838926 11.818932 -0.66644031 2
32.739323 38.700634 -2.3994057 1
8.9417124 15.600479 -0.90271574 0
11.491005 18.461073 -1.1575059 0
12.401533 18.399879 -1.245999 3
9.2776594 11.810997 -0.9315033 2
32.742935 38.704906 -3.2979655 2
8.9601727 15.632687 -1.2239535 0
12.371725 18.355654 -1.6348673 2
9.2783909 11.811927 -1.1976894 3
8.9738417 15.656535 -1.5451815 1
12.329266 18.29266 -2.0196288 3
9.2639713 11.793571 -1.4612182 6
15.379189 18.179497 -2.3931291 3
8.9629259 15.63749 -1.8626008 1
11.379659 18.282187 -2.2907312 4
12.314261 18.270397 -2.4071574 6
11.206563 16.62693 -2.5461843 0
9.9455175 14.755944 -2.5747178 0
3.3077579 4.9076471 -0.96215975 0
2.8660262 4.2522597 -0.90964067 0
2.4715014 3.6669121 -0.87607157 0
2.2705154 3.3687136 -0.87684786 0
1.963662 2.9134419 -0.8207016 0
1.8776796 2.7858717 -0.84411699 10
1.9672149 2.9187133 -1.2162868 1
2.5130026 3.7284863 -2.1034503 0
8.0160294 11.80409 3.7454293 3
7.7574205 11.423272 2.6485605 1
7.6282701 11.23309 1.8805351 2
7.4872918 11.025492 1.1385825 3
8.5510416 12.591928 0.7620042 0
8.6021881 12.667245 0.49564424 0
9.532321 12.990933 0.47428271 0
9.3657293 11.837818 0.39896026 1
33.622868 39.464848 1.2199997 0
9.0015392 15.578564 0.36965731 2
52.606659 83.862198 1.745276 2
52.481724 77.282524 1.3680465 2
9.5523558 13.018238 0.18938929 1
9.3388615 11.803858 0.13161449 1
10.765225 12.635686 0.096767485 1
8.9933968 15.564471 0.051139615 2
52.51281 83.712585 -0.0086236717 2
52.368008 77.115067 -0.28308469 2
33.776878 46.032146 -0.34180197 0
9.326438 11.788156 -0.13406309 1
33.629787 39.472973 -0.61728251 1
8.9924459 15.562824 -0.26635584 2
2.96261 4.7228045 -0.099163413 0
12.480399 18.378145 -0.46030009 2
33.784561 46.042614 -1.353802 0
9.3334293 11.796992 -0.40047437 1
4.5402341 5.3291011 -0.20729361 0
8.9926853 15.563239 -0.58434176 3
42.427746 67.63562 -2.8355703 2
12.449158 18.33214 -0.85206157 3
33.758003 46.00642 -2.3637164 2
9.3250914 11.786452 -0.66644031 2
32.692833 38.373219 -2.386167 1
8.9901161 15.558793 -0.90211409 2
41.133663 65.57267 -4.1203718 0
12.434275 18.310225 -1.2428592 5
32.917789 44.861355 -3.290199 3
9.3287392 11.791063 -0.93249369 2
32.766533 38.459724 -3.2868001 0
9.0047016 15.584036 -1.2225981 1
12.406589 18.269455 -1.6310371 4
9.359149 11.8295 -1.2027764 3
15.588951 18.297535 -1.9897823 0
8.9985294 15.573355 -1.5400628 5
12.399758 18.259396 -2.0207226 5
13.440128 18.31661 -2.1487412 0
9.3248434 11.786139 -1.4643215 6
15.481271 18.171144 -2.3991289 4
8.9975491 15.571657 -1.8584892 5
11.462429 18.272676 -2.2945392 3
12.398068 18.256908 -2.4110672 6
11.326954 16.679628 -2.5602934 0
10.014757 14.747337 -2.5793002 0
3.3182144 4.8862724 -0.96023417 0
2.8675761 4.2226801 -0.90544879 0
2.5129426 3.7004604 -0.88617712 0
1.9716316 2.9033473 -0.81979173 0
1.89829 2.7953472 -0.84899062 13
1.9752673 2.9087009 -1.2149804 1
2.5260022 3.7196915 -2.1034503 0
8.113986 11.859056 3.7718341 3
7.4445419 10.880624 2.5287538 4
7.6025515 11.111565 1.8646216 2
7.5842462 11.08481 1.1474351 2
8.5971994 12.565299 0.76220423 2
8.6328077 12.617343 0.49486777 0
9.594245 12.980087 0.47510651 2
9.394536 11.789417 0.39843184 2
13.392197 15.608397 0.4839536 1
9.0598907 15.553958 0.36982164 1
52.574234 83.164223 1.7345588 1
52.421432 76.616928 1.3594952 2
9.5953617 12.981599 0.18934238 1
10.1677 12.759679 0.14266691 1
10.804057 12.591962 0.096720845 0
9.0557261 15.546808 0.051185135 1
52.516144 83.072334 -0.0085765477 2
52.372604 76.545563 -0.28166345 1
33.766171 45.682369 -0.34007788 0
33.655376 39.224819 -0.61523521 1
9.0487289 15.534797 -0.26641512 2
43.827057 69.32756 -1.4588546 3
12.539958 18.327866 -0.46013436 4
33.75016 45.660709 -1.3460286 0
9.3546181 11.739324 -0.39962274 0
9.055006 15.545572 -0.58486164 3
11.69067 18.492813 -0.77700275 0
12.524359 18.305067 -0.85282999 4
33.989655 45.984722 -2.3686829 1
32.875011 41.2556 -2.339186 1
32.683479 38.092091 -2.3757653 2
9.0443726 15.527317 -0.90211409 2
12.518411 18.296373 -1.2448776 4
33.026714 44.681957 -3.2854769 2
32.767078 41.120155 -3.2610042 3
32.757626 38.178505 -3.2725186 1
9.0429773 15.52492 -1.2204293 3
12.510833 18.285297 -1.6363404 3
15.779921 18.391253 -2.0059514 0
9.0307713 15.503966 -1.536309 7
12.49491 18.262028 -2.0258284 4
13.499249 18.26318 -2.1479878 0
14.494239 18.189152 -2.2661102 2
15.609396 18.192509 -2.4091287 4
9.0378323 15.516088 -1.855611 7
11.5729 18.30652 -2.3038478 5
12.495401 18.262745 -2.4175835 6
11.400793 16.662912 -2.5638206 0
10.084059 14.738429 -2.5838823 0
3.3575451 4.9072447 -0.96665287 0
2.8800745 4.209394 -0.90475011 0
2.5435698 3.7175727 -0.89239591 0
2.2696917 3.3172843 -0.86756456 0
1.9839537 2.899662 -0.8207016 0
1.9124173 2.7951074 -0.85094011 9
1.9918132 2.911149 -1.2188996 0
2.5348794 3.7048714 -2.1000605 0
8.1136122 11.770138 3.7525384 3
7.5248384 10.916024 2.5430703 2
7.9156404 11.482947 1.931568 2
7.6432509 11.087801 1.1504995 3
8.6092644 12.489163 0.75940418 3
8.6745291 12.58384 0.49473837 0
9.3362474 12.539232 0.46016014 1
9.4581556 11.784618 0.39938301 1
13.443984 15.558528 0.48385951 2
38.89653 66.244545 1.5782945 4
52.57412 82.524834 1.7250402 1
52.447933 76.084412 1.3532865 2
9.6071777 12.903111 0.1886856 2
33.791065 42.102798 0.4720704 1
33.650074 38.942745 0.30002582 0
9.1382923 15.563395 0.051344447 0
52.449039 82.328491 -0.0085186027 1
52.357971 75.953911 -0.28015715 2
33.69838 41.987312 -0.48017278 0
33.674412 38.970913 -0.61309272 1
9.1332769 15.554852 -0.26730415 0
43.991436 69.052719 -1.4562937 2
12.606127 18.287275 -0.46021724 3
33.73262 45.305267 -1.3390136 0
51.780579 64.517265 -2.2023962 3
33.641132 38.9324 -1.5235075 0
9.1274319 15.544897 -0.58603138 0
43.010582 67.513084 -2.8429527 2
12.622207 18.310602 -0.85513538 4
35.085583 47.122391 -2.4335783 1
32.738678 40.79155 -2.3193398 3
6.2252126 7.2043486 -0.45068052 0
9.1268358 15.543882 -0.90492189 0
41.710621 65.472557 -4.1322789 1
12.613934 18.298599 -1.2480173 5
33.010788 44.335796 -3.268477 2
32.892918 40.98373 -3.2592711 3
15.963849 18.474731 -1.5883517 3
9.1031752 15.503585 -1.2212425 2
11.737361 18.423965 -1.5497813 0
12.597223 18.274359 -1.6392866 3
13.595296 18.259432 -1.7496624 0
32.517418 40.515865 -4.1424727 0
15.930031 18.435595 -2.0168407 2
9.1151037 15.523901 -1.5414277 3
12.58571 18.257656 -2.0302045 5
13.636642 18.314964 -2.1596637 0
14.604987 18.197439 -2.2734804 4
15.706632 18.177059 -2.4143283 4
9.106039 15.508464 -1.8584892 2
11.632459 18.259302 -2.3030016 3
12.581642 18.251757 -2.4219279 6
11.474652 16.645884 -2.567348 0
10.115222 14.673804 -2.5787272 0
3.3612094 4.8759909 -0.96280164 0
2.9260452 4.2447133 -0.91453123 0
2.5008574 3.6279075 -0.87296218 0
2.2701616 3.2932453 -0.86334491 0
2.020592 2.9312031 -0.83161998 0
1.9287677 2.797997 -0.85386425 8
1.9976712 2.897953 -1.2162868 1
2.5621903 3.7168813 -2.1119251 0
8.1502342 11.735389 3.7505071 2
7.5360065 10.850973 2.5340283 2
7.7048001 11.094016 1.8706578 2
7.7432904 11.149437 1.1596925 2
8.6436911 12.44591 0.75860417 4
8.6841936 12.504229 0.4927972 0
9.3055925 12.40741 0.45651183 3
10.240773 12.668891 0.43056002 2
33.525024 38.525364 1.2017444 1
39.198822 66.228813 1.5811703 4
52.559372 81.869637 1.7151692 2
52.400642 75.450829 1.3452623 2
9.6785574 12.904695 0.18920164 2
10.432543 12.90613 0.14511521 0
33.646645 38.665123 0.29879001 0
39.166191 66.173683 0.21876012 4
52.450848 81.700592 -0.0084725264 1
52.385483 75.429001 -0.27889383 1
33.791473 45.05513 -0.33715647 0
33.724041 41.720112 -0.4784604 0
33.621197 38.635883 -0.60966468 1
39.178349 66.194221 -1.1398655 5
44.286217 68.98288 -1.4580721 3
12.715508 18.308853 -0.46187449 3
33.693817 44.924919 -1.3312402 1
33.705898 41.697666 -1.4274218 3
16.031462 18.422594 -0.72310072 2
39.129375 66.111481 -2.4974892 4
43.198471 67.288536 -2.8398294 2
12.706567 18.295979 -0.85651857 4
32.591976 40.31963 -2.2989621 1
16.012682 18.401012 -1.1545969 2
39.123192 66.101028 -3.8561466 3
42.096432 65.571938 -4.1478 1
12.711902 18.303661 -1.2513812 4
32.956913 43.942387 -3.2479353 3
32.732101 40.492977 -3.2293105 1
15.967975 18.349638 -1.5823795 4
9.1978912 15.540402 -1.2266643 0
12.715548 18.30891 -1.6463575 3
32.575928 40.299774 -4.1319809 0
15.934099 18.310711 -2.0092511 3
9.142848 15.447402 -1.5369915 0
12.678903 18.256145 -2.0349455 4
13.688543 18.251324 -2.1577806 0
14.725982 18.217556 -2.282402 3
15.814403 18.173161 -2.4211283 4
9.2006502 15.545064 -1.8667125 1
11.7391 18.285528 -2.3114638 2
12.667957 18.240385 -2.4262722 6
11.537214 16.612247 -2.5683558 0
10.17993 14.657915 -2.582164 0
3.3962262 4.8901706 -0.96793658 0
2.9296107 4.2182989 -0.91103798 0
2.5246966 3.6352696 -0.87684894 0
2.2348061 3.2178607 -0.8456223 0
2.0063705 2.8889403 -0.82161146 0
1.9473745 2.8039927 -0.85776317 6
2.0034616 2.8847518 -1.2136739 0
2.5730822 3.7049394 -2.1102302 0
8.1778402 11.687848 3.7444139 3
7.5963588 10.856789 2.5415633 2
7.4981585 10.71644 1.8113937 3
7.7113318 11.021109 1.1491375 4
8.7214384 12.464763 0.76160419 4
8.7713356 12.536077 0.49525601 0
9.3536654 12.381232 0.45674717 2
10.421257 12.800515 0.43626702 2
33.553871 38.287807 1.1979804 0
39.503529 66.215225 1.5841281 4
52.514637 81.17527 1.704452 1
52.420647 74.92009 1.3390538 2
9.6922007 12.829344 0.18859176 3
10.507834 12.906858 0.14553493 1
13.590067 15.507418 0.12020154 1
39.49736 66.204887 0.21931772 5
52.561905 81.248337 -0.0084446007 2
52.341183 74.806519 -0.27726606 1
33.789406 44.726261 -0.33557606 0
33.657341 41.341587 -0.47546381 0
33.610867 38.352848 -0.60704607 0
39.472691 66.163536 -1.1417029 5
44.554981 68.871521 -1.4589969 3
12.857292 18.375765 -0.46469179 1
33.725079 44.641113 -1.3263106 0
52.239822 64.166603 -2.202822 4
16.048235 18.312395 -0.7209698 3
10.915329 18.296112 -0.69260615 0
43.576397 67.358856 -2.8491993 0
12.85743 18.375961 -0.86235881 2
32.704769 40.171532 -2.297013 1
16.021515 18.281904 -1.1506253 4
11.911248 18.411987 -1.1672864 0
12.826087 18.331167 -1.256315 2
32.903099 43.553078 -3.2276299 1
32.827877 40.322746 -3.2248535 2
13.345909 15.228813 -1.3172647 0
12.838841 18.349394 -1.6540178 1
32.610668 40.05595 -4.1186271 0
13.601776 15.520779 -1.7083091 0
11.922635 18.429588 -1.9458497 0
12.822477 18.326008 -2.0477095 2
13.795377 18.260624 -2.1645601 0
14.822159 18.206179 -2.2874446 3
13.600873 15.519749 -2.0739386 1
10.922361 18.307899 -2.2030497 4
11.820142 18.271158 -2.3148487 4
12.765745 18.244925 -2.4327884 6
11.599682 16.578377 -2.5693636 0
10.278693 14.690407 -2.5941927 0
3.3951681 4.8524065 -0.96280164 0
2.9375439 4.1983657 -0.90894204 0
2.5778608 3.6843033 -0.89084119 0
2.3132713 3.3061492 -0.87094033 0
2.0142095 2.8787274 -0.8207016 0
1.9549263 2.7939992 -0.85678846 7
2.017854 2.8839362 -1.2162868 0
2.5673056 3.6692176 -2.0949755 0
8.2185888 11.659231 3.7444139 3
7.6523166 10.855894 2.5475912 4
7.5857415 10.761448 1.8234661 2
7.7405705 10.981095 1.1477755 3
8.783308 12.460365 0.76320422 3
8.8058281 12.492313 0.49473837 1
9.4258823 12.386688 0.45815945 2
10.552078 12.869191 0.43986031 2
33.573532 38.041527 1.1939342 1
39.818924 66.217445 1.5874969 5
52.533394 80.586075 1.6959206 1
52.409931 74.350906 1.3321424 2
9.7659903 12.833629 0.18915473 1
10.623835 12.956705 0.14651425 2
13.636176 15.450889 0.12013158 2
39.794186 66.176308 0.21968186 4
52.565586 80.635452 -0.0083999205 1
4.7681708 6.7643251 -0.02513312 0
33.773346 44.382042 -0.33387592 0
4.3849564 5.3478417 -0.06168044 0
13.450176 15.240136 -0.24196142 0
39.785854 66.162453 -1.1440736 4
44.838802 68.782585 -1.4604195 3
12.909836 18.31443 -0.46427748 3
33.776573 44.386284 -1.3222344 0
16.088249 18.229286 -0.7199043 3
39.734188 66.07653 -2.506587 4
43.852734 67.269958 -2.8518968 2
12.905375 18.3081 -0.861283 3
32.720638 39.905708 -2.2883303 3
13.60265 15.412901 -0.97303867 1
39.729881 66.069374 -3.8703864 3
42.819305 65.684685 -4.1737399 1
12.894597 18.29281 -1.2567635 4
32.769596 43.063004 -3.1997688 1
32.791233 39.991806 -3.207521 4
13.615568 15.427539 -1.338557 3
12.879831 18.271864 -1.6510715 4
13.986217 18.37949 -1.7751042 0
32.742706 39.932621 -4.1176734 0
13.616304 15.428372 -1.7033592 7
12.863419 18.248581 -2.0440626 4
13.90003 18.26623 -2.170963 0
14.915911 18.191271 -2.2920995 2
13.60756 15.418465 -2.0667388 6
11.002606 18.296942 -2.2063391 3
11.918602 18.2831 -2.3216186 4
12.8683 18.255505 -2.4401736 5
11.700918 16.599409 -2.5789375 0
10.295697 14.605904 -2.5856009 0
3.398437 4.8211637 -0.9589504 0
2.9589884 4.1977439 -0.91103798 0
2.5861843 3.6688685 -0.88928652 0
2.3180397 3.2884672 -0.8684085 0
2.0511758 2.9098835 -0.83161998 0
1.9646672 2.7871585 -0.85678846 5
2.0409777 2.8954155 -1.2241254 1
2.5842724 3.6661563 -2.0983655 0
8.0847626 11.388989 3.6662147 1
7.7087402 10.859288 2.5543728 2
7.4860687 10.545611 1.7910904 3
7.7423382 10.906617 1.1426682 2
8.8592682 12.480035 0.76620424 3
8.8541489 12.472823 0.49512658 1
9.1532068 11.945951 0.4429777 2
10.312137 12.491844 0.42812929 1
13.489892 15.183353 0.47793123 0
40.119102 66.21843 1.5907013 5
52.517166 79.980156 1.686825 2
52.352917 73.749451 1.3244696 2
9.6528044 12.597981 0.18615226 4
10.694754 12.955335 0.14689898 0
13.674053 15.390634 0.120015 0
40.102535 66.191086 0.22017118 4
52.466049 79.902313 -0.0083416263 1
52.256416 73.61351 -0.2741563 2
33.723278 44.012623 -0.3319363 0
33.655315 40.769142 -0.47150397 0
13.604246 15.312062 -0.24381827 2
40.077568 66.149879 -1.146148 5
45.139084 68.743835 -1.4627671 3
12.995963 18.30739 -0.46518898 3
33.685226 43.962959 -1.3129442 0
13.628462 15.339317 -0.60755616 3
11.157694 18.41629 -0.70001441 0
12.111567 18.445112 -0.78367537 0
12.984527 18.291277 -0.86251253 5
32.855339 39.800068 -2.2885075 3
13.629802 15.340826 -0.9713366 3
12.978307 18.282516 -1.2590061 4
32.734932 42.722717 -3.1825328 4
32.712723 39.627304 -3.1869693 1
13.656048 15.370367 -1.3375183 5
12.951899 18.245316 -1.6525447 4
32.676277 42.646172 -4.12924 0
32.595722 39.485577 -4.0826998 0
13.6568 15.371214 -1.7020394 9
12.956145 18.251297 -2.0491681 4
13.999279 18.270613 -2.1769893 0
15.016706 18.19083 -2.298306 2
13.658615 15.373256 -2.0667388 7
11.075589 18.280771 -2.208806 5
12.000998 18.276724 -2.3258495 3
12.951785 18.245155 -2.4445181 5
11.753604 16.55728 -2.5784338 0
10.369284 14.60719 -2.5919015 0
3.4464018 4.8549395 -0.96793658 0
2.9911315 4.2136011 -0.91662717 0
2.5619962 3.6090794 -0.87684894 0
2.328932 3.2807622 -0.8684085 0
2.0788522 2.9284751 -0.83889896 0
1.9828815 2.7932816 -0.86068738 3
2.0593219 2.9009631 -1.229351 1
2.5922215 3.6516576 -2.0949755 0
7.942174 11.105791 3.5839534 1
7.7420282 10.825922 2.5528657 3
7.5389671 10.541975 1.7949315 2
7.8893237 11.03189 1.1586711 2
7.9406919 11.10372 0.68340379 2
9.202178 11.923423 0.44333076 2
10.294327 12.381978 0.42559284 0
13.540144 15.133193 0.47783715 2
40.433376 66.214508 1.5939879 4
52.442936 79.262688 1.6755439 2
52.34713 73.198639 1.3178511 2
9.8799992 12.801687 0.18967077 2
33.684963 40.516148 0.46073818 0
13.59167 15.190782 0.11882581 2
40.38546 66.13604 0.22045566 3
52.543785 79.415115 -0.0083098616 2
4.3766694 6.1200347 -0.022849396 0
33.700748 43.666649 -0.33021221 0
33.638882 40.46072 -0.46929219 1
13.652278 15.25852 -0.24372305 3
40.389526 66.1427 -1.1484596 3
45.467045 68.719276 -1.4656125 2
13.097009 18.313959 -0.46651477 4
9.1889191 11.906242 -0.35653308 0
54.638649 65.719162 -2.275316 0
13.671258 15.279734 -0.60708261 3
40.383049 66.132095 -2.5190642 3
44.505924 67.266624 -2.8645322 1
13.078522 18.288109 -0.86451048 4
14.162463 18.350552 -0.96018738 0
32.669617 39.294891 -2.2660034 1
13.69126 15.302089 -0.97190398 4
13.069922 18.276085 -1.2616973 4
9.2267056 11.955203 -0.89296973 0
32.649216 39.270351 -3.1674082 0
13.714941 15.328556 -1.3380377 2
13.059597 18.261644 -1.6581426 3
9.2107697 11.934555 -1.1586761 0
32.491188 39.08028 -4.052495 0
13.739612 15.356129 -1.7056692 4
12.226102 18.478632 -1.9642167 0
13.056849 18.257803 -2.0550032 4
9.182292 11.897655 -1.421446 0
15.115745 18.18116 -2.3037364 4
13.74404 15.361078 -2.0715387 3
11.172513 18.296331 -2.2153847 4
12.088865 18.271212 -2.3305039 5
13.045463 18.24188 -2.4501655 5
11.774396 16.464508 -2.5703714 0
10.42942 14.583786 -2.5941927 0
3.4403613 4.8107653 -0.96151787 0
3.0035303 4.1999307 -0.91592848 0
2.570014 3.5937314 -0.87529421 0
2.3199 3.243989 -0.86081308 0
2.0573406 2.8768442 -0.82616079 0
1.9926199 2.7863431 -0.86068738 4
2.0738339 2.8999074 -1.2319639 1
2.6260278 3.6720574 -2.1119251 0
8.02386 11.137643 3.6032493 1
7.641994 10.607588 2.5076556 5
7.5595074 10.493092 1.7910904 0
7.9371028 11.017219 1.160033 3
7.9957495 11.098623 0.68480378 2
52.201843 72.459572 2.8907835 2
9.1799431 11.809155 0.44027087 2
10.537715 12.585101 0.43383625 0
13.793648 15.308649 0.4848946 2
52.488583 78.733063 1.6682111 2
33.840828 46.973282 0.84781748 0
9.2544746 11.905033 0.17686342 1
10.687359 12.763819 0.14556991 0
13.671388 15.17296 0.11905898 2
52.430012 85.190453 0.28457934 1
52.472328 78.708687 -0.008255058 1
33.853653 46.991085 -0.17588325 0
9.2451258 11.893006 -0.090179779 1
33.666924 40.208115 -0.46772254 0
13.732231 15.240486 -0.24419916 3
