# .PCD v0.7 - Point Cloud Data file format
VERSION 0.7
FIELDS x y z intensity
SIZE 4 4 4 4
TYPE F F F F
COUNT 1 1 1 1
WIDTH 1448
HEIGHT 1
VIEWPOINT 0 0 0 1 0 0 0
POINTS 1448
DATA ascii
7.2448082 7.1743417 -0.00088976882 0
23.922396 22.028612 -0.098758951 0
16.813416 14.385406 -0.13246801 0
27.605156 21.934542 -0.31446677 0
29.786013 21.952118 -0.44045359 0
6.4477258 6.8661304 -0.139579 1
7.198194 7.1281815 -0.18018718 0
18.895605 17.399761 -0.5322246 1
16.869764 14.433619 -0.52631527 0
21.998915 17.479927 -0.74804187 0
29.858757 22.00573 -1.0982655 0
6.4422922 6.8603439 -0.30594763 1
7.1720734 7.1023145 -0.35847467 1
18.847481 17.355446 -0.98515773 1
16.890411 14.451285 -0.92078656 1
22.007006 17.486357 -1.2464082 0
29.848085 21.997866 -1.7550631 0
6.4075065 6.8233008 -0.46990958 1
7.078465 7.0096169 -0.53027546 1
18.822929 17.332838 -1.4368458 1
16.890591 14.451437 -1.3144269 2
21.936373 17.430233 -1.7377167 0
29.898806 22.035248 -2.4161539 0
6.3980932 6.8132768 -0.63488352 1
7.0678797 6.9991345 -0.70568126 0
18.816046 17.326498 -1.8891276 1
16.903675 14.462632 -1.7098137 4
21.684212 17.22987 -2.2084286 1
23.377666 17.229204 -2.4039078 1
6.4030986 6.8186069 -0.80091453 0
7.0409784 6.9724946 -0.87844038 0
18.762344 17.27705 -2.3350816 1
16.908461 14.466726 -2.1046741 4
20.245129 14.920542 -2.5275252 0
6.3979335 6.8131065 -0.96583867 1
7.0374131 6.9689641 -1.0535502 0
7.4502096 6.860424 -1.1064843 0
7.507813 6.9134669 -1.2960194 7
7.4609847 6.8703461 -1.4675032 4
7.4526038 6.8626289 -1.6470326 0
7.6256061 7.0219355 -1.8388435 0
8.9016523 8.1969652 -2.3973422 0
7.2780199 6.7018657 -2.3110666 0
6.6208067 6.0966797 -2.2613757 0
4.6444888 4.2768145 -2.1817389 0
0.63433319 0.58411705 -0.40340143 0
9.4364672 8.628767 3.3564653 1
9.3002787 8.5042353 2.4172354 1
13.286784 12.149522 2.4934788 1
13.979638 12.783072 1.6183261 0
13.417465 12.269017 0.91020501 1
36.930786 31.375034 1.4263787 0
16.704817 12.221601 0.48705888 0
6.8749204 7.2700248 0.20557514 0
24.08523 22.023689 0.47794062 0
16.880959 14.341439 0.25980628 0
27.841751 21.964432 0.31009677 0
30.102953 22.023964 0.21743536 0
6.7279334 7.1145906 0.027857093 1
7.3182907 7.1966882 -0.00089570298 0
24.058182 21.998957 -0.099001899 0
25.874477 21.982 -0.20325172 0
22.057314 17.401073 -0.25057456 0
30.075506 22.003883 -0.44359595 0
6.488142 6.8610182 -0.13993461 0
7.2344379 7.1142287 -0.18047172 0
18.956228 17.333696 -0.5322246 2
16.9109 14.366877 -0.5260309 0
22.069214 17.410461 -0.74836117 1
30.058006 21.991081 -1.1027641 0
6.4881749 6.8610525 -0.30698738 0
7.239574 7.1192794 -0.36060423 1
18.940395 17.31922 -0.98684835 2
16.934662 14.387063 -0.92045546 0
22.067909 17.409433 -1.2464082 1
30.037552 21.976114 -1.7616823 0
6.4642234 6.8357244 -0.47231629 1
7.1399136 7.0212746 -0.53303951 0
18.921631 17.302063 -1.4397612 2
16.940931 14.39239 -1.3144269 1
21.968872 17.331303 -1.7354882 1
30.120504 22.036804 -2.4278386 0
6.441031 6.8111997 -0.6367811 1
7.1491652 7.0303726 -0.71134257 0
11.722687 10.719301 -1.1731918 0
16.957094 14.406121 -1.7101202 1
21.819353 17.213346 -2.2160592 1
23.566355 17.24165 -2.4171071 1
6.4487667 6.8193803 -0.80364454 0
7.1050458 6.9869862 -0.88338536 0
11.782092 10.773621 -1.4616598 0
16.989204 14.433401 -2.1084404 2
20.210361 14.786332 -2.5167253 0
6.4763522 6.8485503 -0.97406209 0
7.1155801 6.9973454 -1.0615894 0
7.4829154 6.8424263 -1.1077876 0
7.5582552 6.9113178 -1.3005545 8
7.5170579 6.8736463 -1.4738039 3
7.4969096 6.8552227 -1.6515257 0
7.6151919 6.9633808 -1.8304597 0
8.9533758 8.1870251 -2.4035611 0
6.6563621 6.0866208 -2.2662494 0
4.6482291 4.250371 -2.1765132 0
0.625673 0.57211941 -0.39662158 0
9.463665 8.5931749 3.3554497 1
9.4811401 8.6090422 2.4564176 1
12.21151 11.088265 2.2844086 0
11.945899 10.847087 0.80780447 0
11.936839 10.83886 0.52191466 0
16.826954 14.194727 0.64799023 0
16.776497 12.184364 0.4879058 0
6.8974981 7.2430868 0.20549297 0
22.51597 21.987762 0.55482471 0
11.897395 10.803044 0.23533891 0
26.12705 22.040016 0.4009217 0
28.028461 21.953432 0.31132093 0
6.8023796 7.1432028 0.028061925 1
7.3634 7.1906605 -0.00089814642 0
11.9075 10.81222 -0.048844986 0
26.064175 21.986975 -0.20413771 0
22.083282 17.296843 -0.25018215 0
30.252457 21.97163 -0.44507191 0
6.57549 6.9049449 -0.1412978 0
7.3107314 7.1392274 -0.18175218 0
11.919804 10.823392 -0.33360362 0
26.048151 21.973459 -0.80786359 0
22.085783 17.2988 -0.74687088 2
30.267225 21.982355 -1.107618 0
6.5644689 6.8933716 -0.3094568 0
7.2844009 7.1135144 -0.36159801 1
11.90468 10.809659 -0.61829793 0
26.127844 22.040684 -1.4159453 0
22.037313 17.260836 -1.2412695 1
30.22723 21.953308 -1.7683016 0
6.5073299 6.8333702 -0.47372019 1
7.2501116 7.0800295 -0.5394181 0
11.85926 10.768416 -0.89951432 0
26.208424 22.10866 -2.0274804 0
21.997807 17.229893 -1.7330121 2
30.342581 22.037085 -2.4395235 0
6.5032973 6.8291349 -0.6405763 1
7.1964993 7.0276752 -0.71360707 0
11.833864 10.745358 -1.1805574 1
20.455069 17.255299 -2.0568035 1
21.979755 17.215754 -2.2262335 1
23.72316 17.229559 -2.4270065 1
6.5082622 6.8343487 -0.80808079 0
7.2035079 7.0345192 -0.89256889 0
11.793085 10.708329 -1.4583776 3
17.051659 14.384279 -2.1099472 0
6.50845 6.8345461 -0.9752956 1
7.1712656 7.0030332 -1.0662436 0
7.5273604 6.8349757 -1.1108286 0
7.6028981 6.9035654 -1.3040818 6
7.5439363 6.8500271 -1.4743767 2
7.5120239 6.8210502 -1.6496001 0
10.012931 9.091918 -2.3991599 0
8.8918476 8.0739546 -2.3794632 0
7.2063975 6.5435357 -2.273762 0
6.6861844 6.0711732 -2.2691736 0
4.6742334 4.2442861 -2.1817389 0
0.65180725 0.59185243 -0.41187626 0
9.631525 8.6844473 3.4041972 1
9.4177732 8.4917135 2.4323053 0
12.188345 10.989852 2.2728848 0
12.088346 10.899687 1.3905416 0
11.939184 10.765192 0.80480444 0
11.962725 10.786417 0.52139705 0
16.879465 14.138471 0.64810789 0
16.776754 12.095326 0.4866825 1
6.9642587 7.2622628 0.20672545 0
22.592585 21.909035 0.55482471 0
11.982559 10.804301 0.23627605 0
26.305012 22.033436 0.40246984 0
28.243855 21.963499 0.31285986 0
30.525274 22.007425 0.21937072 0
6.8577266 7.1511717 0.0281871 1
7.422914 7.1983299 -0.00090233522 0
11.921404 10.74916 -0.048747808 0
26.300215 22.029419 -0.2053829 0
22.235094 17.290857 -0.25121668 0
30.530119 22.010918 -0.4480238 0
6.6438446 6.9281378 -0.14224611 0
7.4073844 7.1832705 -0.18353057 0
11.895142 10.725479 -0.33186352 1
26.28717 22.018492 -0.81288785 0
22.180756 17.248602 -0.74804187 1
30.476746 21.972437 -1.1124718 0
6.6327643 6.9165835 -0.31153631 0
7.3608422 7.1381359 -0.3641535 0
11.88594 10.717182 -0.61537778 1
26.327171 22.051998 -1.4225672 0
22.122669 17.20343 -1.242687 1
30.423594 21.934118 -1.7752992 0
6.5670896 6.8480988 -0.47632745 0
7.3292632 7.1075125 -0.54345793 0
11.861183 10.69486 -0.89682323 1
26.270132 22.004221 -2.0263 0
22.105091 17.189762 -1.7367262 2
30.51969 22.003397 -2.4475729 0
6.5574803 6.838078 -0.64355826 1
7.2668157 7.0469542 -0.71813613 0
11.83575 10.671927 -1.177022 2
20.613014 17.265741 -2.0666125 1
22.146738 17.222149 -2.2370434 1
23.9125 17.239897 -2.4402058 1
6.5706968 6.85186 -0.81285828 1
7.2737837 7.0537114 -0.8982203 0
11.809684 10.648425 -1.4558247 3
20.56974 17.229496 -2.5378122 0
6.5735755 6.8548622 -0.98146313 0
7.2384987 7.0194941 -1.0725904 0
11.82141 10.658998 -1.7390094 3
7.5945325 6.847754 -1.2985389 2
7.5648613 6.8210006 -1.4738039 0
7.5885677 6.8423758 -1.6611538 0
10.038756 9.0516348 -2.3977625 0
8.9928284 8.1085539 -2.3988969 0
6.6958108 6.037405 -2.2652745 0
4.646903 4.1899681 -2.1621425 0
0.64579678 0.58229488 -0.40679136 0
9.5666618 8.565608 3.3706832 0
9.485404 8.4928532 2.442101 0
12.244344 10.963098 2.2761774 0
12.093658 10.82818 1.3867961 0
11.973714 10.720787 0.80460447 0
11.982433 10.728594 0.52062058 0
16.831882 12.046001 0.48705888 0
6.9673429 7.2148943 0.20606813 0
22.830248 21.985392 0.55877316 0
11.993383 10.738398 0.2357489 1
26.498617 22.03867 0.40425256 0
28.456488 21.969883 0.31436384 0
30.679979 21.95661 0.21993034 0
6.9132123 7.1588407 0.028312275 1
7.4739265 7.1973467 -0.0009054768 0
11.943954 10.694141 -0.048687067 0
26.426157 21.978405 -0.20576602 0
22.504272 17.374464 -0.25357118 0
30.668566 21.948441 -0.44892842 0
6.8541365 7.0976658 -0.14621715 1
7.4525795 7.1767893 -0.18402852 0
11.926548 10.678556 -0.33169779 1
26.453028 22.000753 -0.81563699 0
22.288303 17.207726 -0.74963862 1
30.615036 21.910131 -1.1147211 0
6.6901937 6.9278979 -0.31309593 1
7.4116287 7.1373544 -0.36543122 0
11.902431 10.656963 -0.61430192 1
26.468517 22.013636 -1.4260437 0
22.283802 17.204248 -1.2483573 1
6.1279378 4.3855548 -0.35668629 0
6.6187057 6.8538699 -0.47833306 0
7.3799229 7.106822 -0.54537147 0
11.898443 10.653393 -0.89682323 1
26.438883 21.988989 -2.0333831 0
22.256601 17.183249 -1.7439069 2
30.709921 21.978037 -2.456661 0
6.6284385 6.8639483 -0.64816672 0
7.3488498 7.0768986 -0.72379744 0
11.864014 10.622565 -1.176138 1
20.777411 17.280392 -2.0770342 1
22.307716 17.222712 -2.2472177 1
24.09248 17.242161 -2.452415 1
6.611186 6.8460832 -0.81490576 0
7.3328009 7.0614438 -0.90245885 0
11.852717 10.612452 -1.4565542 2
20.697115 17.21361 -2.5460982 0
20.42235 14.615576 -2.5239253 0
6.6444511 6.8805299 -0.98845303 0
7.3087978 7.0383286 -1.0793601 0
11.858545 10.617669 -1.7390094 2
7.6243019 6.8264966 -1.2995467 0
7.5945234 6.7998343 -1.4749495 0
7.5535774 6.7631726 -1.6483164 0
10.093765 9.0375557 -2.4033518 0
9.0064621 8.0640278 -2.3950102 0
7.2751193 6.5138521 -2.2810409 0
4.6868501 4.1964188 -2.1739004 0
0.63432908 0.56795299 -0.39831656 0
9.6167431 8.5501566 3.3777924 0
9.3535223 8.3161297 2.4006584 2
12.226277 10.87027 2.2657514 0
12.143296 10.796492 1.3881581 0
12.02002 10.686888 0.80520445 0
12.040724 10.705296 0.52152646 0
16.896648 12.003386 0.4877176 0
22.961771 21.958086 0.56011277 0
12.018838 10.685837 0.23551463 1
26.649405 22.00716 0.40537846 0
28.698082 21.996948 0.31618258 0
30.922735 21.967524 0.22111952 0
6.9688344 7.1662092 0.028437449 0
7.5452585 7.2154465 -0.00091106183 0
11.987189 10.657699 -0.048711363 0
26.635338 21.995544 -0.20679569 0
28.618673 21.936083 -0.3216016 0
30.898245 21.950127 -0.45116615 0
6.9430022 7.1396456 -0.14758034 1
7.5007091 7.1728444 -0.18459761 0
11.945819 10.620916 -0.33120063 1
26.609833 21.974482 -0.8181017 0
22.506912 17.251444 -0.75496125 1
30.935791 21.976799 -1.1236 0
6.7533565 6.9446282 -0.31491551 0
7.4624991 7.1363049 -0.36670896 0
11.954494 10.628631 -0.6150704 1
26.588341 21.956734 -1.4283615 0
22.508642 17.252771 -1.2575716 1
30.820276 21.894737 -1.7894834 0
6.6982932 6.8880057 -0.48234424 0
7.4191189 7.094821 -0.54643458 0
11.908696 10.587912 -0.89480484 1
26.577055 21.947414 -2.0381055 0
22.484381 17.234175 -1.7570301 1
30.936136 21.977043 -2.4686055 0
6.6829619 6.8722405 -0.65114868 0
7.4167633 7.0925679 -0.72804338 0
11.909965 10.589039 -1.177022 1
20.902185 17.261089 -2.0834715 1
22.494284 17.241766 -2.2599354 1
24.26301 17.236452 -2.4636343 1
6.662828 6.8515358 -0.81831831 0
7.4236364 7.0991406 -0.91058278 0
11.898621 10.578953 -1.4576482 2
20.846125 17.214794 -2.5570209 0
20.753075 15.907137 -2.5477254 0
6.7072625 6.8972287 -0.99420941 0
7.3706927 7.048511 -1.0848606 0
11.928225 10.605273 -1.743788 1
7.6451187 6.797204 -1.2990428 0
7.5708771 6.7311964 -1.4657848 0
11.327352 10.071043 -2.4641304 0
10.075213 8.9577789 -2.3914747 0
9.037488 8.0351467 -2.3957875 0
7.2745247 6.4677124 -2.273762 0
4.6958189 4.1750088 -2.1712875 0
0.6498462 0.5777722 -0.40679136 0
9.5044127 8.3910685 3.3280294 0
9.2941456 8.2054319 2.3780532 2
12.213652 10.782948 2.2564228 0
11.649096 10.284523 1.3275517 0
12.075218 10.66073 0.80640447 0
12.093003 10.676432 0.52217346 0
17.036488 12.013467 0.49054056 0
12.041073 10.630584 0.23522176 0
26.852871 22.017982 0.4073019 0
28.844719 21.949928 0.31695205 0
31.185558 21.990839 0.22244862 0
7.0329871 7.18185 0.028596763 0
12.024318 10.615791 -0.048711363 0
26.826397 21.996273 -0.20768169 0
28.838308 21.945049 -0.32320693 0
31.134848 21.95508 -0.45349911 0
6.9846716 7.1325116 -0.14793596 1
7.5779028 7.1961899 -0.18587805 0
11.994811 10.589742 -0.33153206 1
26.782236 21.960066 -0.82104045 0
22.649727 17.235733 -0.75772899 1
31.061329 21.903238 -1.1253759 0
6.8418913 6.9867091 -0.3179048 0
7.5192504 7.140492 -0.36827064 0
11.98553 10.581548 -0.61476302 1
26.738993 21.924606 -1.4323347 0
22.603708 17.200716 -1.2595208 1
30.94223 21.819254 -1.7921312 0
6.7893786 6.933085 -0.48715764 0
7.5133543 7.1348929 -0.55153751 0
11.939594 10.540993 -0.89435631 1
26.758488 21.940592 -2.046133 0
22.598415 17.196686 -1.7612394 1
31.201862 22.002337 -2.4836659 0
6.7376242 6.8802347 -0.65413058 0
7.496448 7.1188383 -0.73342162 0
11.964797 10.563243 -1.1787896 1
21.03941 17.251242 -2.0911345 1
22.640005 17.228336 -2.2685196 1
24.42728 17.225166 -2.4741938 1
6.7145877 6.8567109 -0.82173079 0
7.4714861 7.0951338 -0.91340846 0
11.99221 10.587445 -1.4645772 0
20.973833 17.197472 -2.5653069 0
6.7591352 6.9022017 -0.99832112 0
7.4212103 7.0473905 -1.0886686 0
12.006902 10.600416 -1.7498701 0
7.6658235 6.7678509 -1.2985389 0
7.6625829 6.7649899 -1.4789591 0
11.392034 10.057573 -2.4705491 0
10.183185 8.9903288 -2.4096396 0
9.0507736 7.9905677 -2.3919008 0
5.8251324 5.1427779 -1.952386 0
4.6905246 4.1410775 -2.1621425 0
0.67358762 0.59468371 -0.42035109 0
9.5074615 8.3348846 3.3188891 0
9.322732 8.1729383 2.3780532 1
12.254197 10.742859 2.2569714 0
11.651958 10.214896 1.3238064 1
14.013927 12.285558 0.93300515 0
12.139217 10.64206 0.52256173 0
36.86351 30.011614 1.3991928 0
17.166773 12.015839 0.49308127 1
12.141265 10.643855 0.23645176 0
27.013311 21.992292 0.40856859 0
29.071161 21.962429 0.31859592 0
31.327669 21.927723 0.22291496 0
7.0720572 7.1714969 0.028653661 0
23.33927 22.009203 -0.0027995082 0
12.097395 10.605395 -0.048857134 0
27.017788 21.995935 -0.20856768 0
29.077499 21.967216 -0.3250263 0
31.375134 21.960945 -0.45587969 0
7.0404181 7.1394129 -0.14858791 1
18.485153 17.431713 -0.45192623 1
12.10989 10.616349 -0.3336865 0
5.0827222 4.1379862 -0.15537296 0
22.709753 17.156567 -0.75772899 0
31.406193 21.982685 -1.1350834 0
6.9279947 7.0254087 -0.32076412 1
7.5761204 7.1443696 -0.36983231 0
12.076493 10.587072 -0.61752945 0
26.933136 21.927019 -1.4386256 0
22.743324 17.181929 -1.2639507 1
31.322624 21.924192 -1.8097196 0
6.8612251 6.9577003 -0.49056715 0
7.5469317 7.1168447 -0.55217534 0
12.039381 10.554537 -0.89906579 0
27.002127 21.983187 -2.0588832 0
22.731571 17.17305 -1.7669344 2
6.809237 6.9049811 -0.65873909 0
7.5996275 7.1665373 -0.74106437 0
12.076589 10.587155 -1.1861553 0
21.198473 17.25827 -2.1009436 1
22.769999 17.20208 -2.2755144 1
24.611361 17.22666 -2.486733 1
6.7972474 6.8928227 -0.82889706 0
18.35788 17.311693 -2.236897 0
19.685062 17.257259 -2.3967135 1
21.169619 17.234777 -2.5818791 0
6.8111253 6.9068956 -1.0024328 0
7.4833841 7.0569181 -1.094169 0
17.037176 14.935944 -2.4753623 0
7.6356916 6.6939645 -1.2894688 0
7.6623363 6.7173233 -1.4743767 0
11.492386 10.075005 -2.4846702 0
10.137505 8.8872232 -2.3914747 0
9.0786104 7.9589248 -2.3919008 0
7.4278717 6.5117755 -2.3074272 0
4.7191653 4.1371403 -2.1686745 0
0.65386391 0.57322139 -0.40679136 0
9.5685978 8.3295898 3.3300605 1
9.398612 8.1816149 2.3901093 0
13.540808 11.787451 2.4863451 0
11.7146 10.197713 1.3268708 0
14.071794 12.249681 0.93400514 0
37.051998 29.950619 1.4023703 0
17.198761 11.948997 0.49279895 0
16.73052 14.564137 0.32483563 0
27.211226 21.995926 0.41039819 0
29.246841 21.935213 0.31968018 0
31.591263 21.948322 0.22424407 0
7.1562362 7.2063718 0.028892631 0
23.529821 22.034227 -0.0028131215 0
12.164511 10.589366 -0.048978608 0
27.178391 21.969385 -0.20921423 0
29.211601 21.908783 -0.32566845 0
31.60927 21.960833 -0.45816505 0
7.0962963 7.1460123 -0.14923988 1
18.522533 17.345213 -0.45135716 1
16.786034 14.612463 -0.46112871 0
27.161917 21.956068 -0.82796067 0
29.27599 21.957075 -0.97425342 0
31.554976 21.923111 -1.1376879 0
7.0820594 7.1316757 -0.32674271 1
18.507956 17.33156 -0.90051681 1
25.333179 22.052864 -1.2914634 0
27.136944 21.935881 -1.4454131 0
31.494123 21.880835 -1.8152041 0
6.9361391 6.9847331 -0.49417719 0
18.467203 17.293398 -1.346738 1
25.242743 21.974138 -1.8793144 0
27.112856 21.91641 -2.0614803 0
22.868031 17.151087 -1.7728771 0
31.669401 22.002609 -2.5085936 0
4.2574539 4.287281 -0.41042426 0
18.476107 17.301735 -1.7957649 2
25.168701 21.909685 -2.4645278 0
21.36404 17.269411 -2.1113656 1
22.960691 17.220583 -2.2885501 1
24.825211 17.247545 -2.5022421 1
6.8605819 6.9086461 -0.83367455 0
18.476362 17.301975 -2.2439613 0
19.811281 17.245979 -2.4047365 1
21.229649 17.160778 -2.5818791 0
6.8884606 6.9367204 -1.0102451 0
7.5079718 7.0307531 -1.094169 0
17.077213 14.865939 -2.4736245 0
12.086972 10.521868 -2.3186779 1
11.57811 10.078897 -2.4955819 0
10.230848 8.9060879 -2.4061463 0
9.0649052 7.891119 -2.3810179 0
4.7392812 4.1256065 -2.1712875 0
0.63946432 0.55666208 -0.39662158 0
9.6020203 8.3028746 3.3320916 0
9.42272 8.1478338 2.3893559 0
13.570829 11.734708 2.484699 1
11.820704 10.221374 1.3350424 0
14.115358 12.205562 0.93420517 0
1.4812354 1.0218359 0.042344764 1
23.681084 22.028938 0.57019538 0
16.769646 14.500728 0.32465991 0
27.405657 22.003229 0.41222781 0
29.508684 21.979074 0.32174376 0
31.798862 21.936567 0.22520009 0
7.2564473 7.2589812 0.029199878 0
23.687695 22.035089 -0.0028232445 0
16.777418 14.507448 -0.067357734 0
27.366503 21.971794 -0.21010022 0
29.486183 21.962315 -0.32791591 0
31.760935 21.910402 -0.45930773 0
7.1510582 7.1535554 -0.14989184 1
18.606306 17.308212 -0.45199737 1
16.789021 14.517481 -0.45988578 1
27.368662 21.973528 -0.83203691 0
29.342226 21.855091 -0.97404051 0
31.745979 21.900084 -1.1419499 0
7.1226292 7.1251163 -0.32752252 1
18.618013 17.319101 -0.90307224 1
16.825577 14.54909 -0.85528904 0
27.306147 21.923336 -1.4505451 0
29.387905 21.889114 -1.6249024 0
31.747395 21.901062 -1.825606 0
6.9931564 6.9955983 -0.49658391 1
18.582941 17.286476 -1.3509904 1
16.817568 14.542165 -1.2484658 0
27.328615 21.941376 -2.0723414 0
29.379578 21.882912 -2.2720559 0
21.517399 14.84386 -1.7005256 0
6.9322572 6.9346776 -0.66605842 0
18.600573 17.302877 -1.8022754 2
16.852623 14.572477 -1.6454737 0
21.505161 17.265888 -2.1196418 1
23.100815 17.206274 -2.2968166 1
21.51235 14.840378 -2.163352 1
6.9707999 6.9732342 -0.8442533 0
18.618238 17.319311 -2.2542045 0
16.864304 14.582577 -2.0411451 1
21.242968 17.05538 -2.5766063 0
21.137026 14.581457 -2.5807235 0
6.9508076 6.9532351 -1.0160015 0
7.420578 6.9028707 -1.0780908 0
16.867746 14.585554 -2.4362638 1
12.145754 10.502443 -2.3232603 1
11.626401 10.053358 -2.4987912 0
10.310971 8.915905 -2.4180233 0
9.0850868 7.8558822 -2.3794632 0
6.8549652 5.927494 -2.2769713 0
4.7357779 4.0950308 -2.1634488 0
0.6522693 0.56401777 -0.40340143 0
9.7057829 8.3306227 3.3574808 0
9.5240622 8.1746492 2.4074399 0
11.897405 10.211724 1.3394687 0
25.737186 22.090622 1.6980094 0
16.534357 12.221389 0.54343146 0
1.5575694 1.0660907 0.044414952 0
23.905642 22.074945 0.57365024 0
16.798405 14.418327 0.32419136 0
29.695189 21.949232 0.32289797 0
32.047394 21.935091 0.22638927 0
7.2830038 7.2323356 0.029199878 0
23.865276 22.03767 -0.0028347636 0
16.797092 14.417202 -0.067224108 0
27.550077 21.9536 -0.21089043 0
29.698357 21.951574 -0.32937855 0
32.072071 21.951984 -0.46264052 0
7.1942568 7.144206 -0.15024745 0
18.728384 17.294163 -0.4534201 1
16.820877 14.437616 -0.45930573 0
27.555344 21.957796 -0.83526003 0
29.695452 21.949429 -0.98308897 0
21.512104 14.72413 -0.77187568 0
7.1657162 7.1158643 -0.32830232 1
18.719543 17.285999 -0.9049179 1
16.833294 14.448275 -0.85298371 1
21.957186 17.49684 -1.1629856 0
29.561123 21.850138 -1.630041 0
21.537029 14.74119 -1.2353525 0
7.058435 7.0093293 -0.49939173 1
18.716604 17.283283 -1.3560933 1
16.873787 14.483029 -1.24869 1
21.937696 17.48131 -1.6586759 0
29.700369 21.953062 -2.2906265 0
21.535429 14.740095 -1.6976694 2
7.0114307 6.9626522 -0.67120904 0
18.757668 17.321203 -1.8113334 1
16.86657 14.476835 -1.6416436 3
21.655632 17.256544 -2.1282246 1
23.285568 17.211555 -2.3088984 1
21.533705 14.738915 -2.1600523 3
7.0387301 6.9897614 -0.84937209 0
18.716721 17.283392 -2.2584431 0
16.860209 14.471376 -2.0342162 3
21.594971 17.208204 -2.6116338 0
21.173906 14.492647 -2.5787237 0
6.993185 6.9445333 -1.0184685 0
7.5013504 6.9268961 -1.0861299 0
16.887903 14.495146 -2.4314852 1
12.205194 10.475904 -2.3272698 1
11.750053 10.085251 -2.5174053 0
10.119435 8.685667 -2.3656247 0
9.1197748 7.8276424 -2.3810179 0
7.5222569 6.4564686 -2.3156159 0
4.7564926 4.0825706 -2.1660616 0
0.67907584 0.58286119 -0.41865611 0
9.5525389 8.1413546 2.4074399 1
13.50066 11.506225 2.4567132 0
11.878377 10.123599 1.3333399 1
25.947924 22.11467 1.7068094 0
36.771618 31.339394 1.5639323 0
16.576918 12.163598 0.54343146 0
1.5282031 1.0381758 0.043473959 2
37.144066 34.060127 0.88846695 0
16.824276 14.338848 0.32372278 1
27.756882 21.960423 0.41513646 0
30.003813 22.015814 0.32541624 0
21.572453 14.655121 0.15202987 0
7.3452311 7.243381 0.029347813 0
24.021654 22.027222 -0.0028441886 0
16.896023 14.399995 -0.067418471 0
27.802208 21.996283 -0.21223138 0
29.910248 21.947159 -0.33087686 0
21.518354 14.618369 -0.30966491 0
7.244782 7.1443248 -0.15078087 0
18.927179 17.355724 -0.45676348 1
16.828558 14.342496 -0.45814568 0
22.071589 17.462387 -0.66718423 1
29.90729 21.944988 -0.98755997 0
21.569983 14.653442 -0.77211249 0
7.2104387 7.1104579 -0.32921213 1
18.885836 17.317812 -0.91002882 1
16.907961 14.41017 -0.85421324 0
22.014994 17.41761 -1.16282 1
21.551998 14.641224 -1.2332722 1
7.1113048 7.0126987 -0.50139731 0
18.897524 17.328529 -1.3648108 1
16.930315 14.429222 -1.2491386 0
21.961006 17.374897 -1.6558425 1
29.844416 21.898853 -2.2958262 0
21.573542 14.65586 -1.6966307 3
7.0811582 6.9829698 -0.67554641 0
18.90918 17.339218 -1.8201084 1
16.913963 14.415286 -1.641349 2
21.809568 17.255083 -2.1374204 1
23.44195 17.200933 -2.3184366 1
21.578426 14.659179 -2.1593924 3
7.1170034 7.0183182 -0.85585582 0
11.781837 10.803633 -1.4170901 0
16.934872 14.433105 -2.0371335 3
7.0485473 6.9508109 -1.0229913 0
7.5460057 6.9194875 -1.0890917 0
16.911158 14.412894 -2.4275753 1
13.261215 11.302153 -2.2126055 0
12.268803 10.456348 -2.3324251 1
11.821243 10.074906 -2.5251079 0
10.275589 8.7575893 -2.394968 0
9.1769047 7.8212123 -2.3887916 0
6.823391 5.8153801 -2.2526031 0
4.7851014 4.0782042 -2.1725938 0
0.67283362 0.5734368 -0.41357124 0
9.7991447 8.2926521 3.3696678 0
9.5868969 8.1130342 2.408947 2
13.619379 11.525575 2.4709804 0
11.934939 10.100096 1.3357234 1
26.125595 22.109121 1.7134094 0
16.628971 12.112723 0.5437485 0
16.889492 14.292951 0.32401565 0
27.971764 21.972107 0.41720062 0
30.148375 21.960403 0.32615075 0
21.616846 14.575257 0.15198325 0
7.3790436 7.2260938 0.029381951 0
11.856956 10.796568 -0.001399405 0
26.005527 22.007511 -0.10346002 0
27.935438 21.943573 -0.21266241 0
30.15156 21.962725 -0.33269623 0
21.539406 14.523043 -0.30923641 1
7.3039665 7.1525726 -0.1514921 0
19.008347 17.308397 -0.45726141 1
26.036699 22.033892 -0.70673257 0
22.063227 17.330891 -0.66509867 2
30.171167 21.977007 -0.99373424 0
21.597797 14.562413 -0.77128375 0
7.2837734 7.1327982 -0.33142158 1
19.008244 17.308302 -0.91301018 1
25.992546 21.996527 -1.3092916 0
22.04423 17.315969 -1.1611645 2
30.139311 21.9538 -1.6534312 0
21.622852 14.579307 -1.2344069 1
7.2299318 7.0800724 -0.50801575 0
18.975616 17.278595 -1.3660865 1
21.968142 17.256201 -1.6518286 2
30.075569 21.907372 -2.3077114 0
21.667593 14.609473 -1.7000064 0
7.1482596 7.000093 -0.6796127 0
11.82723 10.7695 -1.1348079 0
16.912415 14.312347 -1.6363404 0
21.944939 17.237974 -2.1447771 1
23.621098 17.205864 -2.3302007 1
21.606329 14.568166 -2.1570826 0
7.1813231 7.0324717 -0.86063331 0
11.790017 10.735615 -1.4135579 2
17.006435 14.391915 -2.0396864 1
21.251469 14.328899 -2.5759237 0
7.112565 6.9651384 -1.0287477 0
11.787496 10.733318 -1.6958351 2
17.016003 14.400011 -2.435395 1
12.338469 10.441588 -2.3387258 0
11.898534 10.069287 -2.5340939 0
10.312109 8.7267542 -2.3963652 0
9.2131357 7.7967343 -2.3911235 0
6.9087987 5.8466597 -2.2740471 0
4.8137374 4.0736871 -2.179126 0
0.70525396 0.59683025 -0.43221584 0
9.8458033 8.2733307 3.3757613 0
9.6091433 8.0744677 2.4074399 1
13.650428 11.470319 2.4693341 0
12.104378 10.171188 1.3507048 0
26.285192 22.087187 1.7188095 0
16.822041 14.135393 0.71124297 0
16.77808 12.13192 0.54723608 0
36.703701 24.561708 1.0392346 0
11.96392 10.817819 0.28435737 0
26.263233 22.068735 0.50236481 0
28.205988 21.997322 0.41954631 0
30.377188 21.965183 0.32779461 0
21.627699 14.473016 0.15170343 0
7.4070902 7.2030802 0.02939333 0
11.930175 10.787307 -0.0014035938 0
26.152622 21.975788 -0.10373941 0
28.169571 21.968922 -0.21385969 0
30.341486 21.939369 -0.33394483 0
21.633183 14.476686 -0.30985537 0
7.3776336 7.1744351 -0.15249968 0
11.904556 10.764142 -0.28546828 0
26.214487 22.027773 -0.70946705 0
22.104668 17.239017 -0.66452992 1
30.254181 21.87624 -0.99394715 0
25.742273 17.226444 -0.91713512 1
7.3172255 7.1156907 -0.33181152 1
11.910798 10.769787 -0.5702942 0
26.222174 22.034233 -1.3169761 0
22.123447 17.253662 -1.1621578 1
25.718113 17.210276 -1.464759 1
7.3032908 7.1021399 -0.51142526 1
11.862942 10.726515 -0.85133237 0
26.301174 22.100615 -1.9291005 0
22.088066 17.22607 -1.6563148 2
30.17127 21.81629 -2.3091972 0
25.752312 17.233162 -2.0157552 1
7.2184272 7.0196137 -0.68395007 0
11.832195 10.698713 -1.1316942 1
20.532469 17.253229 -1.9807556 0
22.121338 17.252018 -2.1561186 1
23.800566 17.209751 -2.3419645 1
25.718781 17.210722 -2.5616386 1
7.2601137 7.0601521 -0.86711711 0
11.806731 10.675689 -1.4110854 3
20.505699 17.230734 -2.4521458 1
21.066544 15.232829 -2.5329852 0
21.46343 14.36309 -2.5955231 0
7.1910315 6.9929724 -1.0365599 0
11.801287 10.670766 -1.6924502 2
17.224466 14.473548 -2.4579852 0
13.509921 11.352253 -2.2408237 0
12.435458 10.449392 -2.3501816 0
11.897336 9.9972134 -2.5263915 0
9.2132587 7.7418098 -2.3841274 0
7.5685797 6.3598022 -2.3092468 0
6.8935246 5.7925601 -2.2623503 0
4.8105612 4.0422668 -2.1712875 0
0.6740467 0.56639475 -0.41187626 0
9.6549473 8.0613432 3.3016243 0
9.6827097 8.0845232 2.4194958 0
13.646856 11.394365 2.4622006 0
12.258644 10.235285 1.3643241 0
12.064046 10.072806 0.78680438 0
16.893984 14.105536 0.71240771 0
37.009857 28.676764 1.3781266 0
16.822605 12.083817 0.54744744 0
17.720936 11.778219 0.50070333 0
11.971071 10.756122 0.28372279 0
26.350857 22.001497 0.50271624 0
28.382452 21.991896 0.42114136 0
30.608473 21.98632 0.32954341 0
33.055916 21.970613 0.23137921 0
7.4670758 7.21591 0.029541263 0
11.9164 10.707 -0.0013980087 0
26.371983 22.019136 -0.10433464 0
28.333305 21.953815 -0.21457808 0
30.533707 21.932615 -0.33530045 0
25.928989 17.233704 -0.37060758 0
7.4490299 7.1984711 -0.15350726 0
11.917489 10.707978 -0.28497034 0
26.378723 22.024765 -0.71203578 0
22.259869 17.247866 -0.66756344 1
30.50462 21.911722 -0.99990851 0
25.89616 17.211882 -0.92068672 1
7.3654175 7.1176715 -0.33298123 0
11.888077 10.681551 -0.56759673 1
26.346493 21.997854 -1.3197426 0
22.247044 17.237928 -1.1657999 1
25.921795 17.22892 -1.4732695 1
7.3600397 7.1124744 -0.51383197 1
11.860928 10.657158 -0.84878093 1
26.379673 22.025557 -1.9297733 0
22.252548 17.242193 -1.6645787 1
30.512028 21.917044 -2.3299963 0
25.975863 17.264856 -2.0289979 1
7.2806211 7.035727 -0.68774527 0
11.856845 10.653489 -1.130845 1
20.681496 17.267897 -1.9898889 0
22.247936 17.238621 -2.1631687 1
23.94519 17.200029 -2.3508668 0
25.922119 17.229137 -2.5764878 1
7.2965875 7.0511565 -0.86882335 0
11.84614 10.643869 -1.4117918 3
20.682035 17.268349 -2.4667332 1
20.991425 15.078314 -2.518245 0
21.32946 14.176625 -2.5739238 0
7.2501597 7.0062904 -1.0419052 0
11.843628 10.641613 -1.6937195 2
17.297319 14.442299 -2.461895 0
13.633852 11.383508 -2.2554367 0
12.498611 10.435645 -2.3559096 1
11.958992 9.9850922 -2.5328102 0
10.433248 8.7111807 -2.4110367 0
9.1471777 7.6373839 -2.3608069 0
6.9176435 5.775847 -2.2642999 0
4.8087258 4.0150185 -2.1647553 0
0.69529092 0.58052921 -0.42374101 0
9.5698462 7.9337597 3.2630327 0
9.7017984 8.0431528 2.4172354 0
13.652994 11.318842 2.4561644 0
13.451011 11.15139 1.4926871 0
12.111435 10.040832 0.78760433 0
16.740965 11.936808 0.54343146 0
17.755262 11.711885 0.5005151 1
11.993622 10.700957 0.28337026 1
26.507551 21.97575 0.50423908 0
28.570005 21.978045 0.42278332 0
30.789249 21.953651 0.33066264 0
33.282658 21.954205 0.23242849 0
7.5355091 7.2313447 0.029711956 0
11.95967 10.670664 -0.0013987068 0
26.534906 21.998428 -0.10467477 0
28.542923 21.957211 -0.2155838 0
30.740349 21.918783 -0.33672741 0
26.14591 17.246601 -0.37284532 0
7.5029693 7.2001181 -0.15409996 0
11.936889 10.650339 -0.28454351 1
26.541649 22.004019 -0.71435589 0
22.46891 17.284655 -0.67201889 1
30.759985 21.932785 -1.0057634 0
26.09626 17.213848 -0.92565894 1
7.445024 7.1445122 -0.33545065 0
11.916341 10.632006 -0.56717086 1
26.567745 22.025652 -1.3269659 0
22.459133 17.277134 -1.1737462 1
26.105181 17.219732 -1.480267 1
7.3963518 7.0978045 -0.51463419 0
11.895075 10.613031 -0.84856826 1
26.505589 21.974123 -1.9333615 0
22.442362 17.264233 -1.6742592 2
30.679365 21.875301 -2.3369293 0
26.162584 17.257599 -2.0388651 1
7.3598456 7.0627718 -0.69289589 0
11.890982 10.60938 -1.1305619 1
20.858345 17.292347 -2.0010846 0
22.421776 17.248398 -2.1742036 1
24.108974 17.190416 -2.3610411 0
26.095242 17.213177 -2.587707 1
7.3901691 7.0918713 -0.87701333 0
11.874301 10.594497 -1.4107322 3
20.800451 17.24435 -2.4736621 1
21.04393 15.004949 -2.518245 0
21.508385 14.187553 -2.5895233 0
7.3032804 7.0084896 -1.0460169 0
11.904446 10.621392 -1.6971045 1
17.375179 14.404673 -2.4658048 0
13.603245 11.277597 -2.2438471 0
12.550201 10.404586 -2.3587737 1
11.942101 9.9004478 -2.5218985 0
10.409016 8.6294622 -2.3984611 0
9.1526365 7.5878773 -2.3553655 0
6.9078979 5.7269053 -2.2545526 0
4.8576379 4.027163 -2.1804323 0
0.69452387 0.57578623 -0.42204604 0
9.5556631 7.8658834 3.2488146 1
9.7298155 8.0092392 2.4172354 1
13.511935 11.122547 2.4237885 0
13.38831 11.020783 1.481451 0
16.945755 13.949145 1.098806 0
16.792322 11.885227 0.5437485 1
16.675211 10.916109 0.46899179 0
12.030903 10.659026 0.28337026 0
26.766287 22.03306 0.50769478 0
28.789591 21.987429 0.42489442 0
30.989756 21.933851 0.3319917 0
33.509686 21.936478 0.23347779 0
23.136744 22.048229 0.09092246 0
12.002832 10.634156 -0.001399405 1
26.716532 21.992104 -0.10508778 0
28.737013 21.947273 -0.21646979 0
30.97665 21.924576 -0.33847544 0
26.292963 17.212187 -0.37408322 0
7.5512199 7.1959577 -0.15457411 0
11.982974 10.616563 -0.28475693 0
26.698572 21.97732 -0.71651036 0
22.637159 17.288641 -0.67524201 1
26.27327 17.199295 -0.92980242 1
7.4930716 7.1405449 -0.33649039 0
11.962358 10.598297 -0.56759673 1
26.681496 21.963264 -1.3288102 0
22.573298 17.23987 -1.1765606 1
30.764812 21.774641 -1.6713281 0
26.248703 17.183212 -1.4849951 1
7.4789248 7.1270633 -0.51864541 0
11.946999 10.584689 -0.84963137 1
26.671551 21.955076 -1.9398651 0
22.569128 17.236685 -1.6792175 2
26.289457 17.209892 -2.0440583 1
7.4306793 7.0810876 -0.69723326 0
11.957808 10.594267 -1.1333926 1
21.047935 17.325914 -2.0134587 0
22.592783 17.254751 -2.1849322 1
24.308783 17.205208 -2.3747125 0
26.28191 17.20495 -2.6002462 1
7.4639273 7.1127715 -0.88281459 0
11.941034 10.579405 -1.4142643 1
20.94663 17.242525 -2.4838734 1
21.22616 15.023398 -2.533761 0
21.571095 14.121106 -2.5911231 0
7.3421016 6.9966774 -1.0480727 0
11.998015 10.629889 -1.7051436 0
17.397724 14.321191 -2.461895 0
13.676228 11.257787 -2.2493899 0
12.604782 10.375811 -2.3622105 0
11.933912 9.8235741 -2.5129123 0
10.399544 8.5605364 -2.3893788 0
9.2729788 7.6331878 -2.3794632 0
7.515285 6.1863165 -2.273762 0
6.9488125 5.7200165 -2.2613757 0
4.8453956 3.9885581 -2.1686745 0
0.69652951 0.57335842 -0.42204604 0
9.5844288 7.8308067 3.2488146 1
9.7226 7.943697 2.4081933 1
13.521929 11.047879 2.4183013 0
27.00178 22.06138 1.7456096 0
16.986296 11.929313 0.54860997 0
16.654743 10.815715 0.467298 0
12.11794 10.657118 0.28449839 0
29.026176 22.000145 0.42719319 0
31.266336 21.958048 0.33409026 0
33.854881 21.985613 0.23531987 0
23.319101 22.05949 0.091320738 0
12.062754 10.608584 -0.0014018484 0
26.914667 21.990206 -0.10554939 0
28.995775 21.977102 -0.21781075 0
31.197552 21.90974 -0.34000942 0
33.809448 21.95611 -0.47987586 0
18.476074 17.478064 -0.37689292 1
12.048833 10.596342 -0.28539714 0
26.958565 22.026072 -0.72131634 0
22.748178 17.241789 -0.67666399 0
31.158289 21.882166 -1.0136409 0
26.440083 17.170387 -0.93347239 0
7.5772786 7.1679816 -0.33908978 0
12.025135 10.5755 -0.5687325 0
26.88563 21.96648 -1.334958 0
22.750998 17.243927 -1.1825204 1
26.428791 17.163055 -1.4916145 0
7.5369201 7.1298032 -0.52085155 0
11.991711 10.546106 -0.85005665 0
26.810602 21.90518 -1.9441261 0
22.72444 17.223797 -1.6860647 2
31.135691 21.866297 -2.3597093 0
16.781553 10.898067 -1.301685 0
7.5261621 7.1196265 -0.70373935 0
11.990566 10.545099 -1.1328264 0
21.228685 17.344563 -2.0246544 0
22.751226 17.244099 -2.194128 1
24.508726 17.212244 -2.3880661 0
16.786448 10.901245 -1.6568321 0
7.4986324 7.0935836 -0.88383836 0
19.654057 17.284754 -2.3202553 1
21.080635 17.2236 -2.4922612 1
21.473303 15.080494 -2.5566471 0
16.842882 10.937894 -2.0183401 0
7.4341764 7.0326095 -1.0575297 0
17.254873 15.174793 -2.4443212 0
17.443941 14.252296 -2.4610262 0
12.658056 10.342066 -2.3650744 0
11.979011 9.787262 -2.514838 0
10.418651 8.512394 -2.386584 0
9.3008938 7.5991488 -2.3794632 0
7.537909 6.1587296 -2.273762 0
6.9877563 5.7092361 -2.2672241 0
4.8658376 3.9755559 -2.1712875 0
0.69301486 0.56621689 -0.41865611 0
9.5816584 7.7729287 3.2386589 1
9.7350149 7.897336 2.4044259 1
13.508101 10.958176 2.4089727 0
12.18855 9.8877163 1.3408307 1
27.199621 22.065147 1.7534097 0
16.450222 12.378135 0.60597557 0
17.109838 11.927112 0.55125213 1
16.715923 10.772678 0.46795669 0
12.161092 10.620015 0.28463939 0
36.856422 29.899035 0.69500536 0
29.153929 21.937168 0.4279438 0
31.451077 21.924257 0.33524448 0
16.733715 10.784144 0.11605103 0
23.468847 22.046425 0.091605231 0
12.15093 10.611141 -0.0014077825 0
27.053391 21.94652 -0.10579234 0
29.161806 21.943094 -0.21848123 0
31.480558 21.944809 -0.34225687 0
16.749624 10.794396 -0.23720028 0
18.499075 17.377865 -0.37612242 1
12.109847 10.575265 -0.28596622 0
27.084978 21.972145 -0.72264212 0
29.221239 21.987816 -0.86692238 0
31.359133 21.860163 -1.017686 0
16.807327 10.831584 -0.59204763 0
18.476767 17.356909 -0.82413507 1
12.077033 10.546609 -0.56944239 0
27.052164 21.945524 -1.339415 0
22.894081 17.226883 -1.1868247 0
16.809322 10.83287 -0.94656146 0
7.5792317 7.1198626 -0.52205491 0
12.001373 10.480536 -0.84814304 0
27.156733 22.030355 -1.9636369 0
22.813137 17.165976 -1.6881897 0
16.809423 10.832935 -1.3009061 1
7.5858727 7.126101 -0.70699239 0
25.217663 22.022032 -2.3751991 0
21.248825 17.237684 -2.0208244 0
22.922819 17.248507 -2.2048566 1
24.663519 17.192713 -2.3972864 0
16.831099 10.846903 -1.657492 2
18.453987 17.33551 -2.1679633 0
19.783297 17.276321 -2.3283792 1
21.233431 17.225195 -2.5032017 0
21.548676 15.021383 -2.5593624 0
16.834122 10.848852 -2.0127404 2
7.4789791 7.0256858 -1.0604079 0
17.647984 14.316573 -2.4827476 0
12.7156 10.315276 -2.3690839 0
11.94258 9.688179 -2.5000749 0
10.4483 8.4759741 -2.386584 0
9.33041 7.569108 -2.3802407 0
8.3927755 6.8084707 -2.3326347 0
7.5986853 6.1642814 -2.2855902 0
6.992579 5.6725893 -2.2623503 0
4.8591328 3.941874 -2.1621425 0
0.69498712 0.56379431 -0.41865611 0
9.5755892 7.7127395 3.2274876 1
9.8084135 7.90027 2.4157283 1
13.570955 10.930841 2.4133625 0
12.145393 9.7826099 1.3323185 1
27.422707 22.087852 1.7628098 0
16.454891 12.291924 0.60456336 0
17.157946 11.871865 0.55146348 0
16.719736 10.692717 0.46701571 0
16.742535 14.518188 0.39068291 0
37.094501 29.878082 0.69752389 0
29.384138 21.950167 0.43019563 0
31.685299 21.923582 0.33692333 0
16.75104 10.712736 0.11591112 0
23.639259 22.05168 0.091969371 0
16.739092 14.515203 -0.0019334757 0
27.263784 21.959846 -0.10631467 0
29.452927 22.001551 -0.22008561 0
31.678671 21.918995 -0.34357682 0
16.783833 10.733707 -0.23715267 0
18.565472 17.318642 -0.37624097 1
16.790834 14.560071 -0.39530209 0
27.391983 22.063105 -0.72877395 0
29.40033 21.962261 -0.8699559 0
31.665422 21.90983 -1.0251378 0
16.787775 10.736228 -0.59003502 1
18.569399 17.322306 -0.82556468 2
16.677204 14.461537 -0.78395927 0
27.281132 21.973818 -1.3469458 0
16.813374 10.752601 -0.9446702 1
18.555843 17.309658 -1.2739503 1
25.340214 21.973616 -1.785374 0
27.230356 21.932922 -1.9634126 0
29.341316 21.918177 -2.1656051 0
16.823597 10.759138 -1.2990884 2
18.504395 17.261665 -1.7189566 2
16.81469 14.580757 -1.5789371 0
21.402067 17.238478 -2.0296631 0
23.078743 17.23999 -2.2140524 1
24.864378 17.204075 -2.4109581 0
16.858784 10.781641 -1.6565021 3
18.563932 17.317205 -2.1737647 0
16.824215 14.589017 -1.9741067 0
21.364779 17.208443 -2.5115895 0
21.587883 14.937013 -2.5578108 0
16.851772 10.777157 -2.0103405 2
7.49473 6.9913945 -1.0591743 0
16.87958 14.637026 -2.3766232 0
13.937464 11.226048 -2.2725692 0
12.797775 10.308077 -2.377676 0
11.991699 9.6588163 -2.5032842 0
10.545303 8.493804 -2.4019544 0
9.3506632 7.5315709 -2.378686 0
7.0274434 5.6603136 -2.2672241 0
4.8905282 3.9391177 -2.169981 0
0.72516745 0.58409232 -0.43560576 0
9.5752602 7.6575198 3.2183475 1
9.8850193 7.9052405 2.4277844 1
12.690002 10.148439 2.2503865 0
12.154567 9.7202415 1.3295946 1
27.611961 22.081818 1.7700098 0
16.545872 12.270135 0.60632867 0
1.5821493 1.0865681 0.050728723 0
16.750206 10.630003 0.46682751 0
23.846136 22.089497 0.66783166 0
16.8416 14.501411 0.39181101 0
29.704748 22.028532 0.43376106 0
31.837467 21.864927 0.33772776 0
16.808594 10.667057 0.11605103 0
23.842268 22.085913 0.092458695 0
16.756313 14.427975 -0.001929636 0
27.452736 21.954481 -0.10675199 0
29.584169 21.939114 -0.22049268 0
31.900063 21.907915 -0.34514648 0
16.831329 10.681485 -0.23729549 0
18.719706 17.340706 -0.37813759 1
16.78397 14.451789 -0.39395049 1
21.931339 17.538916 -0.58185911 0
29.573177 21.930964 -0.87279981 0
31.807632 21.844437 -1.0272667 0
16.869034 10.705414 -0.59157407 0
18.68841 17.311718 -0.8281641 1
16.830576 14.491918 -0.78878629 1
27.420101 21.928383 -1.3500196 0
16.877794 10.710973 -0.9461832 1
18.651321 17.277359 -1.2763571 1
16.865808 14.522255 -1.1847212 0
27.422153 21.930025 -1.9717103 0
29.63254 21.974983 -2.1814244 0
31.846735 21.871292 -2.3961077 0
16.894754 10.721736 -1.301685 1
18.637728 17.264769 -1.7257338 2
16.85339 14.511561 -1.5778048 3
21.633459 17.300695 -2.0458674 0
23.244497 17.237722 -2.2241678 1
21.535524 14.789891 -2.0831592 1
16.896317 10.722727 -1.6565021 2
18.682743 17.306467 -2.1805897 1
16.850882 14.509402 -1.9712809 3
21.546043 17.230785 -2.5258121 0
21.393757 14.69253 -2.5287182 0
16.892649 10.7204 -2.0107405 1
7.5190887 6.9651904 -1.0591743 0
16.879326 14.533895 -2.3694303 2
13.871198 11.093064 -2.2554367 0
12.864596 10.288066 -2.3834038 0
12.046926 9.6341591 -2.5077772 0
10.494915 8.3929863 -2.3837895 0
9.3186741 7.452323 -2.3639164 0
7.0441289 5.6333261 -2.2662494 0
4.8865337 3.9078553 -2.1621425 0
0.7073949 0.56571734 -0.42374101 0
9.5807209 7.6072087 3.2112386 1
10.029461 7.9635134 2.4564176 1
12.740863 10.1164 2.2531302 0
12.179059 9.6703205 1.3285732 0
27.763962 22.044922 1.7748098 0
16.520985 12.162526 0.60385722 1
1.4901158 1.0157261 0.047663864 0
16.868422 10.622614 0.4690859 0
37.073738 34.102993 1.0349418 0
16.803965 14.367164 0.38976631 0
27.607815 21.92094 0.5162462 0
29.82333 21.955534 0.43437093 0
21.539034 14.681918 0.22793826 0
16.852495 10.612584 0.11609766 0
23.975153 22.054005 0.092674904 0
16.827858 14.387591 -0.0019320794 0
27.651373 21.955524 -0.10722574 0
29.773308 21.918709 -0.22133078 0
32.128376 21.900063 -0.34678748 0
16.841434 10.605618 -0.2369146 0
18.889034 17.375441 -0.38033053 1
16.852554 14.408708 -0.39437732 0
22.020615 17.484636 -0.58260483 0
29.810566 21.946136 -0.87753969 0
21.542139 14.684035 -0.6940704 0
16.902914 10.644335 -0.5914557 0
18.836998 17.327574 -0.83206314 1
16.89929 14.448666 -0.7896381 0
22.030989 17.492874 -1.0816755 1
21.687109 14.782853 -1.1638341 0
16.945507 10.671157 -0.94788533 0
18.861467 17.350082 -1.2865856 1
16.886038 14.437336 -1.182595 1
21.965675 17.441013 -1.5749911 0
21.584318 14.712786 -1.6201026 2
16.874655 10.626539 -1.2972708 0
18.783058 17.277958 -1.7335953 1
16.888779 14.439678 -1.5763894 3
21.806185 17.314375 -2.056474 0
23.432995 17.251057 -2.236429 1
21.540895 14.683187 -2.0787082 2
16.950508 10.674306 -1.658152 0
11.79433 10.84924 -1.3721676 0
16.889315 14.440137 -1.9698682 3
21.705885 17.234735 -2.5374823 0
21.494259 14.651398 -2.5345368 1
16.933334 10.66349 -2.0111403 0
7.5433564 6.9389014 -1.0591743 0
16.896704 14.446453 -2.3647759 1
14.031034 11.140811 -2.2750885 0
12.884929 10.23079 -2.3805399 0
12.040285 9.560133 -2.499433 0
10.690708 8.4885521 -2.4215167 0
9.4368162 7.4929466 -2.3872368 0
7.0910935 5.6304145 -2.275022 0
4.9208703 3.9072309 -2.1712875 0
0.71504021 0.56775057 -0.42713094 0
9.6193705 7.5833006 3.2153008 1
10.001667 7.8846784 2.4428544 1
12.760542 10.0596 2.2503865 0
13.567973 10.696128 1.4760033 0
13.559578 10.689509 0.8644048 0
16.550426 12.095346 0.60338646 1
1.473781 0.99707472 0.047029752 0
18.248335 11.402826 0.50634927 0
16.82962 14.287713 0.38920224 0
30.112923 22.007061 0.43746722 0
21.580212 14.59992 0.22783333 0
35.08485 21.923447 0.24117255 0
11.839934 10.815136 0.045620542 0
25.934452 22.01737 -0.0029688049 0
27.84407 21.950495 -0.10767519 0
30.114452 22.008179 -0.22329433 0
21.533798 14.56852 -0.23188135 0
34.984592 21.8608 -0.49106455 0
11.862308 10.835572 -0.23808442 0
25.933399 22.016478 -0.6050818 0
22.046968 17.380428 -0.58169335 1
30.051647 21.96228 -0.88237435 0
21.573395 14.595307 -0.69343168 0
35.036167 21.893028 -1.2232809 0
18.953451 17.312946 -0.83453256 1
22.013443 17.353998 -1.0778333 1
30.034336 21.949627 -1.5409352 0
21.58964 14.606297 -1.1558602 1
18.936661 17.297611 -1.2875884 1
16.939377 14.380892 -1.1828077 0
21.973106 17.322201 -1.5711787 1
30.030243 21.946636 -2.1993687 0
21.592556 14.608272 -1.6168836 3
27.618519 17.257967 -2.1185813 0
18.919865 17.282267 -1.7406435 1
16.951246 14.390968 -1.5775217 0
21.882156 17.2505 -2.0579469 0
23.612211 17.256226 -2.2477705 1
21.628344 14.632483 -2.0822055 2
27.528469 17.201696 -2.6870313 0
11.790931 10.770374 -1.36739 1
16.979103 14.414617 -1.9744599 1
21.800322 17.185987 -2.5414937 0
21.55846 14.585204 -2.5360885 0
11.768451 10.74984 -1.6471477 2
16.989479 14.423426 -2.3706996 1
17.914854 14.122932 -2.492305 0
14.194488 11.190032 -2.2952445 0
12.979631 10.232316 -2.391423 0
12.10769 9.5449333 -2.5064936 0
10.61202 8.3658419 -2.397064 0
9.351985 7.3725104 -2.3592522 0
7.0101671 5.52637 -2.2428558 0
4.9077582 3.8689647 -2.1595294 0
0.75116134 0.59216785 -0.44747052 0
9.6457834 7.5496764 3.2153008 1
10.007474 7.8327689 2.4375799 2
12.549089 9.8220711 2.207036 0
13.686828 10.712569 1.4848559 0
13.577933 10.627338 0.86320478 0
16.6152 12.053935 0.60421026 1
17.322029 11.631146 0.55146348 0
18.355999 11.381202 0.50823128 0
5.296278 4.8040562 0.14690982 0
16.87022 14.221147 0.38899073 0
27.996395 21.912554 0.520639 0
30.234882 21.934694 0.438124 0
21.680855 14.557948 0.22835797 0
35.269947 21.868294 0.2419187 0
11.910205 10.803302 0.045745715 0
26.090668 21.993738 -0.0029778806 0
28.112665 22.003555 -0.10841619 0
30.259079 21.95225 -0.22379719 0
21.557957 14.475426 -0.23159596 0
35.30204 21.888191 -0.49444497 0
11.879321 10.775288 -0.23766954 0
26.059021 21.967062 -0.60621995 0
22.104353 17.3009 -0.5816105 1
30.221992 21.925344 -0.88512349 0
21.62089 14.517683 -0.69332522 0
11.877314 10.773467 -0.52130669 0
26.028381 21.941235 -1.209018 0
22.058147 17.264734 -1.0770649 1
30.285456 21.971384 -1.5498749 0
21.670353 14.550895 -1.157455 0
11.847928 10.746813 -0.80303794 0
26.087378 21.990965 -1.8162041 0
22.033438 17.245394 -1.5711787 1
30.216558 21.921402 -2.2073965 0
21.673248 14.55284 -1.6191121 1
27.858391 17.272934 -2.1323433 0
11.847398 10.746332 -1.0865128 0
26.168634 22.059464 -2.4281323 0
22.020771 17.235479 -2.0653126 1
23.756235 17.234589 -2.2557402 1
21.6826 14.559119 -2.0825233 0
27.662882 17.151712 -2.6942906 0
11.79008 10.694342 -1.3629538 3
17.038456 14.362965 -1.9755195 0
21.954283 17.183441 -2.5524342 0
21.638988 14.529835 -2.5395794 0
2.3982146 1.486956 -0.2835916 0
11.788221 10.692655 -1.6446806 3
17.225233 14.520414 -2.3965094 0
18.051718 14.128933 -2.5044689 0
14.402201 11.272487 -2.3224547 0
13.024621 10.194266 -2.3931413 0
12.175134 9.5293789 -2.5135541 0
10.566722 8.2704878 -2.3802962 0
9.43328 7.3833518 -2.3732445 0
7.0752392 5.5377326 -2.2574768 0
4.9569597 3.8797722 -2.1752067 0
0.72469264 0.56721109 -0.43052086 0
9.6921473 7.5342693 3.2224097 1
10.042698 7.8067727 2.4398406 2
12.556566 9.7609482 2.202646 0
13.690809 10.642661 1.481451 0
28.390062 22.069244 1.80021 0
16.625885 11.977737 0.60315108 1
18.298285 11.261581 0.50559652 0
11.958347 10.774905 0.33071139 0
36.762089 28.577307 0.68188542 0
30.346397 21.862366 0.43868697 0
21.516016 14.343975 0.22611952 0
35.58754 21.902161 0.24359757 0
11.922192 10.742327 0.045654681 0
26.298397 22.020086 -0.0029932396 0
28.264427 21.971581 -0.10871988 0
30.464773 21.947647 -0.22477897 0
21.592527 14.394982 -0.23145327 0
35.609467 21.915657 -0.49773017 0
11.885275 10.709064 -0.23707685 1
26.281975 22.006336 -0.60970563 0
22.237381 17.286407 -0.58359921 1
30.440542 21.930191 -0.8893894 0
21.592392 14.394893 -0.69087684 0
35.501049 21.84893 -1.2342908 0
11.874363 10.699232 -0.51961708 1
26.327803 22.044708 -1.2195238 0
22.184706 17.245461 -1.080446 1
30.429489 21.922228 -1.553517 0
25.784882 17.189878 -1.3741677 1
35.602787 21.911545 -1.9787958 0
5.3570724 4.8269167 -0.36200887 0
26.267345 21.994085 -1.8236457 0
22.191402 17.250666 -1.578355 1
30.421919 21.916773 -2.217077 0
25.710894 17.140553 -1.91649 1
27.976706 17.218115 -2.1370173 0
11.856286 10.682943 -1.0840731 1
26.296707 22.018671 -2.4332275 0
22.169138 17.233358 -2.0738566 1
23.913572 17.227983 -2.2652426 1
25.801546 17.200987 -2.4726388 0
27.923304 17.185247 -2.7140896 0
11.813636 10.644514 -1.3615888 3
20.632715 17.276117 -2.3855996 1
22.158955 17.225443 -2.5695746 0
21.740051 14.493331 -2.5457859 0
11.805879 10.637525 -1.6422136 2
17.236692 14.43257 -2.391432 0
18.035685 14.020185 -2.4957802 0
14.539755 11.302596 -2.3385794 1
13.108363 10.189893 -2.4023061 0
12.200433 9.4841051 -2.5122705 0
10.584762 8.2281504 -2.3782003 0
9.4917879 7.3785186 -2.3817954 0
8.4613628 6.5775084 -2.3132243 0
7.12113 5.5356679 -2.2662494 0
4.9309945 3.8331485 -2.1582232 0
0.71512759 0.55591017 -0.42374101 0
9.7214499 7.5027556 3.2234254 1
10.107206 7.8004723 2.4488826 1
12.596834 9.7219009 2.2037435 1
13.040061 10.063972 1.4072253 0
13.852364 10.690885 0.87600482 0
16.570026 11.849856 0.59962046 1
17.724272 11.726991 0.56171495 0
18.375025 11.220567 0.50663161 0
11.972043 10.711763 0.3300541 0
36.975597 28.536781 0.68399394 0
33.077805 21.885418 0.34682152 0
35.875427 21.907053 0.24504325 0
11.953653 10.69531 0.045631923 0
26.482756 22.017654 -0.0030054569 0
28.480278 21.980318 -0.10925437 0
30.668089 21.931917 -0.22571285 0
33.177826 21.951597 -0.35481414 0
35.846184 21.889196 -0.4999679 0
11.922584 10.667511 -0.23707685 1
26.447817 21.988607 -0.61176854 0
22.452715 17.328407 -0.58765948 1
30.617741 21.89591 -0.89232808 0
26.001024 17.203176 -0.83001029 1
35.795486 21.858236 -1.2418675 0
11.887803 10.636391 -0.51857734 1
26.51218 22.042118 -1.2244928 0
22.380829 17.272928 -1.0870547 1
30.606602 21.887945 -1.5586489 0
25.951376 17.170326 -1.379838 1
11.870192 10.620634 -0.79962844 1
26.408461 21.955887 -1.8281108 0
22.428534 17.309744 -1.5909137 1
30.634651 21.908005 -2.2269938 0
25.943707 17.165253 -1.9293656 1
28.196747 17.218126 -2.1492214 0
11.881608 10.630849 -1.0829887 1
26.514542 22.044081 -2.4462485 0
22.333372 17.236301 -2.0835793 0
24.116301 17.246483 -2.2787299 1
25.951218 17.170223 -2.4812233 0
28.139624 17.183243 -2.7292686 0
11.85369 10.605869 -1.36193 3
20.784809 17.280405 -2.3961961 1
22.263094 17.182062 -2.5746801 0
21.103167 15.091677 -2.4538209 0
