# .PCD v0.7 - Point Cloud Data file format
VERSION 0.7
FIELDS x y z intensity
SIZE 4 4 4 4
TYPE F F F F
COUNT 1 1 1 1
WIDTH 1427
HEIGHT 1
VIEWPOINT 0 0 0 1 0 0 0
POINTS 1427
DATA ascii
3.3726845 5.4438257 -1.0411094 0
3.3665142 5.433866 -1.133907 0
3.1162412 5.0299025 -1.1722413 0
2.932322 4.7330399 -1.2017626 8
2.9519823 4.7647734 -1.3093011 0
2.9278078 4.7257533 -1.3967894 0
3.3231599 5.3638887 -2.1804323 0
2.3851955 3.8499267 -2.118705 0
3.0018945 4.8077683 1.4878129 6
2.9897728 4.7883549 1.0827829 12
3.0029011 4.809381 0.78524828 8
2.9888985 4.7869544 0.48212701 6
2.9769912 4.7678843 0.28140154 7
2.9855111 4.7815294 0.18246955 6
3.2029872 4.7361321 0.16829386 8
3.4202325 4.6817226 0.15324302 6
3.645077 4.6270795 0.13860853 4
2.5588176 4.8491259 0.11264729 6
2.7651801 4.8087955 0.097794116 5
2.9698083 4.7563806 0.08211676 6
3.197432 4.7279181 0.066945381 7
3.418937 4.6799488 0.050680149 8
3.6336479 4.6125712 0.034230039 4
2.5481467 4.8289037 0.015533061 6
2.761622 4.802608 -0.00048345618 7
2.9722319 4.7602615 -0.017042903 5
3.18415 4.7082782 -0.034026943 6
3.4212909 4.6831713 -0.051727377 6
3.6433527 4.6248908 -0.070084065 6
2.5460105 4.8248553 -0.080843203 6
2.7532108 4.7879806 -0.098238647 5
2.9758437 4.7660465 -0.11642154 5
3.2012343 4.7335401 -0.1354655 6
3.4131391 4.6720128 -0.15403679 5
3.6296437 4.6074886 -0.17367204 6
2.5374825 4.8086944 -0.17675819 6
2.7618747 4.8030472 -0.19677065 5
2.9785185 4.77033 -0.21624289 6
3.1904345 4.7175708 -0.23590811 7
3.4109964 4.6690798 -0.25640497 6
3.6247008 4.6012139 -0.27725455 9
2.5319006 4.7981167 -0.27235901 8
2.7636914 4.8062067 -0.2951172 5
2.9781461 4.7697339 -0.3157607 5
3.205498 4.7398448 -0.33834627 8
3.4078002 4.6647048 -0.35828954 9
3.6285152 4.6060562 -0.38144329 4
2.5422983 4.8178205 -0.37003243 6
2.7546985 4.7905674 -0.39204514 6
2.9683974 4.7541208 -0.41394639 5
3.2016544 4.7341614 -0.43925476 7
3.4176581 4.6781988 -0.46197045 5
3.6287246 4.6063218 -0.4854013 5
2.5444467 4.8218923 -0.46683046 6
2.748848 4.7803931 -0.4888466 5
2.9661958 4.7505946 -0.51274788 6
3.1923685 4.7204304 -0.53897434 6
3.3959074 4.6484256 -0.56090301 6
3.6105709 4.5832772 -0.58638263 3
2.5458002 4.8244572 -0.56371427 5
2.7500942 4.7825603 -0.58685708 5
2.9588761 4.7388711 -0.61036927 7
2.9233479 4.6819701 -0.70091873 78
3.3965883 5.4399018 -0.9279294 1
3.4042127 5.4521127 -1.0449607 1
3.372946 5.4020367 -1.1297151 0
2.9800003 4.7727036 -1.1147175 0
2.967463 4.752624 -1.209358 8
2.960345 4.7412243 -1.3056616 2
2.9525046 4.7286668 -1.4006883 1
3.3338542 5.3394279 -2.1752067 0
2.3947818 3.8354304 -2.1153152 0
3.0256786 4.8065567 1.4908596 6
3.024045 4.8039613 1.0888108 14
3.0162864 4.791636 0.78415078 7
3.0127931 4.7860866 0.48314849 7
3.0157287 4.7907505 0.28340158 6
2.9987566 4.7637887 0.18221073 6
3.2270803 4.734272 0.16864693 8
3.4349988 4.665935 0.15313733 4
3.6520674 4.60116 0.13823213 5
2.580332 4.8467746 0.11281162 7
2.7847931 4.8020883 0.09786462 6
2.995744 4.7590032 0.082351044 7
3.2214975 4.7260818 0.067086123 7
3.4526663 4.6899338 0.050924983 4
3.6555028 4.6054883 0.034276675 5
2.5752268 4.8371854 0.015589958 7
2.7771993 4.7889934 -0.00048310711 8
3.0045753 4.7730322 -0.017127937 5
3.2126496 4.7131019 -0.034146674 6
3.4313188 4.6609364 -0.051620357 3
3.6602793 4.611506 -0.070084065 6
2.5674362 4.8225522 -0.080961742 6
2.782779 4.798615 -0.098665461 6
2.9996834 4.7652612 -0.11667012 5
3.2208142 4.7250795 -0.1355603 6
3.4349811 4.6659112 -0.1542497 3
3.6415353 4.5878906 -0.17343526 5
2.5588474 4.8064194 -0.17701812 7
2.7774549 4.7894344 -0.19662869 6
2.9938529 4.7559986 -0.2160892 6
3.2144566 4.7157526 -0.23640475 7
3.4233484 4.6501102 -0.25605059 4
3.6514769 4.6004162 -0.27801105 7
2.5682435 4.8240681 -0.27436462 8
2.7812884 4.7960448 -0.2951172 6
3.0083735 4.7790661 -0.31710628 5
3.2116034 4.7115669 -0.33716571 10
3.4106731 4.6328926 -0.35680389 5
3.6528177 4.6021051 -0.38222229 5
2.5636902 4.8155155 -0.37057462 8
2.7762413 4.7873416 -0.39261127 7
2.9858022 4.7432094 -0.41394639 4
3.2167382 4.7191 -0.43894821 7
3.422962 4.6495852 -0.46038073 4
3.653018 4.6023579 -0.48639125 6
2.5658484 4.8195696 -0.46751297 7
2.7763445 4.7875195 -0.49061266 5
2.9772213 4.729578 -0.51165384 6
3.2208629 4.7251511 -0.54085755 6
3.3893194 4.6038866 -0.557024 3
3.6322937 4.5762477 -0.58718258 4
2.5709445 4.8291416 -0.56535894 5
2.7616186 4.7621264 -0.58558774 5
2.9889348 4.7481856 -0.61297584 7
2.9573998 4.6980896 -0.70494992 39
3.4186125 5.4307666 -0.9285022 0
3.4115529 5.4195518 -1.0411094 0
3.38433 5.3763061 -1.1269205 0
2.999563 4.76507 -1.1154948 0
2.9911113 4.7516432 -1.2118899 6
2.9860024 4.7435279 -1.3093011 6
2.969816 4.717814 -1.4006883 6
3.3433313 5.3111758 -2.1686745 0
2.3953121 3.8051641 -2.1034503 0
3.0507283 4.8090339 1.4949219 6
3.0407956 4.7933764 1.0888108 14
3.0329938 4.7810783 0.78415078 7
3.0273461 4.7721753 0.48280799 6
3.0217328 4.7633266 0.28240156 7
3.0239334 4.7667956 0.18272837 5
3.2367961 4.7130909 0.16829386 5
3.4322102 4.6282215 0.15229185 3
3.6830883 4.6071248 0.13879673 5
2.5991261 4.8412614 0.11289378 8
2.8035569 4.7957911 0.097935133 6
3.0059104 4.7383852 0.082175329 6
3.2425039 4.7214022 0.067179956 6
3.4404254 4.6392994 0.050505273 4
3.6865427 4.6114459 0.034416579 5
2.5958803 4.8352156 0.015612718 7
2.7959177 4.7827234 -0.00048345618 8
3.0383596 4.7895365 -0.017225116 5
3.2381399 4.7150478 -0.034242455 5
3.4404199 4.6392922 -0.051513333 4
3.6888418 4.6143217 -0.070322119 5
2.5993893 4.8417516 -0.081435896 6
2.7954757 4.7819672 -0.098523192 6
3.0270104 4.771646 -0.11708444 5
3.2463439 4.7269936 -0.13593949 4
3.4345748 4.6314101 -0.15350454 4
3.6799972 4.6032577 -0.17450073 5
2.592629 4.8291593 -0.17818785 6
2.7881038 4.7693567 -0.19620278 6
3.0168598 4.7556453 -0.21655028 6
3.2286358 4.7012091 -0.23623921 5
3.4157562 4.6060343 -0.2542786 7
3.6700079 4.5907626 -0.27820018 8
2.5718393 4.7904358 -0.27296069 8
2.8020444 4.7932038 -0.29554245 6
3.0122008 4.748301 -0.3157607 5
3.2280307 4.7003274 -0.33716571 5
3.4220681 4.6145453 -0.35630867 5
3.66886 4.5893264 -0.38222229 5
2.5842593 4.8135695 -0.37111679 8
2.7989764 4.7879558 -0.39346045 6
3.0044777 4.7361264 -0.41424102 5
3.2196448 4.688117 -0.43710905 5
3.4415464 4.640811 -0.46069869 4
3.6815071 4.6051464 -0.48804116 6
2.592082 4.8281407 -0.46921921 7
2.7990718 4.7881184 -0.49167231 5
3.000114 4.7292476 -0.51274788 6
3.2193019 4.6876178 -0.53784442 4
3.4267123 4.6208081 -0.56051511 5
3.6706123 4.5915184 -0.59078246 4
2.5934319 4.8306551 -0.56659245 6
2.7882617 4.7696266 -0.58770335 5
3.0033607 4.7343659 -0.61254138 8
2.9674044 4.6776857 -0.70343822 71
3.0452313 4.8003688 -0.82253498 2
3.0497589 4.8075056 -0.92557329 1
3.0465233 4.8024054 -1.0088488 1
3.0329931 4.7810769 -1.1217136 0
2.9972069 4.7246652 -1.2076701 7
3.0171483 4.7560997 -1.3156701 7
3.0112038 4.7467294 -1.4123851 8
3.378052 5.3250122 -2.179126 0
2.4241066 3.8212552 -2.1170101 0
3.0633285 4.7918363 1.4928907 5
3.0638566 4.7926621 1.0910714 10
3.0646031 4.7938299 0.78799194 5
3.0375454 4.7515049 0.48178655 3
3.0254307 4.732554 0.28120154 3
3.0319407 4.7427373 0.18221073 3
3.248678 4.695188 0.16805848 5
3.46031 4.6322303 0.15282027 4
3.7292423 4.6316171 0.13992593 4
2.6255293 4.8497438 0.11330461 8
2.8284023 4.799758 0.09821716 6
3.0181236 4.7211237 0.082058191 5
3.2407582 4.6837416 0.066804647 5
3.4661734 4.64008 0.050645176 5
3.7076344 4.6047807 0.034463216 5
2.6184554 4.8366771 0.015646856 8
2.8166571 4.7798271 -0.00048415433 8
3.0378237 4.7519398 -0.017127937 4
3.2363713 4.6774015 -0.034050889 5
3.4661679 4.6400723 -0.05165603 5
3.7049263 4.6014171 -0.070322119 5
2.6276991 4.8537517 -0.081791513 6
2.826364 4.7962995 -0.099021144 6
3.0307238 4.7408338 -0.11658726 3
3.2400711 4.6827483 -0.13499153 5
3.4578991 4.629003 -0.15382388 4
3.7110882 4.6090698 -0.17521104 5
2.6094701 4.8200798 -0.17818785 6
2.8372068 4.8146992 -0.1984743 5
3.0269825 4.7349815 -0.2160892 3
3.2382045 4.6800508 -0.23574255 7
3.4605117 4.6325006 -0.25640497 4
3.7110682 4.609045 -0.2800914 7
2.5942514 4.7919683 -0.27356237 8
2.8309264 4.8040414 -0.29681817 7
3.0244548 4.7310276 -0.31531218 3
3.2353301 4.6758966 -0.33622128 5
3.4381549 4.602572 -0.35630867 6
3.6923671 4.5858188 -0.38300127 5
2.604846 4.8115387 -0.37165895 8
2.8197238 4.7850313 -0.39402658 4
3.0145454 4.7155266 -0.41335714 2
3.231451 4.6702905 -0.43649599 5
3.4577248 4.6287699 -0.46069869 5
3.7000597 4.5953727 -0.48837113 6
2.6146119 4.8295774 -0.47024295 6
2.8097 4.7680206 -0.49061266 3
2.9994395 4.6918974 -0.50983042 3
3.22205 4.6567035 -0.53558457 3
3.442821 4.6088185 -0.56051511 5
3.6891136 4.581778 -0.59118247 4
2.5970187 4.79708 -0.56371427 5
2.7968163 4.7461572 -0.58601087 2
3.0091596 4.7071018 -0.61036927 3
2.9944007 4.6840153 -0.70595771 80
3.0598369 4.7863741 -0.82196218 4
3.0516353 4.7735448 -0.92108023 2
3.0441756 4.7618761 -1.002561 4
3.0454366 4.7638483 -1.1201589 2
3.0326345 4.7438226 -1.2152655 6
3.0169475 4.7192841 -1.3083912 8
3.0277545 4.7361889 -1.4123851 8
3.3925462 5.3068175 -2.1765132 0
2.4315758 3.803612 -2.1119251 0
3.0687289 4.7653871 1.4878129 3
3.0584645 4.7494478 1.0835363 8
3.0633223 4.7569914 0.78360206 5
3.0446546 4.7280025 0.48042458 5
3.0432713 4.7258544 0.28140154 4
3.0519807 4.7393794 0.18246955 3
3.266516 4.6876693 0.16817617 6
3.4900737 4.6399035 0.15345439 5
3.7622082 4.6409698 0.14058462 5
2.6262724 4.8129263 0.11264729 5
2.8259263 4.7594023 0.097582594 4
3.0359285 4.7144518 0.08211676 3
3.2654192 4.6860957 0.066992298 5
3.4671154 4.6093812 0.05043532 5
3.7480726 4.6235328 0.034696389 5
2.6229842 4.8069 0.015578579 5
2.8284078 4.7635813 -0.00048345618 4
3.0492342 4.7351141 -0.01710364 3
3.2587249 4.6764889 -0.034122728 5
3.4863448 4.6349463 -0.051727377 3
3.7377956 4.6108551 -0.070655398 6
2.6246226 4.8099027 -0.081198819 3
2.8340862 4.7731447 -0.098736599 3
3.0334375 4.7105837 -0.11609009 5
3.2510092 4.6654162 -0.13480192 5
3.4804413 4.6270976 -0.15414324 4
3.749012 4.6246915 -0.17627652 5
2.6254396 4.8114004 -0.17818785 5
2.8368301 4.7777662 -0.19733854 3
3.0210276 4.6913128 -0.2145523 7
3.2674155 4.6889606 -0.23673585 6
3.4734523 4.617806 -0.25622779 6
3.7414284 4.6153364 -0.28122616 8
2.6101277 4.7833395 -0.27356237 6
2.8284879 4.7637162 -0.29490459 3
3.027154 4.7008262 -0.3139666 5
3.255384 4.6716943 -0.3366935 7
3.4701979 4.6134791 -0.35804194 6
3.7427442 4.6169596 -0.38663656 6
2.6226988 4.8063774 -0.37193003 7
2.8253908 4.7585001 -0.39261127 4
3.0193677 4.688735 -0.41188401 5
3.2492008 4.6628208 -0.43680254 7
3.4922304 4.6427708 -0.46324223 5
3.7454016 4.6202378 -0.49233091 7
2.6134317 4.7893944 -0.4671717 3
2.8132906 4.738121 -0.48849338 4
3.0192957 4.688623 -0.5105598 5
3.248858 4.6623292 -0.53746778 3
3.467658 4.6101027 -0.56206667 4
3.7343619 4.6066194 -0.59598231 5
2.6052885 4.7744708 -0.56206959 3
2.8044169 4.7231765 -0.5843184 4
3.0182941 4.687068 -0.60906595 5
3.0185113 4.6874051 -0.7079733 31
3.0628326 4.7562308 -0.81852537 2
3.1059256 4.8231492 -0.93263388 1
3.0791419 4.7815571 -1.0088488 2
3.067591 4.7636199 -1.122491 1
3.0462325 4.730453 -1.2144216 6
3.0473433 4.7321777 -1.3147603 6
3.037143 4.7163377 -1.4094609 9
3.418314 5.3082528 -2.1817389 0
2.430445 3.774205 -2.1000605 0
3.0874503 4.7578917 1.4888285 4
3.0707471 4.732152 1.0820293 13
3.0820651 4.7495933 0.78415078 6
3.0611393 4.7173457 0.48042458 5
3.0597486 4.7152028 0.28140154 4
3.064153 4.7219896 0.18221073 5
3.2874537 4.6827836 0.16841155 6
3.5062487 4.6276922 0.15345439 4
3.7910304 4.6432967 0.14105512 6
2.627634 4.7756987 0.11198997 5
2.8384151 4.7426457 0.097441576 5
3.048012 4.6971159 0.081999615 4
3.2771606 4.6681213 0.066898473 5
3.5242476 4.6514478 0.051029909 5
3.7818968 4.6321096 0.034859613 6
2.6281779 4.7766871 0.015510301 5
2.836802 4.7399507 -0.00048205993 4
3.0461476 4.6942425 -0.016994314 4
3.2842221 4.6781802 -0.034218509 5
3.51458 4.6386886 -0.051905748 4
3.781693 4.6318603 -0.071179129 7
2.6278999 4.7761822 -0.080783933 5
2.8363535 4.7392011 -0.098238647 5
3.0542154 4.706676 -0.11625581 4
3.2810609 4.6736774 -0.13537072 5
3.5086458 4.630856 -0.15467551 4
3.7727184 4.6208677 -0.17663167 5
2.6210191 4.7636766 -0.17675819 6
2.8391204 4.743824 -0.19634475 6
3.0526152 4.7042093 -0.21562813 6
3.2768743 4.6677136 -0.23623921 9
3.4943769 4.6120234 -0.25658217 5
3.7726777 4.6208177 -0.28236088 8
2.6191056 4.7601986 -0.27276015 7
2.8266377 4.7229671 -0.29299101 4
3.0435441 4.6902308 -0.3139666 4
3.2785542 4.6701069 -0.33740184 8
3.4911027 4.6077018 -0.35853714 7
3.7689352 4.6162338 -0.3876752 4
2.6279175 4.7762141 -0.37030354 5
2.82969 4.7280669 -0.39091289 5
3.055259 4.7082839 -0.41453564 4
3.272332 4.6612434 -0.43772212 5
3.5108232 4.6337299 -0.46356016 4
3.7665489 4.6133113 -0.49299085 7
2.6166856 4.7558002 -0.46478295 5
2.8359511 4.7385287 -0.48955303 3
3.0443165 4.691421 -0.51201856 4
3.2582486 4.6411824 -0.53633785 3
3.4837291 4.59797 -0.56206667 4
3.7529366 4.5966387 -0.59638232 5
2.6123486 4.7479177 -0.56001377 5
2.8229296 4.7167716 -0.58474153 4
3.0432944 4.689846 -0.61080366 5
3.0370145 4.6801682 -0.7084772 30
3.5039399 5.3997202 -0.93136621 0
3.38709 5.2196493 -1.0115836 0
3.4881499 5.3753867 -1.1367015 0
3.0628414 4.7199688 -1.1147175 0
3.0669827 4.7263508 -1.2161095 6
3.0702038 4.7313142 -1.3174899 10
3.0641458 4.7219787 -1.4143345 8
3.4224162 5.2740884 -2.1725938 0
2.4416318 3.7626584 -2.0983655 0
3.1112218 4.7562571 1.4918752 5
3.0923719 4.7274404 1.0835363 11
3.0994525 4.738265 0.78415078 7
3.0893176 4.7227712 0.48212701 4
3.0945055 4.7307024 0.28300157 5
3.0880048 4.7207642 0.18259896 4
3.3069041 4.6739669 0.16852924 6
3.5450246 4.6434145 0.15440555 4
3.8156447 4.6386356 0.14133741 6
2.658705 4.790513 0.11256512 7
2.8599112 4.7390585 0.097582594 5
3.0827229 4.7126894 0.082468189 4
3.3034885 4.6691394 0.067086123 6
3.5534086 4.6543961 0.051204789 5
3.8013899 4.6213064 0.034882929 6
2.6514909 4.7775149 0.015544441 5
2.8541555 4.7295213 -0.00048205993 4
3.0852289 4.7165203 -0.017115789 4
3.3013463 4.6661115 -0.034218509 5
3.5679665 4.6734643 -0.052440859 4
3.806267 4.6272354 -0.071321964 7
2.6609149 4.7944956 -0.081258088 5
2.8619697 4.7424703 -0.098523192 5
3.082392 4.7121835 -0.11667012 4
3.2820013 4.6387691 -0.13470712 4
3.5450068 4.6433907 -0.15552713 4
3.7997892 4.6193604 -0.17710522 6
2.6384614 4.7540383 -0.17675819 5
2.8606188 4.7402315 -0.19662869 4
3.0698366 4.6929893 -0.21562813 5
3.2939603 4.6556721 -0.23623921 7
3.5403566 4.6372995 -0.25870854 5
3.8073561 4.6285596 -0.28368476 8
2.6404123 4.7575531 -0.27316126 7
2.856312 4.7330947 -0.29426673 5
3.0716455 4.695755 -0.31508791 4
3.2979553 4.6613188 -0.33763793 5
3.5273485 4.6202612 -0.36051801 6
3.7883649 4.6054721 -0.38793486 4
2.6395957 4.7560821 -0.36949027 6
2.859369 4.7381606 -0.39261127 5
3.0637603 4.6837006 -0.41335714 4
3.3009114 4.6654968 -0.43925476 6
3.5519795 4.652524 -0.46673959 5
3.7935619 4.6117902 -0.49431077 7
2.6399009 4.7566319 -0.46580669 5
2.8491821 4.7212801 -0.4888466 4
3.0593104 4.676898 -0.51165384 5
3.2959378 4.6584668 -0.53972763 5
3.5440435 4.6421289 -0.56904888 5
3.7874575 4.6043687 -0.59918225 4
2.6432486 4.7626634 -0.56289196 4
2.8504736 4.7234206 -0.58685708 4
3.0735235 4.698626 -0.61341023 6
3.0563202 4.6723266 -0.7089811 56
3.3395038 5.1052413 -0.88267851 1
3.5423596 5.4153557 -1.0520213 0
3.4970484 5.3460865 -1.1332083 0
3.1015995 4.7415471 -1.122491 0
3.0800045 4.7085338 -1.2144216 7
4.0577064 6.2031879 -1.7314801 0
3.1175346 4.7659078 -1.430905 0
3.4665587 5.2994757 -2.188271 0
2.4534233 3.7506523 -2.0966706 0
3.121418 4.7356768 1.4888285 5
3.1347983 4.7559767 1.0925783 11
3.1203346 4.7340331 0.78524828 5
3.1167514 4.7285967 0.48382944 5
3.1000073 4.7031937 0.28200155 5
3.1000645 4.7032804 0.18234013 4
3.3487267 4.6982098 0.16982381 6
3.5807114 4.6563697 0.15525103 5
3.8190577 4.6098914 0.14086692 5
2.6773636 4.7846937 0.11264729 7
2.8847497 4.7427149 0.09786462 6
3.085948 4.6818633 0.08211676 5
3.3220885 4.6608367 0.067133039 5
3.5842636 4.6609888 0.051414646 6
3.82005 4.6110892 0.034906246 6
2.6740112 4.7787027 0.015578579 8
2.8810408 4.7366171 -0.00048380526 5
3.1038754 4.7090621 -0.017127937 4
3.3338656 4.6773596 -0.034386132 4
3.5964494 4.6768351 -0.05261923 5
3.8249474 4.6170006 -0.071369573 6
2.6776345 4.7851777 -0.081258088 5
2.8847418 4.742702 -0.098736599 5
3.1032236 4.7080731 -0.11683585 4
3.326026 4.6663609 -0.13584469 4
3.5636308 4.6341577 -0.15563358 4
3.8362963 4.6306996 -0.17805231 5
2.6589444 4.7517767 -0.17701812 5
2.8896122 4.7507095 -0.19748051 5
3.1015975 4.705606 -0.21670397 5
3.3287489 4.6701813 -0.2375636 5
3.5735736 4.6470876 -0.25994894 6
3.8158426 4.6060104 -0.28311738 9
2.6550522 4.7448215 -0.27296069 7
2.8873465 4.746984 -0.29575506 4
3.1034033 4.7083459 -0.31665775 4
3.3397005 4.6855459 -0.34023514 5
3.5556231 4.6237445 -0.36175606 6
3.7967787 4.5829992 -0.38715586 4
2.6639764 4.7607694 -0.37057462 7
2.8779645 4.7315598 -0.39289433 5
3.0910678 4.6896305 -0.41483027 4
3.338011 4.6831756 -0.4420135 7
3.5852127 4.6622229 -0.4689652 5
3.8020074 4.5893102 -0.49332082 5
2.6662192 4.7647777 -0.46751297 5
2.8718569 4.7215185 -0.48990625 6
3.0843863 4.6794939 -0.5131126 5
3.3445377 4.6923323 -0.54500061 6
3.5626526 4.6328859 -0.56943679 6
3.7984285 4.5849905 -0.59838223 3
2.6656859 4.7638249 -0.56412548 3
2.8834805 4.7406282 -0.59024197 4
3.0986595 4.7011485 -0.61514795 6
3.0769789 4.6682558 -0.70998889 51
3.3485897 5.0803313 -0.88038737 1
3.578624 5.4293294 -1.0571562 0
3.526526 5.3502884 -1.1367015 0
3.1202915 4.7339673 -1.1232684 0
3.1093326 4.7173409 -1.2194853 6
4.1522183 6.2995615 -1.7624156 0
4.1824274 6.3453932 -1.9094979 0
3.4517465 5.2368364 -2.1673682 0
2.4665005 3.7420652 -2.0966706 0
3.1614745 4.7602038 1.4999998 4
3.1492069 4.7417326 1.0918249 12
3.1543767 4.749517 0.78963816 5
3.1508775 4.7442484 0.48655334 5
3.1583993 4.7555742 0.28580159 5
3.1474285 4.7390552 0.18415189 4
3.374434 4.6994829 0.17029455 7
3.6018407 4.6501651 0.1554624 4
3.8248787 4.5842505 0.14049052 5
2.697979 4.7822847 0.11281162 6
2.9033773 4.7360258 0.097935133 5
3.1199737 4.6977167 0.082585327 5
3.3803289 4.7076926 0.067977481 6
3.6274543 4.6832333 0.051799383 5
3.83356 4.594655 0.034882929 4
2.6985373 4.7832747 0.015624097 7
2.9017379 4.7333517 -0.0004845034 6
3.1291456 4.7115269 -0.017176526 4
3.3711689 4.6949353 -0.034601644 5
3.6201007 4.6737394 -0.052726254 4
3.8231039 4.5821233 -0.071036294 4
2.698252 4.7827687 -0.081376627 6
2.9033694 4.7360129 -0.098807737 5
3.1262763 4.7072067 -0.11708444 4
3.365618 4.6872048 -0.13679267 6
3.5920281 4.637496 -0.15616584 4
3.8319457 4.5927205 -0.17710522 4
2.6833727 4.7563944 -0.17753801 5
2.8999097 4.7303696 -0.19705459 4
3.1445403 4.7347064 -0.21854825 5
3.375334 4.700736 -0.23971574 6
3.5922205 4.6377444 -0.26012611 5
3.8344572 4.5957303 -0.28330651 6
2.6755245 4.7424831 -0.27336183 7
2.9080739 4.7436872 -0.29618031 5
3.1330762 4.7174454 -0.31800333 4
3.3700092 4.6933203 -0.34165183 6
3.5815203 4.62393 -0.36274651 7
3.8204248 4.5789123 -0.38793486 3
2.6864612 4.761869 -0.37138787 7
2.9090605 4.7452965 -0.39487579 4
3.1383162 4.7253351 -0.418955 4
3.35899 4.6779742 -0.44262657 7
3.6087899 4.6591368 -0.46991903 5
3.8256657 4.5851936 -0.49431077 4
2.68871 4.7658548 -0.4685367 6
2.9008148 4.7318459 -0.49202552 5
3.1293507 4.7118359 -0.5178535 4
3.3608963 4.6806293 -0.54500061 6
3.5812407 4.623569 -0.5698247 6
3.824609 4.5839272 -0.5999822 3
2.6764333 4.7440944 -0.56289196 4
2.8979316 4.7271428 -0.58981889 4
3.12605 4.7068658 -0.61732006 6
3.0998411 4.6674032 -0.71150059 47
3.3334501 5.019146 -0.87179542 1
3.5997379 5.4200935 -1.057798 0
3.5495379 5.3445082 -1.1380988 0
4.1114831 6.1906238 -1.4722978 1
3.1192901 4.6966877 -1.2169534 8
4.2108169 6.3401895 -1.7778835 0
4.2088437 6.3372188 -1.9114473 0
3.4825549 5.2436523 -2.1752067 0
2.4935789 3.75456 -2.1085353 0
3.2030566 4.7882833 1.5121866 5
3.2020457 4.7867723 1.1046344 12
3.1855304 4.7620835 0.79347938 7
3.1776729 4.7503366 0.48825577 5
3.1674888 4.7351127 0.28520158 6
3.1742411 4.7452068 0.18479894 5
3.3993707 4.7012272 0.17076531 7
3.6270771 4.6508074 0.15588515 4
3.8271992 4.5562315 0.14002003 5
2.7157991 4.7767882 0.11289378 7
2.9358795 4.7535934 0.098499194 5
3.1599967 4.7239127 0.083229616 6
3.400609 4.7029395 0.068071306 6
3.6208258 4.6427917 0.0514846 5
3.8539209 4.5880432 0.034929562 4
2.7183383 4.7812543 0.015646856 6
2.9258263 4.7373161 -0.00048589965 5
3.1669929 4.7343717 -0.017298 5
3.4031255 4.7064199 -0.034769263 5
3.6257401 4.6490927 -0.052583557 4
3.8434229 4.5755453 -0.071131513 4
2.7140975 4.7737947 -0.081376627 6
2.937973 4.7569838 -0.099447958 4
3.161881 4.7267294 -0.11783019 5
3.3881719 4.6857395 -0.13707706 5
3.6172228 4.6381717 -0.15659165 4
3.8420115 4.5738649 -0.17686845 5
2.7030823 4.7544208 -0.17779794 5
2.9407876 4.7615404 -0.19875824 4
3.1580019 4.7209306 -0.21839456 5
3.3885617 4.6862788 -0.23955019 6
3.6124945 4.6321087 -0.26048052 6
3.8393967 4.5707521 -0.28255001 6
2.7070324 4.7613683 -0.2749663 5
2.9426792 4.7646036 -0.29809389 4
3.1598055 4.7236271 -0.31912464 6
3.3925731 4.6918263 -0.34236014 8
3.6066546 4.6246209 -0.36373693 7
3.8253191 4.5539927 -0.38689619 2
2.7042098 4.7564039 -0.37165895 7
2.9394572 4.7593865 -0.39685723 6
3.147315 4.7049546 -0.41807112 4
3.383832 4.6797376 -0.44385266 7
3.621768 4.6440001 -0.46960106 4
3.8357217 4.5663772 -0.49365082 5
2.7143481 4.7742357 -0.47024295 5
2.9416149 4.7628798 -0.49626407 5
3.1582475 4.7212977 -0.52004164 6
3.3833995 4.6791396 -0.54613054 6
3.5941048 4.6085286 -0.56943679 4
3.8269897 4.5559816 -0.59798229 4
2.7137823 4.7732406 -0.56741482 4
2.9177721 4.7242756 -0.5906651 5
3.1482742 4.7063885 -0.61862338 7
3.1153021 4.6570983 -0.71150059 4
3.4073048 5.093616 -0.88668811 1
3.6133018 5.4015636 -1.0565144 0
3.5781913 5.3490763 -1.141592 0
4.1494427 6.2030463 -1.4785166 0
3.1435442 4.6993175 -1.2203292 7
4.2296534 6.3229537 -1.7769736 0
4.2319927 6.3264513 -1.9124221 0
3.4999247 5.2320747 -2.1752067 0
2.5080304 3.7492816 -2.1102302 0
3.2167554 4.7744265 1.5111711 6
3.2179012 4.7761273 1.1046344 12
3.194663 4.7416363 0.79183316 7
3.1911809 4.7364678 0.48791528 5
3.1921022 4.7378354 0.28600159 6
3.1832576 4.7247081 0.18441071 6
3.4102352 4.6834636 0.17052993 7
3.632602 4.6261744 0.1554624 2
3.8732734 4.5801563 0.14114922 5
2.7455411 4.7920456 0.11346893 7
2.9769807 4.7845807 0.099345282 6
3.1801136 4.7200418 0.083346754 5
3.4208949 4.6981034 0.068165131 6
3.6411424 4.6370511 0.051554549 3
3.8639481 4.569129 0.034882929 5
2.7600291 4.8173327 0.015794789 7
2.962651 4.7615504 -0.00048939034 7
3.2027903 4.7536993 -0.017407328 5
3.4187143 4.6951084 -0.034769263 6
3.6460772 4.6433353 -0.052654903 3
3.8766534 4.5841532 -0.071464799 5
2.7458191 4.792531 -0.081850782 6
2.9685214 4.7709851 -0.09994591 5
3.1931796 4.7394347 -0.11841023 5
3.4107537 4.684176 -0.13736145 5
3.6276445 4.6198611 -0.15637875 3
3.8778114 4.5855227 -0.17781554 4
2.7585828 4.8148084 -0.18039733 5
2.9734554 4.7789149 -0.199894 5
3.1825728 4.7236915 -0.21900932 5
3.4205513 4.6976314 -0.24070904 7
3.6179636 4.6075325 -0.25977173 4
3.8622725 4.5671477 -0.28311738 6
2.7446527 4.7904949 -0.27717245 6
2.9647932 4.7649932 -0.29873174 6
3.1843781 4.7263713 -0.32002169 5
3.4034126 4.6740942 -0.34188792 6
3.6145735 4.6032152 -0.3629941 4
3.8584411 4.5626173 -0.38871384 3
2.7517107 4.8028135 -0.37599632 7
2.9531157 4.7462249 -0.39657417 7
3.1807315 4.7209587 -0.4204281 4
3.4087224 4.6813865 -0.44507879 5
3.6272981 4.6194201 -0.46832931 4
3.8662879 4.5718961 -0.49563071 6
2.7499778 4.7997894 -0.47365546 7
2.9658122 4.7666311 -0.49767694 6
3.1694345 4.7041912 -0.51931226 6
3.4129622 4.6872091 -0.54839039 4
3.6167433 4.6059785 -0.57060051 3
3.8369365 4.5371876 -0.59718227 3
2.7454197 4.7918339 -0.57070416 5
2.9607391 4.7584772 -0.5961656 5
3.15942 4.6893272 -0.61775452 6
3.128511 4.6434512 -0.71099669 3
3.6343169 5.394187 -0.9411037 0
3.6510487 5.4190207 -1.0622911 1
3.5871067 5.3241158 -1.1387975 0
3.1658595 4.698885 -1.122491 0
3.1612947 4.6921096 -1.221173 7
4.2462444 6.3024321 -1.7751539 0
4.2659545 6.331687 -1.9182705 0
1.4660512 2.1759672 -0.90666276 0
2.5164008 3.7349348 -2.1068404 0
3.2355745 4.7663698 1.5121866 5
3.2345533 4.7648659 1.1046344 12
3.2312229 4.7599592 0.79677182 7
3.2121716 4.7318945 0.48859623 5
3.2220836 4.7464962 0.28720158 7
3.2109575 4.7301064 0.18505777 5
3.4218328 4.6650839 0.17029455 4
3.6561699 4.6228747 0.15577945 2
3.9099803 4.5909634 0.14190201 5
2.7702529 4.7962852 0.11379759 6
2.9894142 4.7673831 0.099204265 6
3.2010632 4.7155304 0.0834639 6
3.4278107 4.6732335 0.067977481 5
3.6424196 4.6054888 0.051344693 3
3.8928418 4.5708399 0.034999516 5
2.7808292 4.8145967 0.015817549 8
2.9835041 4.7579575 -0.00049008842 9
3.2193642 4.7424903 -0.017407328 4
3.4303505 4.6766963 -0.034721371 4
3.6622636 4.6305799 -0.052654903 3
3.9055986 4.5858183 -0.071702853 5
2.7705331 4.7967701 -0.08208786 6
2.9830322 4.757205 -0.099874772 6
3.2052116 4.7216415 -0.11824451 5
3.4294486 4.6754665 -0.13745625 3
3.6363077 4.5977612 -0.15605938 4
3.8989794 4.5780463 -0.17805231 4
2.7653751 4.7878404 -0.17974748 6
3.0007372 4.78544 -0.20060386 5
3.1967974 4.7092466 -0.21885563 6
3.4251091 4.6695504 -0.23988129 3
3.6365039 4.5980091 -0.25994894 4
3.8911448 4.5688472 -0.28406301 6
2.7573619 4.7739663 -0.27677134 6
2.9920182 4.7715354 -0.29979485 6
3.1918845 4.7020097 -0.31912464 5
3.4149842 4.6557465 -0.3414157 3
3.6231902 4.5811753 -0.36225128 5
3.8924608 4.5703926 -0.39053148 3
2.766463 4.7897234 -0.37572524 7
2.9802635 4.7527895 -0.39798951 7
3.1949506 4.7065263 -0.42013347 4
3.406172 4.6437325 -0.44262657 4
3.6508212 4.6161122 -0.46928313 4
3.8977315 4.5765815 -0.49761057 5
2.7647223 4.7867098 -0.4733142 7
2.9803162 4.7528734 -0.49732372 5
3.1880732 4.6963949 -0.51967692 5
3.4057498 4.643157 -0.54462397 4
3.6253905 4.5839577 -0.56943679 3
3.8733957 4.5480065 -0.60038221 3
2.7720799 4.7994485 -0.57276005 6
2.973105 4.7413735 -0.59531933 5
3.1847026 4.6914301 -0.61949223 6
3.1513867 4.6423516 -0.71250838 3
3.6620176 5.3945689 -0.9433949 0
3.6765947 5.4160428 -1.0642167 1
3.6255779 5.3408895 -1.1450853 0
3.2042801 4.7202697 -1.1302645 0
3.1952224 4.7069263 -1.2279246 7
4.2375903 6.2424531 -1.7624156 0
4.292388 6.3231764 -1.9202199 0
3.526963 5.1956182 -2.169981 0
2.5294228 3.7261279 -2.1068404 0
3.2530227 4.7544789 1.5121866 4
3.251996 4.7529783 1.1046344 9
3.2531223 4.7546248 0.79786932 4
3.2429965 4.7398252 0.49063915 3
3.2304354 4.7214661 0.28640157 4
3.2237577 4.7117066 0.18479894 3
3.4484146 4.6653719 0.17076531 4
3.6681051 4.603189 0.15556808 3
3.9606323 4.6160555 0.14312531 5
2.7898264 4.7895546 0.11387976 8
3.0154159 4.769917 0.099486299 6
3.2296174 4.7202706 0.083756752 5
3.4496706 4.6670713 0.068071306 4
3.676724 4.6140051 0.051589526 3
3.9486382 4.6020765 0.03534928 4
2.7863772 4.7836332 0.015749272 7
3.0094721 4.7605147 -0.00049148471 8
3.2163966 4.7009478 -0.017298 4
3.4332032 4.6447926 -0.034577698 4
3.6742258 4.6108699 -0.052583557 3
3.9510295 4.6048636 -0.072226577 5
2.798161 4.803864 -0.082384206 7
3.0068593 4.7563815 -0.10008818 5
3.222496 4.7098622 -0.11824451 4
3.4251695 4.6339235 -0.13660307 4
3.6506431 4.5812755 -0.15595293 4
3.9183362 4.5667601 -0.1781707 5
2.7889416 4.7880359 -0.18013738 7
3.0246646 4.7845469 -0.20102976 4
3.2185504 4.7040958 -0.21916302 4
3.4184451 4.6248264 -0.2382258 5
3.6558228 4.5877752 -0.26012611 5
3.9338818 4.5848784 -0.28595424 7
2.7828841 4.7776361 -0.27757356 7
3.0073519 4.7571611 -0.29958224 5
3.2203729 4.7067595 -0.32024595 3
3.4272783 4.6367764 -0.34094349 4
3.6424451 4.5709872 -0.36249888 5
3.935178 4.5863891 -0.3931281 5
2.7900257 4.789897 -0.37653852 8
2.997663 4.7418346 -0.39798951 7
3.2076747 4.6882005 -0.41954425 2
3.4184277 4.6248031 -0.4420135 5
3.665231 4.5995822 -0.4689652 4
3.9430332 4.5955443 -0.50124037 5
2.7942836 4.7972069 -0.4753617 5
2.999845 4.7452865 -0.49767694 4
3.1940186 4.6682415 -0.5178535 3
3.4322128 4.6434526 -0.54613054 4
3.6372054 4.5644121 -0.56866097 4
3.9159548 4.5639849 -0.6043821 4
2.7896523 4.7892561 -0.57276005 6
2.9947138 4.7371693 -0.5961656 3
3.2063673 4.6862893 -0.62036109 4
3.1818249 4.6504192 -0.71553171 3
3.6862364 5.3876457 -0.9445405 0
3.6986504 5.4057894 -1.0648586 0
3.6540253 5.3405671 -1.1478798 1
3.2126968 4.6955404 -1.1271551 0
3.2168684 4.7016373 -1.2296125 6
4.2340479 6.1883035 -1.7514973 0
4.326488 6.3234105 -1.9250935 0
3.5673308 5.2138586 -2.1830454 0
2.561476 3.7437439 -2.1220951 0
3.2674031 4.7399092 1.5111711 3
3.2641079 4.7351289 1.1031274 9
3.2472115 4.710618 0.79238188 5
3.2301159 4.6858182 0.48621285 4
3.2378271 4.6970043 0.28560159 4
3.2288396 4.6839666 0.18415189 4
3.4622912 4.6500988 0.17064762 5
3.6991675 4.6090674 0.1562022 3
3.9897938 4.6173306 0.1435958 6
2.8105776 4.7866845 0.11404409 8
3.0363455 4.7661076 0.099627316 5
3.2301846 4.6859174 0.083346754 3
3.4611638 4.6485848 0.067977481 5
3.7003181 4.6105013 0.051694453 3
3.9882152 4.6155038 0.035559136 5
2.8131845 4.7911248 0.01580617 8
3.0131762 4.7297387 -0.00048939034 6
3.2395971 4.6995721 -0.017334443 3
3.4446182 4.6263633 -0.034529805 4
3.6978087 4.6073742 -0.052690577 3
3.97754 4.6031499 -0.072417028 5
2.8068118 4.7802715 -0.082147129 6
3.0191467 4.7391105 -0.09994591 4
3.2230284 4.6755366 -0.11766447 4
3.4389362 4.618732 -0.13650829 4
3.6991487 4.6090441 -0.15733682 3
3.9708509 4.5954084 -0.17982809 5
2.8076622 4.7817197 -0.18026735 7
3.0306084 4.757102 -0.20031992 3
3.2236085 4.6763778 -0.21839456 5
3.458436 4.6449213 -0.23988129 4
3.6793182 4.5843358 -0.26065773 4
3.9707608 4.595304 -0.28746721 8
2.8015666 4.771338 -0.27777413 7
3.0239396 4.746634 -0.29958224 3
3.216383 4.6658964 -0.31822759 4
3.4529815 4.6375957 -0.34188792 6
3.6683738 4.5706992 -0.36348933 5
3.9772611 4.6028271 -0.39572471 5
2.814811 4.7938948 -0.37762284 8
3.0120535 4.7279768 -0.39770645 3
3.2059073 4.6506996 -0.41718724 5
3.4440782 4.6256375 -0.44323963 6
3.6862555 4.5929794 -0.46960106 5
3.9512315 4.5727034 -0.5002504 7
2.8089936 4.7839875 -0.47502047 5
3.0185323 4.7381463 -0.49803013 3
3.2080336 4.6537838 -0.51748884 4
3.4388883 4.6186671 -0.54462397 4
3.6655753 4.5672121 -0.57060051 4
3.9500775 4.5713677 -0.60718203 4
2.7922502 4.7554712 -0.56988186 3
3.0026832 4.7132678 -0.59447312 2
3.2136786 4.661973 -0.61862338 5
3.2092993 4.6556201 -0.7180512 3
3.3747363 4.8956137 -0.86033946 0
3.7219791 5.3993468 -1.0661423 0
3.6681743 5.3212938 -1.1464826 0
3.2402024 4.7004504 -1.1310419 0
3.2487946 4.7129145 -1.23552 5
4.2600446 6.1798997 -1.753317 0
4.3507361 6.3114634 -1.9260683 0
3.576926 5.1889234 -2.1778195 0
2.5519087 3.7019663 -2.1034503 0
3.2618592 4.6966977 1.5010153 4
3.2738941 4.7140269 1.1008669 10
3.2681549 4.7057629 0.79347938 6
3.2600935 4.6941552 0.48825577 4
3.2405298 4.6659861 0.28440157 4
3.2520118 4.6825185 0.18454012 5
3.4952948 4.6603756 0.17147143 5
3.7252886 4.6085653 0.15662493 3
4.005887 4.6033754 0.1435958 6
2.8191216 4.7630787 0.11371543 3
3.0335181 4.7251902 0.098992743 3
3.24424 4.6713285 0.083288185 4
3.4845688 4.6460743 0.068118222 4
3.7239327 4.6068883 0.051799383 4
4.0121794 4.6106062 0.035629086 5
2.8115556 4.7502956 0.015703754 3
3.0275066 4.7158265 -0.00048904127 4
3.2422915 4.6685228 -0.017261557 4
3.4607463 4.6143112 -0.034529805 3
3.723927 4.6068811 -0.052833274 4
4.0093379 4.6073408 -0.072702691 6
2.8112583 4.7497935 -0.081791513 3
3.0140641 4.6948876 -0.099234551 4
3.2575793 4.6905351 -0.11832737 5
3.4670343 4.622695 -0.13698226 5
3.7026465 4.580555 -0.15680456 3
3.9842432 4.5785031 -0.17970972 5
2.7978644 4.7271638 -0.17857775 3
3.025599 4.7128549 -0.19890021 4
3.2421923 4.6683798 -0.21854825 5
3.4626389 4.6168346 -0.23905355 5
3.6978102 4.5745721 -0.26083493 5
3.9972689 4.5934715 -0.28822371 8
2.8121002 4.7512159 -0.27717245 4
3.0189109 4.7024369 -0.29745603 5
3.2508752 4.6808825 -0.32002169 4
3.4811277 4.6414862 -0.34306848 6
3.6868162 4.5609713 -0.36373693 5
3.9854431 4.5798817 -0.39494571 6
2.8193316 4.7634339 -0.37599632 4
3.0242276 4.7107186 -0.39714029 4
3.2198462 4.6362042 -0.41689262 4
3.4745612 4.632731 -0.44507879 5
3.7248251 4.6079922 -0.47246256 5
3.9854875 4.5799327 -0.50256032 6
2.8094366 4.7467151 -0.47229046 5
3.0135276 4.6940517 -0.49449801 4
3.2242587 4.6425576 -0.51748884 2
3.4717147 4.6289358 -0.54726046 4
3.7165334 4.5977345 -0.57603109 4
3.986912 4.5815701 -0.6103819 5
2.7926204 4.7183037 -0.56659245 4
3.0126703 4.6927166 -0.59320378 4
3.2458098 4.6735888 -0.62166435 5
3.2232671 4.64113 -0.7175473 3
3.6831114 5.3032517 -0.93423015 0
3.6980128 5.3247085 -1.0539469 0
3.6530271 5.2599339 -1.1360029 0
3.4266937 4.9340405 -1.1901203 3
3.2451527 4.6726422 -1.2279246 5
3.7505574 5.4003668 -1.5358584 2
4.3904443 6.3217287 -1.9338661 0
3.5820773 5.1577744 -2.169981 0
2.5834162 3.7198188 -2.118705 0
3.3048499 4.7233233 1.5132022 5
3.2948332 4.7090073 1.1023738 11
3.2800186 4.6878338 0.79238188 6
3.2696049 4.6729507 0.48723429 4
3.2819908 4.6906528 0.28660157 4
3.2637529 4.664587 0.1842813 4
3.5260019 4.6672878 0.17217757 5
3.7741716 4.6358457 0.15799883 4
4.037745 4.607409 0.1441604 4
2.8357303 4.7532091 0.11371543 5
3.0434766 4.7044988 0.098781221 4
3.2559407 4.6534214 0.08317104 5
3.5079982 4.6434565 0.068258956 4
3.7601936 4.6186762 0.05207919 4
4.0229759 4.5905566 0.035582453 5
2.8240211 4.733582 0.015680995 4
3.048295 4.711947 -0.00048973935 5
3.2769134 4.6833959 -0.017358737 4
3.5033543 4.6373096 -0.034793209 4
3.7728143 4.6341786 -0.053297035 4
4.0227594 4.5903096 -0.072655082 7
2.8257716 4.7365165 -0.081732243 5
3.0369513 4.6944122 -0.099447958 4
3.2716398 4.675859 -0.11824451 4
3.5024333 4.6360903 -0.13774064 5
3.7615299 4.6203179 -0.15861425 4
4.0160117 4.5826097 -0.18042003 5
2.8225415 4.731102 -0.17909764 6
3.0333464 4.6888399 -0.19833232 4
3.2607596 4.6603088 -0.21870194 6
3.5004153 4.6334195 -0.24054348 5
3.7642145 4.6236157 -0.26437888 5
4.0238118 4.5915103 -0.28898022 7
2.8225274 4.7310786 -0.27657077 6
3.041816 4.7019315 -0.29809389 4
3.267195 4.6695061 -0.32002169 5
3.5021222 4.6356788 -0.3435407 6
3.7531257 4.6099949 -0.36868909 6
4.0092974 4.5749483 -0.39572471 4
2.8195844 4.7261453 -0.37382764 6
3.0493217 4.7135339 -0.39827257 4
3.2520187 4.6478162 -0.418955 4
3.5003273 4.6333032 -0.44630489 5
3.7710965 4.6320686 -0.47627786 5
3.9909403 4.5540013 -0.50124037 5
2.8137367 4.7163434 -0.47024295 5
3.0450439 4.7069216 -0.4969705 4
3.2381608 4.6280107 -0.51712412 2
3.5142565 4.6517406 -0.55140352 4
3.7401006 4.593996 -0.57719481 5
3.9635332 4.522727 -0.6043821 4
2.8172274 4.7221947 -0.56823713 3
3.0355144 4.6921906 -0.59447312 3
3.250706 4.6459398 -0.61949223 5
3.2553725 4.6526098 -0.72107458 3
3.6584797 5.228734 -0.92334706 0
3.6667814 5.2405992 -1.0398258 0
3.6555603 5.2245617 -1.1311123 0
3.448395 4.9284792 -1.1916749 2
3.2816174 4.6901188 -1.23552 5
3.6688986 5.2436247 -1.4949143 1
3.7630663 5.3782105 -1.6492447 0
3.6173987 5.1700211 -2.1804323 0
2.5673056 3.6692176 -2.0949755 0
3.3168592 4.7054343 1.5111711 5
3.3089874 4.6942668 1.1016204 10
3.3214726 4.7119789 0.79841805 6
3.2973773 4.6777964 0.48893672 4
3.2960422 4.6759024 0.28640157 4
3.3030491 4.6858425 0.18557541 4
3.5810118 4.7058597 0.17406057 7
3.7928662 4.6257353 0.15810452 5
4.016758 4.5513115 0.14284301 4
2.8481834 4.7364273 0.1135511 5
3.0773523 4.7206492 0.099345282 5
3.2813816 4.6551042 0.083405323 4
3.5556731 4.6725616 0.068868831 5
3.7940457 4.6271734 0.052324019 5
4.0283885 4.5644898 0.035489183 4
2.8590796 4.7545471 0.015783411 5
3.0756459 4.7180319 -0.00049148471 5
3.2863276 4.6621208 -0.017322296 4
3.5510094 4.6664329 -0.035104502 4
3.8016479 4.6364455 -0.053475406 4
4.028172 4.5642443 -0.072464637 4
2.854655 4.747189 -0.08208786 4
3.0642395 4.7005339 -0.099803634 4
3.2879415 4.6644106 -0.11824451 4
3.5476542 4.6620235 -0.13887821 4
3.7776349 4.6071591 -0.15861425 4
4.0214009 4.556572 -0.17994648 4
2.8637624 4.7623343 -0.18065727 4
3.0693419 4.7083616 -0.19961007 4
3.283916 4.6586995 -0.21916302 5
3.5480304 4.662518 -0.24269563 6
3.7803311 4.6104474 -0.26437888 5
4.0213084 4.5564671 -0.28765634 5
2.8390253 4.7211976 -0.27657077 5
3.0756607 4.7180543 -0.29979485 4
3.2857752 4.6613374 -0.32024595 4
3.5642257 4.6838007 -0.34802681 7
3.7742574 4.6030402 -0.36918432 6
4.0093951 4.5429688 -0.39416674 4
2.8442914 4.7299552 -0.37491199 6
3.0657563 4.7028608 -0.39827257 5
3.2659242 4.6331758 -0.41866037 4
3.5502915 4.6654897 -0.4505963 6
3.7973549 4.6312099 -0.47754964 5
4.0068126 4.5400424 -0.50124037 6
2.8383987 4.7201552 -0.47160795 5
3.0658073 4.702939 -0.49767694 4
3.2749507 4.6459813 -0.52040631 2
3.5521762 4.6679664 -0.5547933 5
3.7662108 4.5932269 -0.57874638 4
3.9977312 4.5297523 -0.60718203 3
2.8295929 4.705512 -0.56741482 3
3.0562189 4.6882305 -0.59531933 4
3.2806492 4.6540651 -0.62209874 4
3.2738795 4.6444616 -0.72157848 3
3.649339 5.177104 -0.91647351 0
3.4371071 4.8760228 -0.96986216 0
3.6510832 5.1795783 -1.1241258 0
3.5966952 5.1024213 -1.2367612 1
3.2934632 4.6722436 -1.2338321 6
3.6490288 5.1766639 -1.4794465 1
3.7482901 5.3174801 -1.6346238 0
3.6245322 5.141912 -2.1739004 0
2.5842724 3.6661563 -2.0983655 0
3.3548403 4.7259574 1.5213268 4
3.3427279 4.7088943 1.1076484 10
3.3439608 4.7106314 0.80006427 5
3.3336349 4.6960855 0.49200109 4
3.3392806 4.7040381 0.28880161 4
3.3370838 4.7009435 0.1866107 4
3.5795748 4.6717424 0.17323676 7
3.8081849 4.6131325 0.15810452 5
4.0371404 4.5439448 0.14303121 4
2.8721628 4.7406373 0.11387976 6
3.0842092 4.6970458 0.099063255 5
3.3037462 4.6539812 0.083581038 4
3.588177 4.6829691 0.06919723 5
3.8144619 4.6207361 0.052393973 6
4.0408463 4.5481162 0.035465866 3
2.8810484 4.7553034 0.015817549 6
3.1000569 4.7211809 -0.00049288099 6
3.3202932 4.6772909 -0.017419476 3
3.5786281 4.670507 -0.035224233 5
3.8195488 4.6268983 -0.053511083 4
4.0353155 4.5418911 -0.072321802 4
2.8890336 4.7684836 -0.082621284 4
3.0951765 4.7137485 -0.10030159 4
3.3288558 4.6893525 -0.11915599 4
3.5679588 4.6565824 -0.13906781 5
3.8005288 4.603858 -0.15893361 4
4.0391445 4.5462008 -0.18006487 3
2.8691807 4.7357149 -0.18000741 5
3.1024919 4.7248893 -0.20074582 5
3.3201702 4.6771173 -0.22054623 5
3.5731952 4.6634164 -0.24335784 6
3.8083189 4.6132946 -0.26526487 6
4.0390496 4.5460939 -0.28784546 6
2.8629456 4.7254238 -0.27737302 6
3.0847125 4.6978126 -0.29915699 5
3.3289564 4.6894946 -0.32293707 4
3.5748808 4.6656165 -0.34755459 7
3.7869596 4.5874205 -0.36893672 6
4.0244384 4.5296483 -0.39416674 4
2.8620284 4.7239103 -0.37518308 6
3.0857148 4.6993389 -0.3988387 5
3.3251443 4.6841245 -0.42425823 3
3.5900002 4.685349 -0.45366156 6
3.8101535 4.6155171 -0.47723168 4
4.0377321 4.544611 -0.50322026 5
2.8746867 4.744803 -0.47502047 5
3.0791991 4.6894159 -0.49732372 5
3.3180089 4.6740727 -0.52478254 5
3.5821683 4.6751275 -0.55705315 6
3.7940941 4.5960631 -0.58068591 4
4.039165 4.5462236 -0.61118186 3
2.8719838 4.7403417 -0.57276005 3
3.0761154 4.6847196 -0.5961656 3
3.3213837 4.6788273 -0.62687749 5
3.2938573 4.6400504 -0.72258627 3
3.3983753 4.7872849 -0.84945637 0
3.6292348 5.1124959 -1.019286 0
3.6408815 5.1289029 -1.1157421 0
3.5000322 4.9304891 -1.1978937 0
3.3112025 4.664485 -1.234676 9
3.6391187 5.1264195 -1.4685282 1
3.7277277 5.2512431 -1.6180533 0
3.6459408 5.1360297 -2.1765132 0
2.6110969 3.6782472 -2.1102302 0
3.3960724 4.7488351 1.5324981 5
3.3934216 4.7451282 1.118951 10
3.3765171 4.7214899 0.80390543 6
3.3731902 4.7168379 0.49540594 5
3.3580041 4.6956029 0.28900158 5
3.3720775 4.715282 0.18764599 5
3.5958602 4.6592188 0.17323676 6
3.8293772 4.6059604 0.15831588 3
4.0716419 4.5506864 0.1436899 5
2.8970306 4.7442355 0.11420842 6
3.1204474 4.7162704 0.099697821 5
3.3502164 4.6847129 0.084342465 4
3.592283 4.6545839 0.068962663 6
3.8228967 4.598166 0.052289046 3
4.0753675 4.5548496 0.035629086 4
2.8997147 4.748631 0.015828928 6
3.1165178 4.710331 -0.00049288099 5
3.3459067 4.6786866 -0.017468065 4
3.6046848 4.6706529 -0.035320014 5
3.8356764 4.6135373 -0.053511083 2
4.080482 4.5605659 -0.072845526 4
2.8994083 4.7481294 -0.082443476 5
3.1027844 4.6895742 -0.10001705 4
3.3498569 4.6842103 -0.11932172 5
3.5793049 4.6377678 -0.13887821 4
3.8063507 4.5782642 -0.15850779 3
4.0603213 4.5380335 -0.18030164 3
2.8898613 4.7324953 -0.18026735 6
3.1167603 4.7106972 -0.20060386 4
3.362052 4.701263 -0.22223683 6
3.6041028 4.669899 -0.24435113 6
3.8192899 4.5938277 -0.26491046 4
4.0389085 4.514101 -0.28671071 6
2.8815055 4.718811 -0.27757356 6
3.1209285 4.7169971 -0.30107057 4
3.354598 4.6908398 -0.32383412 4
3.6009037 4.6657534 -0.34849903 6
3.8029497 4.5741735 -0.36893672 4
4.0561943 4.533421 -0.39572471 3
2.8889003 4.7309208 -0.37653852 6
3.1285193 4.7284703 -0.40223548 5
3.3507564 4.6854682 -0.42543671 4
3.591713 4.6538448 -0.4518224 6
3.816045 4.5899248 -0.47595993 3
4.058887 4.5364308 -0.5038802 5
2.8808467 4.7177324 -0.4733142 6
3.1241305 4.721837 -0.50191545 5
3.3389385 4.6689429 -0.52551192 6
3.5863004 4.646832 -0.55516994 5
3.7872081 4.5552397 -0.57719481 3
4.0523553 4.5291305 -0.61078191 3
2.8864398 4.7268915 -0.57234883 4
3.1078126 4.6971741 -0.59912735 5
3.3492608 4.6833768 -0.6290496 5
3.3100338 4.6285243 -0.72258627 3
3.5946841 5.0265603 -0.89413446 0
3.6401687 5.0901623 -1.0173604 0
3.6358526 5.0841269 -1.1087556 0
3.4053826 4.7618537 -1.1598037 2
3.3433852 4.6751609 -1.2405835 8
3.6343331 5.0820022 -1.4594294 1
3.676079 5.140377 -1.5878366 1
3.6638465 5.1232719 -2.1765132 0
2.6281357 3.6750047 -2.1136203 0
3.408931 4.7300787 1.5304669 6
3.4130874 4.7358456 1.1197045 11
3.3984327 4.7155118 0.80500293 7
3.3881254 4.7012095 0.49506545 4
3.4032211 4.7221556 0.29140162 5
3.3823245 4.6931605 0.18725775 5
3.6325488 4.671258 0.17417826 4
3.8179896 4.5581751 0.15715335 3
4.1043582 4.5535545 0.14425449 4
2.9395597 4.7744508 0.11519438 4
3.1554646 4.7314196 0.10026188 5
3.3720412 4.6788921 0.08445961 5
3.6191404 4.6540151 0.069150314 6
3.8294508 4.5718579 0.052149139 3
4.0973902 4.5458245 0.035675723 5
2.9296825 4.7584085 0.015897205 4
3.149297 4.7221718 -0.00049532444 6
3.4027903 4.7215581 -0.017674573 5
3.6217799 4.6574097 -0.035320014 4
3.8371499 4.5810499 -0.053297035 3
4.1052032 4.5544925 -0.072988361 4
2.9293728 4.7579055 -0.082799092 4
3.1532371 4.7280793 -0.10108408 4
3.3880465 4.7011003 -0.12006748 4
3.6208277 4.6561852 -0.13982619 4
3.8231053 4.5642824 -0.15850779 4
4.0876341 4.5350008 -0.18077518 3
2.9197633 4.7422976 -0.18104717 5
3.1584024 4.7358246 -0.20216553 4
3.3792603 4.6889091 -0.22223683 7
3.6015677 4.6314178 -0.24302673 6
3.8181396 4.5583544 -0.26367009 5
4.0821772 4.5289464 -0.28860196 5
2.9176314 4.7388349 -0.27937859 5
3.1625748 4.7420807 -0.3034094 5
3.3811085 4.6914735 -0.32473117 4
3.6155295 4.6493716 -0.34826291 7
3.8094347 4.5479617 -0.36794627 3
4.0914898 4.539278 -0.39754236 4
2.9187739 4.7406907 -0.37816504 6
3.1391876 4.7070131 -0.40138629 5
3.3585777 4.6602106 -0.42425823 5
3.623436 4.6595392 -0.45366156 4
3.825161 4.5667367 -0.4750061 3
4.0754867 4.5215235 -0.5038802 4
2.9315503 4.7614422 -0.47877422 6
3.1480484 4.7202992 -0.50297511 6
3.3816471 4.6922207 -0.52952343 6
3.6008637 4.6305127 -0.5547933 3
3.8038783 4.541328 -0.57719481 2
4.0769224 4.5231166 -0.61198187 3
2.9287772 4.756938 -0.57728291 5
3.1426635 4.712225 -0.60251224 5
3.3733783 4.6807475 -0.63035285 6
3.3362563 4.6292386 -0.72460186 3
3.5482748 4.9234257 -0.87809616 0
3.6218662 5.025538 -1.0070906 0
3.6222236 5.0260339 -1.0989745 1
3.3929892 4.7079587 -1.1496981 1
3.3673563 4.6723914 -1.2431154 10
3.3637064 4.6673269 -1.3438761 4
3.3637378 4.6673708 -1.4455259 3
3.6649163 5.0852723 -2.1660616 0
2.6288772 3.6477113 -2.1034503 0
3.4481509 4.7494588 1.5406226 5
3.4319055 4.7270823 1.1204579 13
3.4404776 4.7388892 0.81103909 6
3.4209051 4.7119303 0.49744886 5
3.4032538 4.6876178 0.2900016 5
3.4033835 4.6877966 0.18751658 5
3.6389706 4.6459589 0.17370752 4
3.8699729 4.5876093 0.15863295 3
4.157856 4.5806537 0.14557189 5
2.9519906 4.7573643 0.11503006 5
3.1875756 4.7436128 0.10075544 6
3.4024513 4.686512 0.084811032 5
3.6304312 4.6350565 0.069056489 4
3.8634396 4.579864 0.052393973 4
4.129364 4.5492644 0.035815626 4
2.9526017 4.7583494 0.015931344 5
3.174685 4.7244296 -0.00049672072 6
3.4098504 4.6967039 -0.017625982 4
3.6182833 4.6195474 -0.035128448 3
3.8660123 4.5829144 -0.053475406 3
4.1533356 4.5756741 -0.073559701 5
2.956507 4.7646432 -0.083095439 5
3.1741831 4.7236829 -0.10122635 5
3.3997364 4.6827726 -0.11990175 4
3.617332 4.6183329 -0.13906781 3
3.844171 4.5570226 -0.1587207 3
4.1491232 4.571033 -0.18278775 4
2.9362993 4.7320766 -0.18104717 5
3.1771441 4.7280893 -0.20230749 4
3.405 4.6900229 -0.22285159 6
3.6127834 4.6125255 -0.24269563 4
3.8391812 4.5511074 -0.26402447 4
4.1221304 4.5412955 -0.29030406 6
2.9510064 4.7557783 -0.28098306 6
3.1791084 4.7310123 -0.3034094 5
3.3998101 4.6828742 -0.32495543 5
3.6194255 4.6210055 -0.34708235 5
3.8304355 4.54074 -0.36844149 2
4.1234069 4.5427017 -0.3991003 5
2.9458251 4.7474284 -0.37952045 7
3.1645005 4.7092733 -0.40251854 6
3.393573 4.6742835 -0.42661521 4
3.6200044 4.6217446 -0.45120934 5
3.8667886 4.5838346 -0.47818553 4
4.139472 4.5604005 -0.50981987 4
2.9565582 4.7647257 -0.48013923 7
3.1711726 4.7192025 -0.50403476 6
3.388644 4.6674943 -0.52806473 5
3.607183 4.6053753 -0.55328673 4
3.8325422 4.5432372 -0.57913429 3
4.1194358 4.5383267 -0.61598176 4
2.9348752 4.7297821 -0.57522702 5
3.1657481 4.7111301 -0.60378158 5
3.3920324 4.6721616 -0.63078731 5
3.3617198 4.6304092 -0.72661746 3
3.3654208 4.6355066 -0.82883573 2
3.6231494 4.9905005 -1.0025975 0
3.6166067 4.9814882 -1.091988 1
3.4070969 4.6929111 -1.1489209 2
3.3767538 4.6511168 -1.2405835 8
3.3731124 4.646101 -1.3411465 7
3.366334 4.6367645 -1.4396776 6
3.6870868 5.078567 -2.1686745 0
2.637337 3.6326492 -2.1000605 0
3.4532897 4.7217789 1.5355448 4
3.4460664 4.7119026 1.1197045 9
3.4499819 4.7172561 0.80939287 4
3.4279218 4.6870928 0.49608693 2
3.4195964 4.6757092 0.2900016 3
3.429167 4.6887956 0.18803422 3
3.6502132 4.6269498 0.17347214 5
3.8833742 4.5710254 0.15852726 3
4.1819139 4.5749674 0.14585419 5
2.9940238 4.7877202 0.11601603 7
3.2041144 4.7324572 0.10075544 6
3.4353173 4.6972046 0.08522103 4
3.6564977 4.6349163 0.069244139 4
3.887172 4.5754952 0.052498899 4
4.1910963 4.5850129 0.036212023 5
2.9840395 4.7717543 0.016011002 7
3.195642 4.7199435 -0.00049741881 6
3.4262245 4.684772 -0.017625982 4
3.641819 4.6163096 -0.035200287 4
3.8793967 4.5663433 -0.053439733 3
4.1935692 4.587718 -0.073988207 6
2.9837239 4.7712498 -0.083391778 5
3.2063479 4.7357564 -0.1017243 5
3.4160621 4.6708765 -0.11990175 2
3.6309543 4.6025376 -0.13897301 4
3.8833549 4.5710025 -0.15967877 3
4.1650534 4.5565224 -0.18278775 5
2.9633982 4.7387471 -0.18169701 5
3.2093167 4.7401409 -0.20330128 4
3.4237103 4.6813345 -0.22300528 3
3.6288624 4.5998859 -0.24269563 4
3.8705678 4.5559511 -0.26508766 4
4.1703057 4.5622683 -0.29257354 7
2.9718254 4.752223 -0.28138417 6
3.1911244 4.7132711 -0.30298418 5
3.4279239 4.6870956 -0.32607675 2
3.635534 4.6083431 -0.34708235 5
3.8566017 4.5395122 -0.36943191 3
4.1553969 4.545958 -0.40065828 5
2.9729588 4.7540355 -0.38087589 7
3.1921041 4.7147183 -0.40393388 5
3.4051595 4.6559691 -0.42602596 2
3.6484666 4.6247358 -0.45274198 5
3.887929 4.5763865 -0.4788214 4
4.1553655 4.5459237 -0.50981987 6
2.968946 4.7476182 -0.47945672 6
3.1943278 4.7180028 -0.50509441 5
3.4002137 4.6492066 -0.52733535 3
3.6405022 4.6146407 -0.55592322 4
3.8561106 4.5389338 -0.58029801 3
4.1433082 4.532733 -0.61718172 4
2.9640253 4.7397494 -0.57769406 5
3.1844039 4.7033448 -0.60420471 3
3.3965845 4.6442442 -0.62861514 3
3.3778629 4.6186457 -0.72661746 3
3.3956032 4.6429024 -0.83227247 2
3.607918 4.9332066 -0.99361128 0
3.6083984 4.9338636 -1.0843029 0
3.4188254 4.674655 -1.1473662 2
3.409126 4.6613932 -1.2464911 9
3.405406 4.6563063 -1.3475156 8
3.4054008 4.6562991 -1.4494249 8
3.7137194 5.0778718 -2.1739004 0
2.654279 3.6292694 -2.1034503 0
3.4674554 4.7065811 1.5345292 3
3.464823 4.7030082 1.1204579 8
3.4476259 4.6796656 0.80500293 4
3.4371696 4.6654725 0.49506545 4
3.4311574 4.6573119 0.28960159 4
3.4407699 4.6703596 0.1877754 3
3.6663418 4.6141806 0.17347214 5
3.9175034 4.5787101 0.15926705 3
4.2032747 4.566226 0.14604239 6
3.01285 4.7806234 0.11609819 6
3.2206147 4.7212439 0.10075544 5
