# .PCD v0.7 - Point Cloud Data file format
VERSION 0.7
FIELDS x y z intensity
SIZE 4 4 4 4
TYPE F F F F
COUNT 1 1 1 1
WIDTH 1452
HEIGHT 1
VIEWPOINT 0 0 0 1 0 0 0
POINTS 1452
DATA ascii
22.005285 22.198162 1.5648086 1
23.817015 24.025772 1.0950761 3
21.981829 20.613451 0.88701457 0
24.568081 21.417006 0.86143714 1
50.404171 40.81649 1.5261995 255
10.212919 11.919827 0.32249498 255
11.24118 12.194757 0.29239523 2
23.663622 23.871033 0.49223199 1
24.484373 22.960211 0.39369702 3
25.537523 22.26211 0.29624629 2
50.296036 40.728924 0.3772766 255
10.149969 11.846355 0.044380173 0
11.253772 12.208417 -0.0014489723 0
62.372604 62.9193 -0.26905435 0
29.498281 27.662003 -0.24209176 15
57.080956 49.759815 -0.67538118 1
50.284 40.719177 -0.7702105 255
10.034396 11.711467 -0.22854209 0
9.8939466 10.733239 -0.25964597 0
57.654881 58.160225 -1.6968542 0
29.48761 27.651995 -0.95830709 19
56.824894 49.536594 -2.0069494 3
50.380497 40.797321 -1.9195081 12
9.9625673 11.627633 -0.49778223 0
32.054802 34.773975 -1.6796491 4
55.331276 55.816254 -3.0220213 3
29.485197 27.649733 -1.6743681 14
50.135246 43.704952 -2.9492774 2
50.343105 40.767044 -3.0662539 9
22.801003 26.611784 -1.759303 4
32.086521 34.808384 -2.5199778 10
29.467764 27.633385 -2.3887293 13
22.328016 26.059748 -2.3310688 5
23.776936 22.296814 -2.505254 2
50.376389 40.793991 -5.3658128 6
3.2958026 3.8466375 -0.43372917 0
18.290543 19.84211 -2.3923106 2
21.601759 21.7911 -2.8091729 0
21.91688 20.552546 -2.8417621 2
50.264393 40.7033 -6.5002074 3
11.010083 12.850224 -1.7487067 0
18.137941 19.676563 -2.8467011 0
12.324275 12.432298 -2.5329037 2
10.773599 10.86803 -2.4878795 0
9.4107866 9.4932718 -2.3712139 0
8.3534069 8.4266243 -2.3507013 0
7.5560741 7.6223035 -2.3166001 0
6.8418837 6.9018531 -2.2701225 0
6.2543769 6.3091965 -2.2321339 0
4.351759 4.3899021 -2.1360137 1
3.1348588 3.1623359 -2.0831108 0
22.045946 22.084457 1.5622087 1
23.962875 24.004734 1.0979232 2
24.122366 22.463007 0.97021997 0
25.416647 22.001068 0.88849247 2
50.770721 40.820713 1.5329746 255
10.262303 11.893188 0.32274148 21
23.419027 23.459936 0.48543775 0
25.375179 23.629639 0.40669203 4
25.733021 22.274925 0.29761034 0
50.690395 40.756126 0.37916532 255
7.6382179 8.8520842 0.033262372 0
11.222842 12.089907 -0.0014395475 0
5.2082162 5.2173142 -0.022387791 0
29.641497 27.60248 -0.2424749 4
57.042603 49.377014 -0.67288399 4
50.709488 40.771477 -0.77454317 255
10.083054 11.685453 -0.22871989 0
32.191185 34.678238 -0.84160858 4
55.577484 55.674568 -1.6299844 1
29.645411 27.606123 -0.96029782 5
57.033737 49.369339 -2.0082266 7
56.704712 45.591763 -2.1543856 3
56.046059 64.952896 -2.7890103 2
32.203186 34.691166 -1.6810688 1
55.065483 55.161671 -2.9969697 3
27.806173 25.893408 -1.5738795 0
50.130386 43.393684 -2.9400632 2
50.201736 40.363235 -3.0490437 1
22.974659 26.625793 -1.7655202 1
27.711359 25.805115 -2.2390354 2
22.674349 26.277758 -2.3576353 4
27.376787 27.424608 -2.8619752 0
23.851704 22.210964 -2.5049477 1
50.729733 40.787754 -5.3882513 8
16.699663 19.353575 -2.1887796 4
18.432882 19.856987 -2.4018474 0
21.182396 21.219397 -2.7449882 0
22.175005 20.649603 -2.8658671 1
5.2646184 4.5571404 -0.67843664 0
50.626385 40.704662 -6.5286064 4
16.664186 19.31246 -2.6360118 3
18.146982 19.548996 -2.8373928 0
12.415143 12.436831 -2.5426412 0
10.819838 10.838738 -2.489805 0
9.4299545 9.4464273 -2.3677206 0
8.3661385 8.3807526 -2.3460374 0
7.5964465 7.6097164 -2.3208196 0
6.8686857 6.8806844 -2.2710323 0
6.2736211 6.2845798 -2.231159 0
4.3643851 4.3720088 -2.1347075 1
3.1407588 3.146245 -2.079721 0
21.182585 21.071964 1.4958082 4
24.125879 23.999889 1.1015466 1
24.209436 22.386812 0.97057307 2
24.419828 20.989538 0.85108 5
11.276881 12.063392 0.2911261 0
23.653891 23.530365 0.48860058 0
24.373896 22.538889 0.38938099 0
55.243038 47.482967 0.63698202 2
51.026173 40.733654 0.380611 255
10.206187 11.745014 0.044266377 0
11.23766 12.021435 -0.0014360569 0
50.656059 50.391521 -0.21699029 0
24.674685 22.817032 -0.20119238 2
56.231823 48.332855 -0.66132563 1
51.014042 40.723972 -0.77701896 64
10.108042 11.632071 -0.22836427 0
57.170818 61.158218 -1.4890873 6
50.571701 50.307606 -1.4780149 3
24.726917 22.865334 -0.79838383 0
57.123848 49.099575 -2.0053525 6
50.923435 40.651642 -1.929334 1
56.104618 64.563736 -2.7806921 4
51.214611 54.786594 -2.6635025 1
50.556541 50.292522 -2.7419968 4
27.781948 25.690365 -1.5674231 5
2.6698439 2.294807 -0.15611112 0
50.036312 39.943462 -3.0305097 3
6.6692362 7.1343846 -0.51985705 0
27.780741 25.689249 -2.2373827 5
16.713867 19.233883 -1.7308843 0
25.003733 23.121307 -2.6174433 3
50.142792 40.028461 -5.3110361 6
16.764503 19.292154 -2.1884384 8
21.301888 22.787596 -2.7653036 0
21.160318 21.049814 -2.732589 1
22.264492 20.588293 -2.8681269 1
50.096313 39.99136 -6.4422092 1
10.979475 12.634893 -1.7297928 0
18.196096 19.465191 -2.8344309 0
5.6496778 5.6201735 -1.1530381 0
10.863204 10.806474 -2.4910889 0
9.4628706 9.4134531 -2.3677206 0
8.3842144 8.3404303 -2.3429279 0
7.6091032 7.5693665 -2.3166001 0
6.9009461 6.8649077 -2.273762 0
6.2955198 6.2626429 -2.231159 0
4.3635378 4.3407502 -2.1268687 1
3.1286042 3.1122658 -2.0644662 0
7.3038278 7.2126169 1.9689015 0
21.572031 21.302637 2.5900707 0
25.591774 25.272181 1.8006099 0
23.425716 23.133173 1.0656998 1
24.158779 22.176258 0.96527708 5
24.600019 20.988134 0.85467327 0
56.230057 44.551418 1.6881446 3
1.9414068 2.2176511 0.060555108 0
54.672108 58.057224 1.4059227 2
24.044483 23.744213 0.49486771 11
3.2912934 3.0212028 0.052402239 0
55.407574 47.272385 0.63687706 3
5.0347838 5.3465209 -0.00064088486 0
50.883106 50.247673 -0.2171725 2
24.893696 22.850866 -0.20229389 0
56.152988 47.908356 -0.65832901 4
50.178574 39.75679 -0.76206899 35
10.129532 11.57087 -0.22789012 0
57.523457 61.085117 -1.4924307 0
57.647633 56.927719 -1.6787074 1
24.922501 22.877308 -0.80198616 4
55.295769 47.176998 -1.9350939 2
57.772228 45.773293 -2.1824431 1
16.78508 19.173439 -0.82842404 1
55.857468 59.315975 -2.893636 2
55.347881 54.656689 -2.9909759 3
25.002359 22.950613 -1.4058467 3
50.631145 43.197254 -2.9512267 2
50.151062 39.734993 -3.0286183 2
16.764929 19.150423 -1.277761 4
27.907072 25.616959 -2.2399797 2
16.810539 19.202522 -1.7335953 11
25.073616 23.016022 -2.6159108 4
50.192303 39.76767 -5.3008065 7
16.842978 19.239576 -2.1894622 1
21.478138 22.807993 -2.7773128 0
21.333694 21.067278 -2.7449882 2
22.474751 20.630424 -2.8854525 0
50.07098 39.671543 -6.4202099 2
6.4052382 7.3166437 -1.0048999 0
18.338217 19.473658 -2.8454318 0
12.531988 12.375487 -2.5483692 0
10.90274 10.766584 -2.4910889 0
9.511322 9.3925438 -2.3712139 0
8.4454384 8.3399706 -2.3514788 0
7.6312313 7.5359316 -2.3149121 0
4.4871125 4.431077 -1.4730774 0
6.3046303 6.2258973 -2.2262855 0
4.3928685 4.3380098 -2.1334009 1
0.56715757 0.56007481 -0.37289208 0
54.384552 53.331711 6.5073528 0
21.82629 21.403751 1.5304085 0
21.785095 21.363354 0.98766494 0
24.241951 22.097179 0.96551245 5
25.823343 21.876553 0.89451647 2
56.372654 44.344975 1.6877682 4
10.282552 11.663265 0.31945491 0
54.706566 57.689007 1.4016216 1
24.024416 23.559322 0.49275914 1
25.779018 23.498259 0.40913153 2
4.4466343 3.7670193 0.05095996 0
50.175144 39.469765 0.37214676 1
10.263519 11.641677 0.044152584 0
56.383026 59.456863 -0.0071506137 3
8.2736092 8.1134396 -0.035191227 0
25.059036 22.841976 -0.20298831 3
56.286304 47.683613 -0.65793657 3
50.19759 39.487423 -0.76025975 30
16.782253 19.035728 -0.37606314 6
58.413319 61.597839 -1.5099301 0
5.3251781 5.2220874 -0.1545382 0
25.019939 22.806337 -0.80255497 0
55.383831 46.919075 -1.9324325 0
50.094307 39.406174 -1.8871888 0
16.799028 19.054756 -0.82582462 5
56.058678 59.114834 -2.893352 2
55.441307 54.368008 -2.9857502 3
25.070505 22.852428 -1.4051845 5
50.985901 43.193314 -2.9630988 2
50.129303 39.433704 -3.0189731 1
16.871304 19.136736 -1.2807693 4
5.0926795 4.9940896 -0.40053168 0
25.13088 22.907465 -2.0107167 2
16.909136 19.179647 -1.7368482 5
25.112539 22.890745 -2.6116192 5
50.186691 39.478848 -5.2856274 2
21.024208 23.847282 -2.7221539 0
21.543913 22.718424 -2.7755468 0
21.321783 20.909012 -2.7340477 3
50.09029 39.403015 -6.4050102 2
10.982775 12.457512 -1.7162242 0
12.659907 12.414822 -2.5655529 0
10.951531 10.739518 -2.4936562 0
9.5243664 9.339983 -2.3663232 0
8.466095 8.3021984 -2.3491466 0
7.6407409 7.4928222 -2.3098485 0
4.4469309 4.3608422 -1.4548801 0
6.3484831 6.2255816 -2.2340832 0
4.3917885 4.306767 -2.1255624 0
3.1792507 3.117703 -2.0831108 0
21.942936 21.368401 2.6166286 0
21.574589 21.009697 1.5076083 4
21.58457 21.019419 0.97524148 4
24.64501 22.307571 0.97845817 4
25.942389 21.822313 0.89599609 2
56.637409 44.234077 1.6910617 3
10.309927 11.61235 0.31904408 0
54.879986 57.468773 1.4009166 1
24.143755 23.511595 0.49352056 1
25.368639 22.962568 0.40134391 1
56.045399 47.144474 0.64040965 2
50.211735 39.215595 0.37140059 0
10.261602 11.55792 0.04397051 0
54.844315 57.431419 -0.0069300043 1
57.233395 55.734844 -0.24260932 1
25.138618 22.754364 -0.20298831 0
57.153355 48.076469 -0.66610593 1
50.212177 39.215942 -0.75840288 30
16.880463 19.012922 -0.37677437 2
57.998226 60.734108 -1.4937112 0
56.96925 55.477615 -1.647634 6
50.539738 45.74633 -1.6160116 2
56.749832 47.737034 -1.9742684 4
59.464249 46.441853 -2.2340593 0
56.114613 63.203407 -2.7476799 2
56.096279 58.742443 -2.884692 1
51.143513 49.804413 -2.7449169 2
50.537289 45.744114 -2.8236132 4
55.185196 46.420887 -3.1977086 1
25.192928 22.803522 -2.0093 7
25.224819 22.832388 -2.6149912 7
50.195377 39.202824 -5.2720985 4
21.213165 23.892962 -2.7358038 0
21.716642 22.741056 -2.7875559 0
21.32044 20.762203 -2.7245657 3
22.910517 20.737585 -2.92274 0
50.10833 39.134838 -6.3898106 3
10.968079 12.353643 -1.7071785 0
18.473721 19.34516 -2.8454318 0
12.697491 12.36503 -2.5644073 0
10.949351 10.662663 -2.4846702 0
9.5569105 9.3066807 -2.3663232 0
8.5006447 8.2780704 -2.3507013 0
7.6612458 7.4606504 -2.3081605 0
6.9429455 6.761157 -2.2637534 0
6.3590574 6.1925573 -2.2301843 0
4.4203377 4.3045993 -2.1320946 0
0.51913977 0.50554705 -0.3389928 0
7.0550723 6.8225288 1.3592312 0
22.054636 21.32769 2.6210549 1
21.587486 20.875938 1.5034083 4
21.617577 20.905035 0.97342974 1
24.163685 21.718929 0.9563328 2
26.227091 21.905931 0.90318263 2
56.661903 43.935638 1.6872036 0
10.377053 11.606103 0.3198657 0
53.738522 55.881615 1.3667909 1
21.709959 20.994373 0.44227079 0
26.540358 23.855143 0.41856113 4
50.349205 42.053699 0.57364053 4
50.259808 38.971455 0.37074772 0
10.368537 11.596578 0.044255 0
56.896549 59.165585 -0.00716318 1
57.692135 55.790535 -0.24372688 0
50.819542 45.677883 -0.40906563 3
50.346054 42.051067 -0.58505452 5
50.225494 38.944847 -0.75654602 25
11.215177 12.543493 -0.24934557 0
4.8235631 5.0159268 -0.12377643 0
21.535139 20.825317 -0.62072152 3
50.758595 45.623104 -1.6179075 0
50.333294 42.040413 -1.7459277 13
55.941833 43.377296 -2.0960214 2
51.189308 57.252129 -2.4967093 1
55.782837 58.007458 -2.8581436 1
21.538221 20.828297 -1.1520659 1
55.360294 49.759228 -3.0833602 2
50.29863 42.011459 -2.9060411 9
50.16972 38.9016 -3.0049779 1
21.56904 20.858099 -1.6848794 2
10.475698 8.1228561 -0.86233711 0
21.547209 20.836987 -2.2138031 0
25.369617 22.802851 -2.6217349 2
50.171253 38.90279 -5.2552695 8
21.253935 23.771233 -2.7303438 0
21.831795 22.702448 -2.7921476 0
21.40424 20.69873 -2.7260246 3
8.1357794 7.312644 -1.0346348 0
50.150276 38.88652 -6.377811 3
10.92892 12.223332 -1.6944323 0
18.623848 19.366568 -2.8581252 0
12.706428 12.287609 -2.5575337 0
11.000695 10.6381 -2.4878795 0
9.5921698 9.276001 -2.367022 0
8.5182066 8.2374363 -2.3475919 0
7.7041059 7.4501696 -2.3132243 0
6.9637036 6.7341719 -2.2628436 0
6.3778462 6.1676254 -2.2292097 0
4.4326191 4.2865148 -2.1307881 0
22.197094 21.323462 2.6295671 0
24.327297 23.369825 1.6888094 1
24.050934 23.10434 1.0795468 1
24.339962 21.731878 0.9604519 2
26.428843 21.926067 0.90762138 2
54.865131 42.251839 1.6295207 3
10.418159 11.574601 0.31994787 0
55.133575 56.953079 1.3974617 0
21.790995 20.933348 0.44250509 2
26.628267 23.774988 0.41870186 0
54.887379 45.536022 0.62362117 3
55.589268 42.809498 0.40901166 3
11.140157 12.376742 0.047372989 2
9.3118448 9.6191521 -0.0011683233 0
21.666309 20.813568 -0.091239661 5
12.847859 11.471182 -0.1031105 0
56.158661 46.590714 -0.65080178 1
50.275135 38.717068 -0.75535578 7
11.128277 12.363544 -0.24650066 2
55.578503 57.412689 -1.4212948 1
21.638687 20.787035 -0.62171584 4
58.089512 51.865089 -1.846085 1
57.076534 47.352203 -1.9743749 1
55.898472 43.047619 -2.0890367 2
11.131646 12.367287 -0.54093206 0
6.7869411 7.010922 -0.34654918 0
21.612938 20.762297 -1.1523733 4
55.417679 49.479546 -3.0774004 2
51.092747 42.387897 -2.9437842 1
50.004044 38.508297 -2.9873896 6
11.142226 12.379042 -0.8361302 0
21.606409 20.756025 -1.6824125 9
49.900677 38.428696 -4.0972047 0
11.181336 12.422493 -1.1353083 0
21.593172 20.743311 -2.211446 7
9.5982447 7.3916435 -1.0028107 0
11.112919 12.34648 -1.4223313 1
19.659451 20.308247 -2.505692 1
21.452652 20.60832 -2.7234719 3
10.86292 12.068731 -1.6779854 3
18.798626 19.419014 -2.8750498 0
21.526779 20.679529 -3.2612398 0
12.769943 12.267345 -2.5621161 0
11.030218 10.596091 -2.4865956 0
9.6001549 9.2223129 -2.3614328 0
8.545476 8.2091436 -2.3475919 0
7.7203107 7.4164553 -2.3106925 0
7.000042 6.724535 -2.2673929 0
6.3926692 6.141067 -2.2272601 0
4.4577146 4.2822685 -2.1360137 0
0.53824598 0.51706171 -0.34916261 0
22.357903 21.328381 2.6397817 0
21.818693 20.813999 1.5096084 2
24.148792 23.036802 1.0803232 2
25.142666 22.291334 0.98905009 1
25.415751 20.936232 0.87031466 5
54.786736 41.887623 1.6228396 5
11.237381 12.397451 0.34377554 0
54.120441 55.517399 1.3668613 2
23.93891 22.836584 0.48450062 1
26.606344 23.589022 0.4170599 1
50.056973 41.234444 0.56710005 0
54.98209 42.036983 0.40346211 1
11.194038 12.349634 0.047418509 2
56.630627 58.092377 -0.0070797536 1
21.779348 20.776466 -0.091409728 1
26.568789 23.555725 -0.21256663 3
56.376522 46.440174 -0.6514439 3
50.486237 38.599644 -0.75649846 0
11.190168 12.345366 -0.24691553 2
57.836071 59.328938 -1.473722 1
57.850014 55.186169 -1.6565832 2
26.564795 23.552185 -0.84161144 4
56.293983 46.372181 -1.9416939 1
55.724419 42.604534 -2.0769613 3
11.172063 12.325391 -0.54080206 4
55.925247 57.36879 -2.8453662 3
55.184956 52.643833 -2.9325733 3
26.576405 23.562477 -1.4712389 3
7.279079 5.9961429 -0.41818643 0
50.096893 38.301968 -2.984931 255
11.161222 12.313431 -0.83432513 3
26.564766 23.55216 -2.0992579 0
50.120132 38.319736 -4.1042156 10
11.168347 12.321291 -1.1296155 4
11.161302 12.313519 -1.4230139 1
19.758034 20.268028 -2.5092242 1
21.596512 20.602049 -2.732589 3
10.934377 12.063167 -1.6825082 2
19.702024 20.210573 -3.0024066 0
22.528154 21.490791 -3.4015596 0
12.849924 12.258218 -2.5695624 0
11.067138 10.557525 -2.4865956 0
9.6550865 9.210494 -2.367022 0
8.5740786 8.179265 -2.3475919 0
7.7518091 7.3948584 -2.3123803 0
6.9952874 6.6731725 -2.2582941 0
6.4224868 6.1267481 -2.2301843 0
4.467164 4.2614627 -2.1334009 1
0.60296565 0.57520068 -0.38984174 0
29.459272 27.897234 3.4661391 3
21.857124 20.698179 1.5070083 1
24.500126 23.20104 1.092229 1
24.500849 21.562435 0.96068728 4
25.489222 20.840406 0.87020898 4
54.767868 41.556007 1.6177582 3
10.417123 11.408205 0.31740078 0
23.513306 23.944027 0.59162974 0
21.887959 20.727379 0.4414508 2
25.53064 22.468721 0.39890441 3
50.049839 40.921574 0.56531626 2
55.193153 41.8787 0.40388182 4
11.274291 12.346924 0.047566444 3
56.97208 58.015709 -0.0070958105 1
58.101837 55.021065 -0.24301018 1
26.654947 23.458189 -0.21256663 0
50.028088 40.903786 -0.57635003 1
50.691101 38.462692 -0.75745064 0
11.267704 12.339711 -0.24762677 1
57.691643 58.748451 -1.4645455 0
29.39472 27.836105 -0.83881509 0
57.210365 50.34906 -1.8066492 1
56.342838 46.066833 -1.9375423 3
55.816494 42.351669 -2.0745935 4
51.236404 52.174965 -2.5970604 0
55.392048 52.45496 -2.9333417 2
50.967037 44.8545 -2.8123558 0
7.3350372 5.9972472 -0.42013559 0
29.292448 29.829033 -2.965956 0
7.8021603 6.8664384 -0.79881221 0
21.953871 22.356028 -2.7776659 0
21.677662 20.528233 -2.7333183 1
19.045794 19.394678 -2.891551 0
12.860273 12.178375 -2.5626891 0
11.114359 10.525035 -2.4885213 0
9.6744804 9.1615047 -2.3635287 0
8.5983019 8.1423883 -2.3460374 0
7.7561488 7.3448896 -2.3056288 0
7.0196991 6.6474891 -2.2582941 0
6.4308152 6.0898299 -2.2253106 0
4.4800081 4.2424622 -2.1320946 1
0.62611574 0.59291685 -0.40340143 0
29.536146 27.775118 3.4637558 4
22.793606 21.434586 1.5664086 1
21.942299 20.634035 0.97498268 1
24.389309 21.313658 0.9533906 2
50.161247 40.721352 1.7076557 60
54.68581 41.193752 1.6110772 3
11.214821 12.196027 0.34040681 0
23.520815 23.785025 0.58972603 2
24.378508 22.924992 0.49006486 2
25.605906 22.376833 0.3988575 1
50.158215 40.718887 0.56493151 255
55.364555 41.705036 0.40406835 2
62.360661 63.061157 -0.007739488 0
29.492075 27.733673 -0.12294456 4
56.813541 49.648983 -0.45168912 1
50.133293 40.698658 -0.57592195 255
57.291191 43.156334 -0.85381627 4
11.213249 12.194318 -0.24549308 0
4.1760297 4.222939 -0.10563678 0
29.450922 27.694973 -0.83765501 15
57.08466 49.88591 -1.7971694 3
56.382221 45.771595 -1.9333906 4
55.92247 42.125305 -2.0730546 3
9.5903263 10.429402 -0.46061105 0
29.455873 27.699631 -1.5547357 11
55.225079 48.260838 -3.0379996 2
50.393215 40.909664 -2.8782213 1
50.618618 38.130016 -2.9996827 2
32.01923 34.820652 -2.3748183 3
29.442913 27.687443 -2.2695301 11
23.80924 22.389666 -2.4138525 0
50.292419 40.827835 -5.1652937 1
7.8455524 5.9099016 -0.81307191 0
21.659294 23.554306 -2.7398989 0
22.211077 22.460575 -2.8002715 0
50.087532 40.661507 -6.2859149 2
18.235397 19.830847 -2.7840331 3
19.130159 19.345049 -2.8940897 0
12.902706 12.13341 -2.5626891 0
11.191297 10.52404 -2.4975073 0
3.305284 3.1082134 -0.80484337 0
8.6323891 8.1177015 -2.3475919 0
7.787437 7.3231277 -2.3073168 0
7.0627236 6.641624 -2.2646632 0
6.4689903 6.0832911 -2.231159 0
4.5030522 4.2345676 -2.1360137 1
0.63609987 0.5981738 -0.40848634 0
27.756903 25.919983 5.2596817 0
25.716337 24.01446 1.1389464 2
50.477428 40.686531 1.7135739 255
54.861294 41.026558 1.6120181 3
11.238305 12.136265 0.33983165 0
24.436205 24.538776 0.61052579 1
25.183336 23.516731 0.50459051 2
7.9873109 6.9310355 0.12403896 0
50.449528 40.664043 0.5666104 255
55.593086 41.573811 0.40467462 3
11.216172 12.112363 0.046963327 0
50.28561 50.496685 -0.0062189572 1
29.574087 27.616907 -0.12288383 10
11.691552 10.145412 -0.092670143 0
50.430763 40.648918 -0.57770562 255
57.633675 43.099808 -0.85667294 1
32.131329 34.698677 -0.70079917 9
58.193508 58.437778 -1.466893 1
29.573721 27.616566 -0.83840078 6
56.998699 49.460949 -1.7890168 8
50.470947 40.681305 -1.7258083 13
9.9644384 7.4516397 -0.36841676 0
32.14777 34.716431 -1.5381861 8
55.680988 55.914711 -2.8024912 2
29.549463 27.593912 -1.554582 10
56.748528 49.243862 -3.1123314 2
50.467266 40.678337 -2.8743229 8
50.761009 37.96027 -3.0002499 2
32.143299 34.711601 -2.3750188 4
29.539381 27.584499 -2.2695301 8
6.2980967 6.324533 -0.63321656 0
23.823109 22.246523 -2.4073708 4
50.518448 40.719597 -5.1738782 3
21.77117 23.510723 -2.7436526 0
22.266853 22.360319 -2.7974458 0
50.390347 40.616341 -6.3060861 7
18.380203 19.848814 -2.7955458 0
12.944982 12.088297 -2.5626891 0
11.210651 10.468743 -2.4936562 0
8.0456057 7.5131564 -1.9527233 0
8.643466 8.0714512 -2.3429279 0
7.8100944 7.2932315 -2.3064728 0
7.0687833 6.6009793 -2.2592039 0
6.4618316 6.0341949 -2.2214117 0
4.5178065 4.218823 -2.1360137 1
0.60375917 0.56380308 -0.38645181 0
27.815929 25.79393 9.9576826 2
27.81422 25.792345 7.2758183 3
27.821066 25.798691 5.2547431 2
24.477823 22.698477 2.8519039 0
21.785595 20.201954 1.4874083 1
24.117334 22.364193 1.0646645 0
24.401207 21.025423 0.94809467 3
50.834553 40.682476 1.7208662 255
54.516125 40.472488 1.597715 1
11.250599 12.064791 0.33892784 0
24.453747 24.385553 0.60883361 2
24.370792 22.599226 0.48672631 6
25.78574 22.218412 0.3992328 1
50.834751 40.682632 0.5693385 255
58.332863 43.306015 0.42351514 0
11.214736 12.026332 0.046781253 0
62.725746 62.550823 -0.0077304123 0
27.81078 25.789154 -0.11518233 1
56.822418 48.961323 -0.44903114 2
50.850285 40.695065 -0.58088064 255
57.167171 42.440613 -0.84753156 1
57.063358 61.192959 -1.2399119 6
55.752125 55.596649 -1.400452 0
24.752321 22.95302 -0.69944072 0
57.074066 49.178158 -1.7859833 7
54.722416 40.625637 -2.0180051 4
56.03339 60.088451 -2.6709981 2
55.994709 55.838558 -2.808454 2
27.781578 25.762075 -1.4568347 3
55.899754 48.166306 -3.0565412 2
50.234554 40.202301 -2.8530591 0
54.630642 40.557503 -3.2205784 0
27.74081 25.72427 -2.1244326 2
23.956194 22.214766 -2.4129686 0
50.843952 40.689999 -5.192637 4
21.959106 23.54826 -2.7569613 0
22.262951 22.200867 -2.7872026 0
22.805653 21.147861 -2.8474648 0
50.771156 40.631741 -6.3359542 7
18.636612 19.985319 -2.8239167 0
12.946458 12.005352 -2.5546699 0
11.252915 10.434916 -2.49494 0
9.7670002 9.0570154 -2.3628302 0
8.671587 8.0412312 -2.3429279 0
7.8269043 7.2579494 -2.303941 0
7.1089187 6.5921559 -2.2646632 0
6.5027676 6.0300674 -2.2282348 0
4.5297332 4.2004571 -2.1347075 0
0.6110369 0.56661928 -0.38984174 0
27.870144 25.663843 5.2470608 0
24.208019 22.291626 2.8113861 0
21.882431 20.150139 1.4892082 0
24.198196 22.282579 1.0647939 4
24.53825 20.994705 0.95056611 5
54.463928 40.139599 1.592069 4
51.133095 54.45121 1.5346652 1
23.683344 23.45299 0.58761078 2
24.437763 22.503181 0.48649201 2
55.066299 47.114231 0.85002345 4
51.164349 40.654236 0.57143706 53
56.364964 41.540649 0.40817222 0
32.40633 34.509235 0.13467675 3
50.713657 50.220394 -0.0062283818 2
24.675671 22.722256 -0.1018687 2
56.10854 48.005962 -0.44206291 4
50.227917 39.910168 -0.57217616 255
7.9560304 5.8635483 -0.11764791 0
57.41077 61.136257 -1.2428161 3
50.697113 50.20401 -1.2690641 4
7.3634906 6.78057 -0.20740435 0
55.19743 47.226425 -1.7220899 3
57.515881 45.701046 -1.9557457 1
54.757683 40.356094 -2.0140984 10
12.019773 12.799758 -0.57082498 0
9.4870195 9.3947449 -0.47418037 0
24.922192 22.949261 -1.3026829 1
56.131317 48.025452 -3.0600178 2
50.293236 39.962067 -2.8484521 1
7.7900925 5.7412529 -0.4580563 0
27.845123 25.640802 -2.1255538 2
27.65184 25.46282 -2.7762396 1
29.798105 25.494991 -3.0140908 0
50.227077 39.909496 -5.1153769 4
21.406046 21.197842 -2.6706424 0
23.07859 21.251606 -2.8722634 0
50.161488 39.857384 -6.2424703 8
8.7511959 9.3190765 -1.3210897 0
13.005759 11.976176 -2.5581067 0
11.260228 10.368828 -2.4885213 0
9.7840691 9.0095272 -2.3593369 0
8.6678534 7.9816747 -2.3343771 0
7.8665729 7.2438264 -2.3081605 0
7.1003675 6.5382767 -2.2546546 0
6.5266314 6.0099592 -2.2292097 0
4.5443683 4.1846194 -2.1347075 0
0.60235 0.5546658 -0.38306189 0
24.147448 22.080584 2.7953835 2
21.937893 20.060152 1.4882082 0
24.331884 22.249233 1.0672528 3
54.542385 39.904377 1.5902811 1
54.565216 57.701099 1.6316192 2
5.3067899 5.2186108 0.13121474 0
25.711571 23.510828 0.51021332 1
55.452942 47.110771 0.85344809 3
56.864243 44.860352 0.63334447 4
7.4765081 5.4699731 0.05400325 0
56.280479 59.514942 0.23303005 1
56.712475 55.770126 -0.0069411742 1
25.091354 22.943697 -0.10325351 0
9.2578688 7.8651438 -0.072723314 0
50.209908 39.610729 -0.57039243 255
8.6285105 6.3128023 -0.12726542 0
55.636982 58.834461 -1.1999645 0
57.798512 56.838116 -1.4418532 2
24.970985 22.833632 -0.70109797 1
55.316231 46.994629 -1.720668 1
57.875965 45.658501 -1.9625586 1
54.746555 40.053749 -2.0085342 7
56.091671 59.315281 -2.6539721 2
56.004089 55.073509 -2.789572 2
24.996246 22.85673 -1.3023754 5
56.700661 48.170788 -3.0818703 1
50.432423 39.78627 -2.8484521 1
25.069687 22.923883 -1.9075714 0
4.6066122 4.871356 -0.45542455 0
25.144016 22.991852 -2.5163815 0
50.256512 39.647495 -5.104249 8
22.090107 23.359634 -2.7528665 0
21.593542 21.234739 -2.6847711 0
23.055624 21.082212 -2.8602288 0
50.159657 39.571087 -6.2250147 22
18.781147 19.860506 -2.824739 0
13.073778 11.954748 -2.5632617 0
11.275958 10.310809 -2.4840281 0
9.803833 8.9646883 -2.3565423 0
8.6985579 7.9540181 -2.3351543 0
7.8658414 7.1925764 -2.3005652 0
7.1173978 6.5081944 -2.252835 0
6.5332556 5.974051 -2.2243359 0
4.5728979 4.1814876 -2.1412394 0
0.59358716 0.54277998 -0.37628201 0
3.7517393 3.4066453 0.972018 0
29.984636 27.226578 5.6092296 0
24.218477 21.990803 2.7947023 1
22.123131 20.088192 1.4960083 1
24.391642 22.148041 1.0664762 1
25.417686 21.441616 0.9788112 6
56.540012 44.285252 1.8982054 3
53.927456 39.16621 1.568356 3
53.569374 56.253384 1.5959599 1
23.91231 23.351345 0.58923244 1
24.549852 22.291697 0.48561347 5
55.751564 47.030388 0.85551232 4
50.199947 39.319363 0.55758661 0
55.682667 40.440975 0.40117699 0
55.235542 58.003033 0.22786374 1
5.6206012 5.1036048 -0.023055902 0
57.050735 48.126331 -0.44682813 2
50.20932 39.326702 -0.5688228 255
59.589054 43.278091 -0.87666976 2
55.704109 58.495079 -1.197001 2
56.989372 55.652443 -1.4168133 2
50.491886 45.847523 -1.4131337 0
60.122879 50.717899 -1.8646652 1
50.171494 39.297073 -1.6966403 3
54.983086 39.932892 -2.0120859 5
55.895855 58.69643 -2.6349967 3
55.90427 54.5928 -2.7750909 2
50.406246 45.76976 -2.6179683 1
55.154709 46.526897 -2.988997 1
54.851913 39.837624 -3.2088528 1
25.137728 22.825499 -1.9066744 7
5.8508849 4.9356356 -0.45262372 0
25.176865 22.861036 -2.5116675 6
50.294155 39.39315 -5.0940747 4
22.226484 23.340109 -2.7596915 0
21.485096 20.981071 -2.6621654 0
23.226391 21.089972 -2.8722634 0
50.197186 39.317196 -6.2126021 17
18.902493 19.849573 -2.8325512 0
25.146152 22.833149 -3.7108712 0
13.091982 11.887751 -2.5586793 0
11.294343 10.255462 -2.4801769 0
9.8263178 8.9224691 -2.3544462 0
8.7320786 7.9288812 -2.336709 0
7.8851104 7.1598191 -2.2988772 0
7.1400719 6.4833112 -2.252835 0
6.559813 5.9564257 -2.2262855 0
4.5734711 4.1527925 -2.1347075 0
0.63571328 0.5772388 -0.40170649 0
30.121836 27.169456 5.6180096 4
24.347496 21.961086 2.8011715 2
22.26972 20.086964 1.5014083 1
24.150272 21.783195 1.0527587 1
25.782858 21.603729 0.99010926 2
56.172119 43.697319 1.8809788 1
54.027851 38.966114 1.5675091 3
53.755623 56.075432 1.5959599 1
24.313993 23.586597 0.5971998 1
24.6474 22.231596 0.48608202 2
50.303013 42.149426 0.76975465 10
50.241665 39.083912 0.55660725 0
55.190334 39.804523 0.39667672 0
54.766018 57.129433 0.22514403 1
26.003075 25.225147 -0.0031614893 0
25.154867 22.689323 -0.10287694 2
50.274906 42.125877 -0.39266279 11
50.210018 39.059292 -0.56736016 255
57.172703 41.234253 -0.83910429 0
5.0954552 5.3153481 -0.10911462 0
57.018597 55.312782 -1.412972 5
10.346105 9.332036 -0.28869227 0
50.252499 42.107101 -1.5542036 13
55.979317 43.547337 -1.8881483 1
55.287075 39.874294 -2.0183601 1
55.904827 58.317387 -2.6262887 4
6.0282693 5.8479233 -0.29827935 0
13.053481 11.77405 -0.67593193 0
50.254177 42.108505 -2.7158403 10
55.606682 43.257458 -3.1239944 1
54.808723 39.529297 -3.1986401 1
25.254801 22.779463 -1.909814 0
21.493189 20.850182 -2.1244035 0
25.273272 22.796124 -2.51373 3
50.232533 39.076805 -5.0746803 3
22.309277 23.272028 -2.7603738 0
21.488777 20.845903 -2.6540415 1
50.195316 39.047855 -6.19631 21
18.987488 19.806887 -2.8354294 0
13.096057 11.812452 -2.551806 0
11.337085 10.225885 -2.4821026 0
9.861701 8.8951111 -2.3558435 0
8.7816334 7.9209056 -2.3429279 0
7.9001002 7.1257758 -2.2963455 0
7.1586404 6.4569893 -2.251925 0
6.5564837 5.9138532 -2.2184875 0
4.5928321 4.1426678 -2.1373203 0
0.62417197 0.562994 -0.39323166 0
30.201733 27.05093 5.6152658 8
24.424006 21.875965 2.8011715 1
22.521227 20.171696 1.5136083 4
24.095129 21.5814 1.0470647 4
25.510794 21.224638 0.97681051 4
54.144028 38.763317 1.5669445 2
21.749178 20.951645 0.53240329 3
24.686121 22.110735 0.4853206 1
54.831295 45.6189 0.8366062 2
50.276489 38.830059 0.55548805 0
13.702141 9.8097696 0.098236479 0
21.657494 20.863321 -0.002624277 3
25.26371 22.628067 -0.10299842 0
56.036354 46.62149 -0.43638778 4
50.23209 38.795769 -0.56607592 255
57.30003 41.022793 -0.83886623 0
21.607983 20.815628 -0.53366137 3
55.884144 43.161022 -1.879845 4
55.191856 39.513489 -2.0098364 2
55.627693 57.624287 -2.6038041 1
21.597782 20.805801 -1.0650603 5
55.545925 49.751083 -2.8672547 3
50.975372 42.410824 -2.746798 1
54.86232 42.371838 -3.0738473 1
54.169914 38.781853 -3.1534398 3
21.575094 20.783945 -1.5946535 6
29.837824 30.908764 -2.9182413 0
21.574459 20.783335 -2.1252527 9
7.3244524 5.6568971 -0.73794454 0
19.638981 20.343863 -2.4211712 0
21.515499 20.726536 -2.6483901 5
23.591946 21.130711 -2.8996148 0
50.195827 38.767761 -6.1796308 18
5.2256174 5.4131756 -0.77752274 0
2.7279572 2.4433625 -0.40010682 0
13.172595 11.798362 -2.5586793 0
11.37565 10.188883 -2.4827445 0
9.8956242 8.8632612 -2.3565423 0
8.823843 7.9032931 -2.3468146 0
7.9249253 7.098156 -2.2963455 0
7.1782341 6.4293633 -2.2510152 0
6.5973148 5.9090486 -2.2253106 0
4.6072645 4.1266108 -2.1373203 0
0.64772415 0.58015019 -0.40679136 0
30.295975 26.945341 5.6152658 8
24.726549 21.991875 2.8270485 2
22.633295 20.130129 1.5164083 1
24.119534 21.451994 1.0448647 4
25.393614 20.977579 0.96951389 2
54.794041 42.014572 1.8249658 2
54.393093 38.655159 1.570238 3
54.009201 55.558281 1.5919338 1
24.070576 23.026468 0.58725822 2
24.897636 22.144041 0.48795632 0
55.07037 45.49345 0.83782595 4
55.703014 42.711548 0.61379296 3
59.464191 42.258999 0.42526394 0
57.212807 58.853771 0.23350799 0
21.718624 20.776537 -0.0026228807 4
58.205063 51.767776 -0.23655987 1
14.984073 12.378292 -0.11635251 0
57.40049 40.792404 -0.8382473 2
6.5570321 6.7450995 -0.13940118 0
21.683401 20.74284 -0.53373247 2
26.526539 23.592793 -0.73556864 2
55.571182 42.610462 -1.864303 2
58.037743 41.245277 -2.1082151 0
55.945541 57.550159 -2.6092627 4
21.684721 20.744104 -1.06577 0
26.530558 23.596367 -1.365235 1
56.533672 46.702278 -3.037503 3
50.075581 38.396584 -2.7981279 16
54.181202 38.504578 -3.1462531 2
21.670603 20.730598 -1.5963545 3
29.903809 30.761503 -2.9141748 0
21.646875 20.707899 -2.1252527 1
26.472086 23.544361 -2.6165535 0
19.687649 20.252327 -2.4184411 2
21.604992 20.667833 -2.6505094 3
5.6016335 4.9821115 -0.68633825 0
19.244556 19.796524 -2.8531096 0
13.231447 11.768093 -2.5621161 0
6.1362944 5.4576406 -1.3350849 0
9.9235601 8.8260469 -2.3558435 0
8.8308535 7.8541903 -2.3413732 0
7.946733 7.0678506 -2.2955017 0
7.2180963 6.4197989 -2.2564745 0
6.59761 5.8679366 -2.2184875 0
4.6329408 4.120553 -2.1425459 0
0.66328174 0.58992499 -0.41526619 0
30.406408 26.844608 5.6174607 8
24.875704 21.961771 2.8348796 2
24.500694 21.630688 1.0579351 2
25.519798 20.924931 0.97139686 4
54.85857 41.745655 1.8220066 2
54.560551 38.473972 1.5709908 3
54.29641 55.445667 1.5943987 1
23.859003 22.657183 0.58006644 1
25.071575 22.134697 0.48977202 1
50.049889 41.038353 0.75915223 1
54.840614 41.731995 0.60260063 4
57.265053 40.381081 0.40847537 1
57.223831 58.435051 0.23267728 1
26.438387 25.106638 -0.0031817351 6
26.624418 23.50564 -0.10785741 4
50.006039 41.002396 -0.3871313 1
57.001808 43.376595 -0.63885099 1
60.086166 42.370422 -0.87519377 0
58.742878 59.986252 -1.2441792 0
57.987053 55.066139 -1.4223619 2
26.657801 23.53511 -0.73681158 0
57.525681 47.168121 -1.7635163 0
7.3314095 5.5789733 -0.2452666 0
50.50325 35.612923 -1.8297716 0
51.135166 52.21751 -2.375968 1
56.095814 53.270164 -2.7474067 2
26.625854 23.506908 -1.3656961 0
56.29034 46.155205 -3.0153193 3
50.187359 38.19101 -2.7965331 255
50.475407 35.593288 -2.923466 1
50.197517 38.198742 -3.9122148 18
29.062841 27.598892 -2.8433888 3
19.666939 20.083216 -2.4068387 0
19.289146 19.697428 -2.8489981 0
13.227008 11.677599 -2.5529513 0
11.421631 10.083704 -2.4769676 0
9.9381266 8.7739773 -2.3516517 0
8.8654633 7.8269649 -2.3429279 0
7.9755154 7.041265 -2.2963455 0
7.238657 6.3907223 -2.2555645 0
6.6452465 5.8668237 -2.2272601 0
4.625339 4.083528 -2.1320946 0
0.6627233 0.58509201 -0.41357124 0
30.502911 26.740917 5.6180096 8
56.446663 49.48497 6.4130383 2
22.76775 19.959751 1.5158083 3
24.20929 21.223503 1.042147 5
25.657797 20.888731 0.97386831 3
54.812519 41.409286 1.8156655 1
49.744328 34.818417 1.4288064 1
23.511549 23.842142 0.68796188 1
25.512594 22.366068 0.4968591 6
50.099781 40.787632 0.75774485 220
6.402102 4.8366041 0.070161752 0
50.504398 35.350426 0.35936877 2
56.728123 57.525772 0.22984378 1
29.462187 27.783184 -0.0035339426 1
56.87159 49.857487 -0.22968441 3
50.062004 40.756878 -0.38646084 194
6.9574084 5.2561221 -0.077769436 0
50.69173 35.481548 -0.73654926 2
4.1787562 4.2375135 -0.08819259 0
29.45171 27.773306 -0.72003734 1
56.994968 49.965649 -1.5704892 3
56.303783 45.838486 -1.7211419 0
56.075668 42.36356 -1.8710095 4
50.669838 35.466225 -1.8313106 0
55.847839 56.63311 -2.5857384 3
29.446533 27.768423 -1.437448 1
51.140255 44.833012 -2.6150482 1
50.317547 40.964924 -2.6876969 0
50.622257 35.432922 -2.9247899 2
29.461222 27.782274 -2.1555462 1
6.635026 4.6441698 -0.52685398 0
29.188026 27.524649 -2.8462193 2
50.212605 40.879486 -4.9764833 1
22.700399 23.019587 -2.7682226 0
23.082865 21.76741 -2.812634 0
50.115326 40.800289 -6.1121426 2
19.265594 19.536486 -2.8354294 0
13.279597 11.641794 -2.5552425 0
11.450823 10.038567 -2.4756839 0
9.953886 8.7262506 -2.3481584 0
8.8868294 7.7907968 -2.3413732 0
7.9941649 7.0082264 -2.2946577 0
7.240418 6.3474412 -2.2491956 0
6.6598506 5.8384762 -2.2253106 0
4.6367221 4.0648646 -2.1307881 0
0.65658832 0.5756098 -0.40848634 0
30.616987 26.652489 5.621851 8
25.178722 21.918409 2.8519039 0
22.945761 19.974586 1.5230085 3
24.424952 21.262241 1.0482293 2
25.742994 20.809095 0.97433907 2
54.815987 41.112144 1.8110154 1
54.597935 37.932419 1.5644038 2
23.301561 23.464809 0.67941678 0
24.255976 22.714226 0.58584809 2
25.445713 22.150827 0.4940477 2
50.332058 40.685425 0.75910532 255
54.91943 41.189724 0.60029221 1
50.762173 35.26749 0.3603248 1
50.20639 50.558128 0.2027036 3
24.548794 22.988434 -0.0029349455 1
56.722462 49.377647 -0.22838463 3
50.325283 40.679947 -0.38739473 255
57.575233 43.181587 -0.64188325 2
57.125301 39.688332 -0.82801086 1
57.398834 57.800964 -1.207136 0
29.522205 27.645725 -0.71939713 17
56.94281 49.569466 -1.5642745 6
50.424007 40.75975 -1.5370454 13
56.060062 42.045204 -1.8655803 4
57.784019 40.145985 -2.083354 3
55.88179 56.273289 -2.5782001 4
29.508272 27.632679 -1.4357444 16
56.994373 49.614349 -2.9055238 4
50.422935 40.758884 -2.6857102 10
56.638672 42.47916 -3.1394105 2
54.866974 38.119339 -3.1623285 2
29.488049 27.613741 -2.1504433 11
6.6023545 6.1826982 -0.64170855 0
50.407722 40.746586 -4.9816947 3
22.738489 22.897793 -2.763104 0
23.202333 21.727556 -2.8179321 0
50.319374 40.675171 -6.1196752 6
19.538334 19.675217 -2.8654449 0
13.33807 11.610965 -2.5586793 0
11.485795 9.9985352 -2.4756839 0
10.00508 8.7095537 -2.353049 0
8.9169312 7.7623057 -2.3421504 0
8.0274267 6.9879804 -2.2971895 0
7.2654691 6.3246861 -2.2501054 0
6.6743383 5.8100991 -2.2233613 0
4.6622891 4.0585842 -2.1360137 0
0.68592119 0.59710336 -0.42543599 0
30.688852 26.527317 5.6180096 6
57.351582 49.574467 6.4763689 2
23.03348 19.910044 1.5242084 0
24.39921 21.090576 1.0439588 3
50.860752 40.820068 1.9196092 146
55.109898 41.03278 1.8159826 1
50.512917 34.833519 1.4438623 1
24.378723 24.378723 0.70833862 1
24.329256 22.623972 0.58570707 2
25.45631 22.00433 0.49275914 6
50.710838 40.699753 0.7626707 255
54.876797 40.859222 0.59826362 2
54.335907 37.469837 0.38476151 2
24.620102 22.894432 -0.0029338985 1
6.4850197 5.6056242 -0.026032032 0
50.713417 40.70182 -0.38928643 255
58.007935 43.190552 -0.64502257 1
58.119598 40.07906 -0.84038979 3
27.744123 25.799484 -0.67387021 0
56.991447 49.263168 -1.5608772 6
57.614155 46.24025 -1.7512875 1
56.337982 41.947166 -1.8699449 3
57.805309 39.862324 -2.0790923 1
55.925228 55.925228 -2.5711818 3
27.774935 25.828138 -1.347013 0
57.009968 49.279179 -2.8975317 4
57.010574 45.755825 -3.0280669 3
51.078133 38.03088 -2.8238215 1
54.897736 37.857273 -3.1564658 1
27.741457 25.797007 -2.0164926 2
27.769518 25.823101 -2.6902506 2
50.720718 40.70768 -4.9985538 3
22.914097 22.914097 -2.7747064 0
23.374323 21.735971 -2.8295882 0
50.715717 40.703667 -6.1505599 3
19.564692 19.564692 -2.8592772 0
13.345572 11.535858 -2.5523787 0
11.499717 9.9403076 -2.4711909 0
10.035421 8.6745768 -2.353049 0
8.9350662 7.7234344 -2.3398185 0
8.0428963 6.9522467 -2.2946577 0
7.2757144 6.2890973 -2.2464659 0
6.6975136 5.7893028 -2.2243359 0
4.6764278 4.0422845 -2.1360137 0
0.66059083 0.57101196 -0.40848634 0
30.797693 26.44347 5.621851 5
25.578306 21.962009 2.8801641 1
25.011948 21.475723 1.6504091 1
24.48418 21.022572 1.0446059 3
26.168549 20.860184 0.98504871 4
54.162163 40.048641 1.7803668 3
54.036572 36.999615 1.5410671 2
23.588415 23.432487 0.68311417 2
24.286636 22.434618 0.58288676 1
25.550381 21.93803 0.49316913 2
51.061333 40.703396 0.76590776 255
55.03772 40.696045 0.59854341 2
54.489571 37.309788 0.38497135 3
50.634499 50.299789 0.20304498 3
55.879745 47.979389 -0.22367141 3
50.197536 40.014824 -0.38430572 255
57.16671 42.270267 -0.63410634 1
59.922096 41.029514 -0.86448121 3
50.606445 50.271919 -1.0570664 3
24.750738 22.863329 -0.59931976 2
55.142849 47.346672 -1.5059395 2
49.977959 39.839787 -1.5151471 0
54.804913 40.523903 -1.8145896 4
60.071636 41.131908 -2.1556878 1
50.605129 50.270615 -2.3189113 3
27.801706 25.681639 -1.3441736 4
57.224625 49.134125 -2.9001446 3
50.96484 40.626476 -2.6997819 1
54.664474 40.420063 -3.0146635 0
54.808681 37.528286 -3.1441727 3
27.779905 25.661501 -2.0130906 3
31.531816 31.32338 -3.0190852 0
27.781729 25.663187 -2.6831739 3
50.225468 40.03709 -4.936635 1
22.97299 22.821131 -2.7726588 0
7.3022656 6.745419 -0.88126612 0
50.112419 39.946972 -6.0612955 4
19.67745 19.547377 -2.8662672 0
13.383754 11.491539 -2.5523787 0
11.52363 9.8944025 -2.4692652 0
10.052178 8.6309872 -2.3502543 0
8.9516983 7.6860943 -2.3374865 0
8.0688734 6.9280844 -2.2955017 0
7.3172164 6.2826977 -2.252835 0
6.6990147 5.7518983 -2.2184875 0
4.6754651 4.014441 -2.1294816 0
0.6899696 0.5924207 -0.42543599 0
30.880766 26.328093 5.6202044 4
25.594156 21.820875 2.8733544 2
25.941023 22.116604 1.7066095 2
24.57567 20.952541 1.0453823 0
26.48888 20.964735 0.99434602 4
54.275841 39.840405 1.7795213 4
54.079407 36.752331 1.5386206 2
23.689997 23.369665 0.68368936 3
9.0008593 8.2564411 0.21533038 0
25.614628 21.838329 0.49293485 1
55.23748 40.54628 0.59917301 1
54.523533 37.054161 0.38429514 2
5.3335595 5.2614403 0.021313863 0
24.908014 22.847994 -0.0029496064 0
56.129066 47.854103 -0.22399938 3
50.208317 39.737579 -0.38332394 255
55.866154 41.007751 -0.61808866 0
60.547928 41.148335 -0.87143248 4
57.652161 56.872601 -1.200083 1
24.924707 22.863306 -0.60159612 2
50.032063 39.598083 -1.5125875 0
54.82032 40.240074 -1.8104379 7
58.042236 39.445465 -2.0779083 1
55.883377 55.127735 -2.5519464 3
24.974804 22.90926 -1.2036232 2
55.342678 47.183647 -2.7964034 1
57.189087 45.262543 -3.0211136 2
54.810467 37.249161 -3.136797 3
27.937016 25.62648 -2.0179808 1
5.2150993 4.4462504 -0.38483337 0
27.8682 25.563358 -2.6828909 0
50.205429 39.735294 -4.9210019 2
22.958883 22.648438 -2.7613976 0
23.527603 21.581751 -2.8302946 0
6.6141062 5.6390057 -0.79574388 0
50.126656 39.672947 -6.0462298 22
19.847536 19.579161 -2.8810692 0
6.5661697 5.5981359 -0.94270551 0
13.387636 11.413931 -2.545505 0
11.57913 9.8720484 -2.4737582 0
10.085242 8.5984011 -2.3509531 0
9.0023594 7.6751647 -2.3437052 0
8.0573034 6.8694358 -2.2853744 0
7.3153896 6.2369008 -2.2455559 0
6.7249556 5.7335129 -2.220437 0
4.6980805 4.0054545 -2.1334009 0
0.67824781 0.57825547 -0.41696116 0
6.7473588 5.7120605 2.3205819 0
30.957359 26.207338 5.6174607 3
25.597164 21.669598 2.8651829 3
48.322315 40.907856 3.1696174 12
25.283333 21.403921 1.0722997 4
26.763103 21.030249 1.001878 0
54.34671 39.601254 1.7773019 3
54.462643 36.735516 1.5458663 1
23.748573 23.264442 0.68303204 3
24.56389 22.374941 0.58577758 2
25.678492 21.738445 0.49270058 0
55.495045 40.438019 0.60043216 1
54.662495 36.870319 0.38436511 3
59.725178 58.507637 0.23785497 1
25.147301 22.906363 -0.0029684559 1
56.256084 47.624287 -0.22384147 1
50.208336 39.453339 -0.38227031 255
59.500217 43.356499 -0.65661663 0
56.811577 38.319893 -0.81572706 5
56.936062 55.775379 -1.1811168 1
25.039843 22.808481 -0.60244977 0
59.894791 50.704678 -1.626007 0
50.113384 39.378727 -1.5108812 2
54.808559 39.937794 -1.8054347 7
56.827175 38.330414 -2.0296068 4
55.955524 54.814831 -2.5464876 5
25.04871 22.816557 -1.2033392 1
55.079948 46.628616 -2.7748866 0
50.147362 39.405426 -2.6418397 0
54.716022 39.870361 -3.0020823 0
10.980743 7.4066052 -0.62694329 0
25.11175 22.87398 -1.8081244 5
5.2702131 4.4615645 -0.38774878 0
25.152098 22.910732 -2.4136961 6
50.268562 39.500668 -4.9136453 1
23.080507 22.609995 -2.7665164 0
23.629305 21.52364 -2.8334737 0
50.139584 39.399315 -6.0311642 36
19.881653 19.476351 -2.8761353 0
25.097376 22.860888 -3.6112657 0
13.385095 11.331319 -2.5374861 0
11.580372 9.8035078 -2.4666977 0
10.109183 8.5580549 -2.3495557 0
9.014123 7.6310182 -2.3398185 0
8.075264 6.8362155 -2.2836866 0
7.3341432 6.2088103 -2.2446461 0
6.739007 5.7049904 -2.2184875 0
4.7293468 4.0036874 -2.1412394 0
0.69408858 0.58758932 -0.42543599 0
31.089607 26.124289 5.6240458 2
25.691671 21.588457 2.8668852 3
25.951811 21.807049 1.6970093 1
25.410587 21.352262 1.0743704 4
54.960052 42.862316 2.0515375 1
54.122105 39.134697 1.7652539 2
54.420776 36.417778 1.5408789 1
23.630121 22.979288 0.67719835 0
24.645733 22.284761 0.58577758 1
50.251362 42.225719 0.96121126 1
50.170261 39.12685 0.74625105 1
55.509995 40.138256 0.59899813 1
54.916939 36.749805 0.38520452 2
25.977865 25.262369 0.10308718 4
50.230755 45.418827 -0.0059096846 0
50.183022 42.168297 -0.19906063 0
50.204353 39.153439 -0.38114488 255
57.010616 41.223328 -0.62747091 0
56.805389 38.013535 -0.81363219 4
5.3418312 5.1947036 -0.11041854 0
50.60252 45.754982 -1.2134358 1
50.242905 42.218613 -1.3597704 6
50.099709 39.071823 -1.5061414 0
55.074467 39.82333 -1.8093734 4
55.285908 36.996716 -1.9697037 2
51.125996 49.717854 -2.3183916 1
50.566776 45.72266 -2.4211593 4
50.204338 42.186207 -2.5214505 3
57.149086 44.569504 -3.0020754 2
55.007511 39.774918 -3.0100563 1
50.934811 34.085011 -2.9009602 1
25.198381 22.784468 -1.8083371 6
31.079578 30.223568 -2.9448075 0
25.232941 22.815716 -2.4134128 6
50.255753 39.193523 -4.8983188 2
23.088934 22.453005 -2.7576439 0
23.770098 21.49301 -2.8408911 0
50.142342 39.105076 -6.0142155 33
25.2341 22.816765 -3.6188815 0
13.514431 11.356042 -2.5540969 0
11.610181 9.7559195 -2.465414 0
10.125405 8.5082769 -2.3460624 0
9.0480385 7.6029773 -2.3413732 0
8.1122398 6.8166347 -2.2870622 0
7.3717613 6.1944175 -2.2491956 0
6.7479911 5.67027 -2.2145886 0
4.7237277 3.9693017 -2.1320946 0
0.67682058 0.56872559 -0.41357124 0
31.136526 25.988043 5.6169119 1
25.760059 21.500586 2.8665447 2
25.524054 21.303602 1.6644092 4
25.490461 21.275566 1.0747585 4
54.697285 42.366436 2.0364735 2
54.300304 38.989994 1.7668391 1
54.507938 36.214989 1.539938 2
21.721569 20.983604 0.62050498 3
24.725447 22.208256 0.58591861 2
50.418747 42.081913 0.96173841 2
50.147957 38.842697 0.74399918 0
59.382423 42.639179 0.6392554 1
55.205086 36.678173 0.38637039 1
21.613869 20.879562 0.085494421 2
25.220304 22.652733 -0.0029583331 1
50.356361 42.029842 -0.19919425 3
50.204266 38.886314 -0.3801631 255
57.241226 41.101707 -0.62850547 1
5.3236556 3.5370283 -0.076083109 0
21.568434 20.83567 -0.44440055 2
50.733143 45.568218 -1.2129378 0
11.749806 9.8069544 -0.31711403 0
50.146805 38.841805 -1.5036767 0
55.349136 39.743103 -1.8140574 0
56.930206 37.824337 -2.0238061 4
21.533535 20.801956 -0.97333974 4
55.589485 49.930161 -2.6537066 1
50.316338 41.996437 -2.5200672 3
57.185986 44.29409 -2.9962811 3
55.171566 39.615597 -3.0118282 1
9.484683 6.3016086 -0.53900105 0
21.546545 20.814526 -1.5039914 2
8.204567 6.3549452 -0.61365104 0
21.607317 20.873232 -2.0407357 0
50.253021 38.92408 -4.8854446 2
21.515091 20.784142 -2.561425 3
50.177296 38.865425 -6.0029163 39
2.7165012 2.4399459 -0.3884173 0
13.506426 11.273113 -2.545505 0
11.639438 9.7148342 -2.4647722 0
10.180778 8.4973669 -2.3523502 0
9.0581408 7.56036 -2.3374865 0
8.1227932 6.7796741 -2.2836866 0
7.3892713 6.1674414 -2.2482855 0
6.7608013 5.64289 -2.2126391 0
4.7513771 3.965728 -2.1386266 0
0.68426597 0.57112134 -0.41696116 0
8.5265989 7.0663581 2.1241231 0
31.257557 25.904478 5.6223993 1
56.941849 47.190155 6.3180432 1
25.472145 21.109859 1.6562091 4
25.586119 21.204315 1.0756644 1
54.44865 41.870583 2.0217624 2
54.143021 38.591331 1.7573276 2
54.907768 36.205006 1.5476542 2
23.875454 22.903738 0.67974544 2
24.641642 21.97806 0.58211118 1
54.907425 45.504139 1.0443237 3
7.016634 5.3957362 0.1038193 0
54.537693 38.872639 0.58563733 2
55.112381 36.33992 0.38483146 2
21.686621 20.803988 0.085494421 4
25.287281 22.553909 -0.0029569368 1
56.157307 46.53997 -0.22149701 4
50.266769 38.654747 -0.37961233 255
57.276863 40.825027 -0.62732822 2
57.296555 37.780121 -0.81696498 1
21.646807 20.765795 -0.4445191 3
58.117825 51.835709 -1.3851578 0
57.324833 47.507545 -1.5426475 0
55.170181 42.425434 -1.6498543 2
55.275879 39.398792 -1.807138 4
9.0524616 5.9689994 -0.32106242 0
21.617556 20.737734 -0.97385961 2
56.216892 50.140251 -2.6752858 1
51.044285 42.302589 -2.5491149 1
50.015503 38.461529 -2.6135306 10
54.277973 38.687519 -2.9556565 3
8.8461618 5.8329692 -0.50155467 0
21.607538 20.728125 -1.5031892 4
7.6567068 6.3454413 -0.55841202 0
21.628208 20.747953 -2.0358562 9
26.525127 23.657953 -2.5215437 0
13.901281 10.689975 -1.3478041 0
21.576008 20.697876 -2.56006 6
23.993153 21.399668 -2.8500745 0
50.180073 38.588081 -5.9870973 3
13.469492 11.162745 -2.5311852 0
11.682398 9.6817045 -2.4666977 0
10.186117 8.4416723 -2.3467612 0
9.0935392 7.5362062 -2.3398185 0
8.1373777 6.7437944 -2.2811546 0
7.4077559 6.1391249 -2.2473757 0
6.795392 5.6316328 -2.2175128 0
4.7564583 3.9418812 -2.1347075 0
0.68067604 0.56410545 -0.41357124 0
31.329432 25.780104 5.6191072 1
57.041599 46.93792 6.3108931 2
25.696835 21.145201 1.6660092 3
25.480927 20.967535 1.0681586 3
54.46418 41.580788 2.0169373 3
54.241493 38.376698 1.756165 3
57.841221 37.850231 1.6266036 1
23.795998 22.668543 0.67522645 2
24.580486 21.769934 0.57886785 0
49.920677 41.078316 0.94674414 0
54.738354 41.790108 0.80775446 2
13.521327 9.5665493 0.14483541 0
54.981178 35.978672 0.38303602 1
26.323509 25.076302 0.10342856 4
26.584591 23.544886 -0.0030990066 3
50.129654 41.250275 -0.19715348 0
57.833706 40.918243 -0.63185883 0
56.551224 37.006081 -0.8044908 4
57.972778 55.226028 -1.1865103 1
26.586372 23.546465 -0.63168663 3
55.359253 42.264133 -1.6510866 2
57.916706 40.976971 -1.888787 0
57.22633 37.447861 -2.0249898 3
56.104622 53.446384 -2.5190642 3
6.3142757 5.5922961 -0.29955706 0
56.518826 46.507744 -2.8143852 3
50.146278 38.284279 -2.6133652 255
54.2822 38.405499 -2.9485686 3
54.940678 35.952171 -3.107861 2
26.603821 23.561918 -1.8916843 1
50.133503 38.274525 -3.7296007 25
21.720726 20.691597 -2.0377538 1
50.041698 38.204437 -4.8388524 0
9.1987019 6.5082245 -0.89850551 0
22.603271 21.53233 -2.6730139 1
24.428617 21.635427 -2.8928134 0
13.514488 11.12069 -2.5323308 0
11.682586 9.6132698 -2.4596372 0
10.212481 8.4035616 -2.3460624 0
9.104641 7.4919515 -2.3359318 0
8.145772 6.7029257 -2.2769351 0
7.4351559 6.1181798 -2.2491956 0
6.8000307 5.5955534 -2.2126391 0
4.7672696 3.9228513 -2.1334009 0
0.70782036 0.58244538 -0.42882591 0
31.456051 25.70067 5.6256919 0
57.202007 46.736 6.3105526 1
25.451839 20.795025 1.6454091 3
25.609692 20.923994 1.070488 3
54.765125 41.508762 2.0227039 2
54.591091 38.338799 1.7631402 1
58.063541 37.706902 1.6291442 3
21.913967 20.730255 0.61976552 1
25.112818 22.085459 0.58958501 9
50.057568 40.898746 0.94662702 4
54.61932 41.398251 0.80386066 5
54.8372 38.511639 0.5859521 2
55.24062 35.873672 0.38396871 3
24.373911 23.057322 0.095451511 2
56.733391 49.894161 -0.0065931557 4
50.056511 40.897884 -0.19630314 3
57.360374 43.475811 -0.43088025 2
50.614594 35.546143 -0.55162787 0
56.529102 36.710423 -0.80234826 7
29.426905 27.83737 -0.60027856 0
57.141861 50.253391 -1.3535024 2
58.026726 47.409821 -1.552591 0
56.95649 43.169689 -1.6942195 5
50.644493 35.567139 -1.6475656 1
57.148808 37.112865 -2.0176499 4
29.397169 27.809242 -1.3155488 0
51.039288 44.886482 -2.4139187 1
