# .PCD v0.7 - Point Cloud Data file format
VERSION 0.7
FIELDS x y z intensity
SIZE 4 4 4 4
TYPE F F F F
COUNT 1 1 1 1
WIDTH 1393
HEIGHT 1
VIEWPOINT 0 0 0 1 0 0 0
POINTS 1393
DATA ascii
3.6500709 -11.961243 -1.8094623 8
3.4628251 -11.34764 -1.9288126 1
3.1945646 -10.468554 -1.9415449 2
2.9397933 -9.6336708 -1.9954532 1
2.8393133 -9.3043985 -2.0997088 0
2.5909472 -8.4905052 -2.0735908 0
2.3891315 -7.8291578 -2.0566821 0
4.0132794 -13.151474 -4.7514877 0
0.60488272 -1.9821941 -0.96951944 0
2.9241374 -9.7097073 2.661814 5
3.9761386 -13.202916 2.644793 9
4.7175798 -15.6649 2.2657514 0
5.8256335 -19.344233 1.7259194 1
3.5769925 -11.877537 0.62100345 6
3.5680687 -11.847905 0.40052712 7
5.275475 -20.151899 0.61315453 2
4.5854206 -20.530823 0.55600792 1
0.90011275 -4.8518462 0.11611875 1
8.3306904 -21.793089 0.47934666 1
7.3951616 -21.673527 0.40372682 2
3.5580215 -11.814543 0.18069202 9
7.1057463 -27.143391 0.32909733 0
5.0803189 -22.746687 0.20380487 1
3.7100992 -19.998419 0.11856931 1
40.720856 -106.52578 0.32444182 11
7.7967396 -22.85046 -0.0021069613 2
3.5549266 -11.804266 -0.037438508 9
7.7270689 -29.516794 -0.18265836 2
6.1343861 -27.466181 -0.25100264 4
6.856565 -36.958702 -0.44745246 2
11.307101 -33.138527 -0.62279463 5
3.5587928 -11.817104 -0.25571308 9
9.5884447 -36.627102 -0.89754194 9
6.1237411 -27.41852 -0.74793541 3
3.8157451 -20.567877 -0.61939472 1
11.301764 -33.122887 -1.2429489 3
3.5649962 -11.837703 -0.47536552 12
7.2529793 -27.705809 -1.1863281 10
6.7810135 -30.361399 -1.3794836 5
3.8080468 -20.526381 -0.98816854 21
12.965096 -33.916695 -1.8228801 3
8.8537388 -25.948282 -1.4594269 5
3.5700808 -11.854586 -0.69521177 17
3.6798999 -14.056928 -0.8592059 14
3.0744858 -13.765743 -0.87480092 12
2.5060852 -13.508463 -0.89375621 5
5.3322482 -13.949163 -1.0144039 5
4.4877338 -13.152521 -0.98591566 12
3.5740445 -11.867747 -0.91539603 16
3.3896503 -12.948197 -1.0287082 13
2.882045 -12.904106 -1.0542973 15
2.4693735 -13.310577 -1.1206137 15
5.0418639 -13.189518 -1.2090499 5
4.5020251 -13.194406 -1.2358918 6
3.5688536 -11.850512 -1.1330781 19
3.3795002 -12.909424 -1.2621264 8
2.8914506 -12.946218 -1.2924819 12
2.4472504 -13.191328 -1.3483601 7
5.0377693 -13.178807 -1.4580094 10
4.4262481 -12.972321 -1.4580458 4
3.5706069 -11.856333 -1.3528042 16
3.5838356 -11.90026 -1.5782009 19
3.5776668 -11.879776 -1.7951424 16
3.4200718 -11.356476 -1.9281708 1
3.1573095 -10.483964 -1.9422436 2
2.9010696 -9.63311 -1.9931211 1
2.804064 -9.3109989 -2.0988648 0
2.5598102 -8.4999447 -2.0735908 0
2.36042 -7.837862 -2.0566821 0
4.0184693 -13.343476 -4.8155026 0
0.60179263 -1.9982747 -0.97629929 0
2.9045618 -9.7680655 2.6750164 7
3.8482919 -12.941838 2.5897875 12
6.3635921 -21.400814 3.0921552 9
3.5350418 -11.888375 1.0595899 6
5.7839994 -19.451639 0.65689039 2
5.1481524 -19.94952 0.60644633 1
4.3575778 -19.835909 0.53677332 0
3.5784886 -19.671631 0.47049737 3
8.1625986 -21.578903 0.474006 0
6.8976269 -20.448645 0.38045931 1
3.5281589 -11.865228 0.18127772 7
5.2269835 -20.254997 0.24535695 0
5.0051775 -22.783813 0.20397975 1
3.6388369 -20.003376 0.11852267 0
8.1982527 -21.673159 0.065921627 0
7.6836882 -22.778994 -0.0020978858 1
3.5159802 -11.824271 -0.037462804 8
7.5790114 -29.369301 -0.1815808 2
6.7344937 -30.655746 -0.27993432 4
4.6472664 -25.546906 -0.30909356 1
11.362646 -33.6856 -0.63232684 1
3.5346191 -11.886954 -0.25695601 6
11.985539 -46.444962 -1.137095 3
6.0468698 -27.525648 -0.75027734 2
3.731761 -20.514198 -0.61738217 9
8.7508192 -25.9426 -0.9723537 1
3.5293493 -11.869232 -0.47613397 9
7.1871805 -27.850922 -1.1914601 6
6.6612711 -30.322433 -1.3766484 7
6.2985582 -34.624371 -1.6657969 13
12.76182 -33.737553 -1.8108466 2
8.7133169 -25.831421 -1.4511347 13
3.5366466 -11.893772 -0.69678164 11
3.6447778 -14.123816 -0.86251146 6
3.0255585 -13.772491 -0.87455332 12
2.4853485 -13.662432 -0.9033637 8
5.1479764 -13.609353 -0.98837972 13
4.5144863 -13.383605 -1.0020504 10
3.5314596 -11.876328 -0.91510141 13
3.3334696 -12.917472 -1.0253365 12
2.8369834 -12.914087 -1.0542973 20
2.4271762 -13.342649 -1.1225936 4
4.9436216 -13.069114 -1.1964236 8
4.4253764 -13.119431 -1.2274147 4
3.5240595 -11.851442 -1.131984 21
3.3344169 -12.921143 -1.2621264 16
2.8846815 -13.131212 -1.3099374 3
2.5037611 -13.76365 -1.4059583 4
5.0044055 -13.229805 -1.4617099 4
4.4127216 -13.081915 -1.4686236 5
3.5223985 -11.845856 -1.3501976 22
3.5354881 -11.889876 -1.5751776 19
3.5327916 -11.880808 -1.793424 9
3.3837852 -11.379698 -1.9300964 1
3.126307 -10.513797 -1.9457368 2
2.8618343 -9.6243725 -1.9892344 0
2.7592866 -9.2795048 -2.0895817 0
2.5245731 -8.49016 -2.0690415 0
2.3341517 -7.8497725 -2.057657 0
3.9912634 -13.422652 -4.8390183 0
0.5999769 -2.0177274 -0.98477411 0
2.8667033 -9.7590818 2.6699386 9
3.8186424 -12.999757 2.5988295 16
3.450597 -11.746824 1.6956095 3
3.4877381 -11.873263 1.0572065 10
6.0767341 -20.686949 1.079406 3
5.7205939 -19.474546 0.65701979 7
5.0799956 -19.958731 0.60621095 2
4.2638898 -19.721277 0.53328568 6
3.7408922 -20.958874 0.50098562 1
5.330884 -14.23537 0.31230661 0
4.6527548 -13.94605 0.25918612 0
6.4816065 -22.06525 0.33678415 2
6.1645298 -28.512087 0.2550796 3
3.6933694 -20.692619 0.12253328 3
8.1235304 -21.692736 0.065898865 0
7.6131706 -22.819525 -0.0020992819 1
3.4992993 -11.912621 -0.037705753 1
10.351668 -40.67054 -0.25123906 0
6.0563269 -28.011627 -0.25560459 2
3.6573279 -20.490692 -0.24777003 8
11.162277 -33.457527 -0.62734729 0
6.5474105 -22.289267 -0.48134711 2
11.625304 -45.674511 -1.1172824 10
6.5538173 -30.312611 -0.82564574 7
6.6129484 -37.049969 -1.1143659 1
8.6432343 -25.907013 -0.96994025 12
6.5879145 -22.427155 -0.89878356 3
7.1026692 -27.905586 -1.1927844 8
1.1755011 -5.4369092 -0.24665911 0
6.1682591 -34.558537 -1.6616361 17
12.543392 -33.49535 -1.7956041 2
8.6073818 -25.799549 -1.4477328 9
7.3489351 -25.017887 -1.4642057 8
3.5644336 -14.004258 -0.85448372 13
2.9359992 -13.579537 -0.86167765 11
2.4147789 -13.529138 -0.89401585 7
5.1280098 -13.693623 -0.99325925 8
4.4763927 -13.417427 -1.0034657 9
3.5010531 -11.918591 -0.91745842 8
3.2847123 -12.905264 -1.0234973 17
2.7907722 -12.907836 -1.0530256 18
2.3513966 -13.174028 -1.1077445 15
4.904448 -13.096633 -1.1974474 12
4.3137541 -12.929938 -1.2083412 8
3.4847417 -11.863062 -1.131984 17
3.3436093 -13.136664 -1.2820885 7
2.9025366 -13.424767 -1.3382541 13
2.3797812 -13.333057 -1.3611597 9
5.0539947 -13.495976 -1.4892583 3
4.3328104 -12.987056 -1.4563534 6
3.4898231 -11.880362 -1.3528042 23
3.4982793 -11.909148 -1.5761853 20
3.4855659 -11.865869 -1.7894145 8
3.3449194 -11.387067 -1.9294544 1
3.0825465 -10.493875 -1.9401476 2
2.8310106 -9.6375732 -1.9900117 1
2.7285013 -9.2886028 -2.0895817 0
2.497504 -8.5022211 -2.0699513 0
2.3015494 -7.8351359 -2.0518086 0
0.59226185 -2.0162294 -0.98307914 0
2.8218455 -9.7318716 2.6597829 9
3.2579625 -11.235934 2.2439299 8
3.3985374 -11.720743 1.690122 9
3.450711 -11.900678 1.0585685 13
6.0122738 -20.734896 1.080806 2
5.6180654 -19.375364 0.65300804 0
5.0482349 -20.12759 0.6108008 1
3.4068975 -16.028198 0.43309647 7
3.612597 -20.656675 0.49345765 7
7.7821045 -21.00396 0.4602024 1
6.9198446 -20.985088 0.38955477 6
1.5560259 -5.3663611 0.081823908 0
13.388047 -53.378883 0.64548111 255
3.407125 -16.02927 0.14329647 2
3.6211154 -20.705385 0.12253328 2
8.0421991 -21.705957 0.06585335 1
7.3104963 -22.169775 -0.0020371482 1
9.0519419 -31.217985 -0.098710358 1
13.216492 -52.694878 -0.32523149 255
3.4046252 -16.017509 -0.14604957 0
4.4960046 -25.707964 -0.31066474 2
11.130328 -30.04084 -0.47474638 1
11.090508 -33.633022 -0.6299082 7
2.2775455 -7.8547101 -0.16945341 0
8.6514025 -34.493618 -0.84303343 2
5.8169694 -27.366701 -0.74484825 7
2.6022477 -14.879542 -0.44726172 0
8.5164442 -25.826929 -0.96582305 15
6.498457 -22.411625 -0.89724666 9
7.0441136 -28.08527 -1.1994065 7
5.7958703 -27.267437 -1.2361307 7
6.0620432 -34.662506 -1.6656077 8
12.390306 -33.441532 -1.7903895 2
8.4885015 -25.742189 -1.4428425 8
6.5052638 -22.435101 -1.3117076 9
3.4980454 -13.946899 -0.85023373 11
2.8694882 -13.499887 -0.85598266 15
2.3922935 -13.679032 -0.9033637 6
5.0621533 -13.66279 -0.98973513 8
4.3658047 -13.239718 -0.98902941 10
3.7516017 -12.938377 -0.99494445 12
3.234796 -12.89731 -1.0219647 15
2.7390659 -12.886297 -1.050482 28
2.2744925 -13.005451 -1.0928954 7
4.8614712 -13.121148 -1.1981299 8
4.2698417 -12.948701 -1.2086945 9
3.4555128 -11.917237 -1.1359955 14
3.2328279 -12.889463 -1.2568536 16
2.750536 -12.940259 -1.2889907 8
2.2722034 -12.992363 -1.3255607 14
4.9197659 -13.278486 -1.4633546 4
4.3522229 -13.19853 -1.4783552 3
3.4538684 -11.911567 -1.3549763 22
3.4655278 -11.951777 -1.5802165 22
3.4364076 -11.851349 -1.7854049 8
3.3029513 -11.39109 -1.9281708 1
3.0480905 -10.512136 -1.9415449 2
2.7951663 -9.6398611 -1.9884571 0
2.7069499 -9.3356237 -2.098021 0
2.465641 -8.5034065 -2.0681317 0
2.2806678 -7.865478 -2.057657 0
3.8250551 -13.191701 -4.7462621 0
0.58522022 -2.0182846 -0.98307914 0
2.7580521 -9.6375122 2.6313469 10
3.2230449 -11.262344 2.246944 14
3.3641441 -11.75539 1.6934144 8
3.4201138 -11.950967 1.0619733 1
5.6265974 -19.661123 1.0238056 1
6.5216627 -22.788765 0.76727796 2
5.5495939 -22.458475 0.68094283 2
3.3386619 -15.981281 0.43151119 16
3.6262124 -21.169727 0.50540829 0
7.7376418 -21.109848 0.46192783 0
7.07828 -21.720194 0.4027397 3
6.1227264 -21.394756 0.32588992 14
13.3091 -53.860176 0.65073544 93
3.3429723 -16.001913 0.14294671 16
8.7866154 -51.296017 0.30338356 12
7.966382 -21.733896 0.06585335 1
9.582942 -29.405924 -0.002698977 0
6.3478632 -22.181454 -0.070066623 5
13.01328 -52.663029 -0.32475257 255
3.3486927 -16.029295 -0.14604957 14
7.3092914 -42.671444 -0.51534641 2
10.993739 -29.993137 -0.47338319 1
13.546839 -41.569416 -0.77765745 3
6.4268517 -22.457466 -0.48399872 3
7.3682876 -29.818489 -0.72813898 0
3.346822 -16.020342 -0.43571016 9
4.3843694 -25.595827 -0.76891607 4
8.4225235 -25.845097 -0.96539718 10
6.4553766 -22.55714 -0.90216476 3
6.9661674 -28.191164 -1.202883 5
3.3479898 -16.02593 -0.72597873 8
5.9025598 -34.458981 -1.6548277 5
12.395862 -33.818409 -1.8082393 3
6.4313064 -22.47303 -1.3126047 4
3.4474242 -13.951272 -0.84976149 16
2.8345933 -13.568439 -0.85969681 10
2.3094864 -13.482718 -0.88986129 8
5.0254183 -13.710354 -0.99190378 8
4.282474 -13.141068 -0.98053741 11
3.7075126 -12.95523 -0.99523908 11
3.1907127 -12.912395 -1.0222712 13
2.6924367 -12.887974 -1.0498462 20
2.3959925 -13.987738 -1.1747305 9
4.8211265 -13.153005 -1.199495 9
4.2480721 -13.035503 -1.2154055 6
3.7010319 -12.932584 -1.2315432 5
3.1859045 -12.892937 -1.2561002 17
2.7419848 -13.125148 -1.3064463 5
2.2181022 -12.94922 -1.3203609 21
4.8158741 -13.138676 -1.4460855 5
4.2223191 -12.956479 -1.4495835 10
3.4232082 -11.96178 -1.3593205 14
3.4237869 -11.963801 -1.5802165 16
3.3939283 -11.859466 -1.7848321 8
3.2512195 -11.360796 -1.9211102 1
2.4478955 -8.5537262 -1.5782475 0
2.7561018 -9.6306973 -1.9845703 1
2.6635883 -9.3074255 -2.0895817 0
2.4370148 -8.5157061 -2.0690415 0
2.2499957 -7.8622017 -2.0547328 0
3.7810643 -13.212242 -4.7488747 0
0.57119352 -1.995932 -0.97121441 0
2.7222912 -9.6396351 2.6293159 11
3.7324808 -13.216717 2.634244 8
3.3500102 -11.862389 1.7071331 11
6.2465844 -22.11916 1.9635781 2
5.5297041 -19.580685 1.0186056 0
5.6880183 -20.141277 0.67746675 1
5.0135007 -20.597445 0.62398183 2
3.2860761 -16.008505 0.43193394 11
3.5542779 -21.194088 0.50569057 1
7.8602071 -21.678118 0.4737595 1
6.8173056 -21.169933 0.39209306 1
5.6164722 -19.887932 0.30263716 0
5.4428883 -22.361538 0.26993954 5
3.2854896 -16.005648 0.14287676 16
3.4083362 -20.323841 0.12013158 2
7.9177365 -21.836781 0.066080943 1
7.5797758 -23.537651 -0.0021579249 0
1.944823 -6.8866196 -0.021731827 0
3.2919185 -16.036968 -0.1460139 17
4.3025279 -25.655888 -0.30966491 5
10.803084 -29.794449 -0.46964923 1
13.706903 -42.564354 -0.79537028 2
6.4103732 -22.699135 -0.48872185 3
7.2414589 -29.750778 -0.72586381 11
3.2820394 -15.98884 -0.43453917 17
4.2976413 -25.626749 -0.76938963 0
8.3310289 -25.870535 -0.9652552 10
6.9838409 -24.729786 -0.98807788 11
8.3639479 -34.362408 -1.4649479 8
3.2848001 -16.002289 -0.72438395 24
12.200116 -33.6474 -1.7968074 20
8.3134775 -25.816031 -1.4436929 17
7.0159979 -24.843653 -1.4496287 3
3.3835943 -13.901144 -0.84598374 15
2.7671468 -13.480481 -0.85350657 13
2.2076144 -13.16396 -0.86830932 10
4.9557629 -13.667784 -0.98756641 7
4.256145 -13.216704 -0.98506647 10
3.6492579 -12.922025 -0.99170357 10
3.139961 -12.900203 -1.020432 14
2.6634707 -12.97541 -1.056205 8
2.3537445 -14.035332 -1.1780304 4
4.8444681 -13.360838 -1.2168987 5
4.1976581 -13.035083 -1.2139926 10
3.6320496 -12.86109 -1.22352 12
3.1418221 -12.907848 -1.2564769 14
2.7217722 -13.259433 -1.3188591 5
2.1768367 -12.980433 -1.3227608 20
4.9123893 -13.548161 -1.4892583 4
4.1502433 -12.887845 -1.4402751 8
3.796412 -13.443097 -1.5261403 10
3.7583818 -13.308433 -1.7560761 7
3.3632691 -11.909338 -1.7905601 7
3.21047 -11.368277 -1.9204683 1
2.9639242 -10.495257 -1.9345584 2
2.7182019 -9.6251545 -1.9814609 0
2.6470222 -9.3731079 -2.1022406 0
2.4083331 -8.5279093 -2.0699513 0
2.2214835 -7.8662744 -2.0537579 0
0.56225353 -1.9909402 -0.96782446 0
2.7031643 -9.7012568 2.6435337 10
3.3309762 -11.95438 2.3803139 0
3.3479316 -12.015231 1.7274364 10
6.097661 -21.883602 1.9407655 0
5.6251888 -20.187969 0.67837262 1
4.9331827 -20.579826 0.62292266 3
3.2388692 -16.062996 0.43309647 5
3.4802794 -21.206366 0.50569057 0
7.8749433 -21.957638 0.4792645 1
6.5990653 -20.74008 0.38370264 0
5.5835161 -20.038412 0.30462858 3
5.4002275 -22.528202 0.27172226 0
3.2319705 -16.028782 0.14298168 17
4.8214459 -29.378487 0.1735519 1
8.2263126 -22.937357 0.069324106 1
9.7109385 -30.520329 -0.0027949703 1
5.9523535 -21.362114 -0.067345589 0
6.516593 -27.185362 -0.16735701 1
3.2335467 -16.0366 -0.14590688 13
4.1151409 -25.074764 -0.30247557 4
3.8764358 -10.808633 -0.1701619 0
13.346034 -41.945004 -0.78292149 2
10.748269 -38.573944 -0.82970023 7
8.2757339 -34.523991 -0.84161144 1
3.2325299 -16.031557 -0.4353908 18
4.2101088 -25.653431 -0.76974475 2
13.437008 -37.466297 -1.2939739 8
8.2382488 -25.89184 -0.96497124 10
6.9178596 -24.827171 -0.99099797 9
9.5566082 -39.867432 -1.6982073 8
3.2249718 -15.994073 -0.72349793 23
4.193655 -25.553175 -1.2257073 3
12.136536 -33.840202 -1.8048298 4
8.2729664 -26.000952 -1.4524105 10
7.7567968 -27.837994 -1.6227589 3
3.3471496 -13.96335 -0.84905314 14
2.734278 -13.560502 -0.85796356 12
2.1648848 -13.19128 -0.86960763 16
4.8797307 -13.606112 -0.98187363 8
4.193047 -13.17825 -0.9811036 7
3.6051998 -12.938527 -0.9919982 9
3.0939817 -12.907207 -1.0201255 12
2.6063395 -12.926 -1.0514358 14
2.1756232 -13.256713 -1.1120342 14
4.792419 -13.362661 -1.2155337 4
4.1654201 -13.091421 -1.217878 6
3.5924792 -12.892876 -1.2253435 9
3.1301639 -13.058147 -1.270036 7
2.6857009 -13.319588 -1.3239018 4
2.1766341 -13.262872 -1.35076 6
4.8005939 -13.385455 -1.4695221 3
4.1233211 -12.959108 -1.4466218 8
3.6352611 -13.046413 -1.4796567 6
3.7023172 -13.287068 -1.751541 13
3.3333654 -11.962955 -1.7968608 8
3.1697075 -11.37561 -1.9198265 1
2.9325562 -10.524509 -1.9380516 2
2.689853 -9.6534834 -1.9853476 0
2.621634 -9.4086561 -2.1081481 0
2.3795958 -8.5400171 -2.0708611 0
2.1981766 -7.8889298 -2.057657 0
0.5601629 -2.0103416 -0.97629929 0
2.6932096 -9.8043671 2.6689231 6
3.2829764 -11.951356 2.3772998 9
4.3302965 -15.764021 2.2641051 3
4.6302404 -16.855938 1.493368 2
5.3672233 -19.538853 1.0144056 0
5.6697636 -20.640221 0.69286662 0
4.8623095 -20.617228 0.62351108 2
3.986994 -20.154247 0.54300869 0
3.3056591 -20.614864 0.49129337 3
7.7102313 -21.748884 0.47408816 1
7.1367087 -22.71768 0.41980258 0
5.5555892 -20.224581 0.30714715 3
5.376379 -22.796991 0.27472472 14
4.1519885 -25.892775 0.1528693 1
1.9460001 -5.4892426 0.016568597 0
7.4794831 -23.808805 -0.0021778217 0
6.2702808 -22.826345 -0.071888737 3
6.9044442 -29.276314 -0.18007222 1
3.1832857 -16.091503 -0.1462993 1
6.0249987 -37.573303 -0.45297539 2
2.8117797 -7.9314184 -0.12470242 0
12.25607 -39.01371 -0.72736436 2
10.071866 -36.665646 -0.78785479 0
7.0724411 -29.988657 -0.73041409 4
3.1791813 -16.070755 -0.43613598 13
4.1458087 -25.854237 -0.77530891 0
13.27556 -37.447464 -1.2916344 5
8.1576719 -25.967627 -0.96667492 14
6.8659902 -24.994967 -0.99668455 0
7.0509362 -29.89747 -1.2724138 1
3.1717567 -16.033224 -0.7247383 20
4.0987043 -25.560482 -1.225329 5
11.886954 -33.53051 -1.7859772 3
3.7506161 -11.939018 -0.6661399 0
7.6631761 -27.897045 -1.624553 10
3.3041978 -14.010503 -0.85117817 14
2.7124491 -13.711425 -0.86687744 10
2.1070418 -13.140008 -0.8657127 15
4.7551575 -13.413264 -0.96669281 10
4.0956893 -13.037461 -0.96949792 9
3.5809996 -13.03628 -0.9984799 8
3.0548928 -12.953396 -1.0228842 13
2.5519814 -12.900262 -1.0485743 12
2.1844561 -13.622782 -1.1420624 8
4.6435375 -13.098409 -1.1899399 12
4.0600901 -12.924142 -1.2009237 12
3.5525861 -12.932843 -1.2278963 11
3.0429766 -12.902869 -1.2538404 13
2.5881903 -13.083298 -1.2994641 14
2.1481733 -13.396513 -1.3635596 4
4.6930079 -13.237954 -1.4514307 4
4.073411 -12.966544 -1.4457755 8
3.5610871 -12.963791 -1.468796 15
3.6420307 -13.258457 -1.7459981 17
3.2947397 -11.994178 -1.7997248 9
3.1342673 -11.409994 -1.9236777 1
2.8950052 -10.538984 -1.9387503 1
1.8687183 -6.8028865 -1.3976723 0
2.590239 -9.429512 -2.1106799 0
2.1599989 -7.863265 -2.0488844 0
0.54895204 -1.9984064 -0.96951944 0
2.6154625 -9.6531334 2.6252534 8
3.237129 -11.947577 2.3742857 3
4.1218896 -15.213045 2.1828914 3
4.6724734 -17.245136 1.5263951 1
5.3125687 -19.607597 1.0170056 1
5.5380864 -20.439938 0.68549019 0
5.2080398 -22.433422 0.67788297 2
3.9181426 -20.175894 0.5432201 7
3.1339622 -19.990227 0.47614336 2
7.5548801 -21.549229 0.46915829 1
3.6614377 -11.799033 0.21779814 7
5.4274306 -20.031528 0.30392572 1
5.4993777 -23.688349 0.28523332 3
3.9239364 -20.205729 0.17998624 9
4.5553384 -29.056589 0.17145333 3
7.8502321 -22.391678 0.067503378 4
1.8517495 -5.9672885 -0.00054524082 0
12.668792 -46.7579 -0.14711803 78
6.3445063 -27.328705 -0.16795565 6
3.9361305 -20.26852 -0.18414947 1
4.0384402 -25.759512 -0.31037909 3
10.657297 -30.398434 -0.47735423 0
3.6720953 -11.833378 -0.22037895 1
9.9208097 -36.615665 -0.78603178 1
10.450219 -45.013897 -1.095479 4
3.9446874 -25.161501 -0.75411785 9
10.728231 -30.600765 -1.0541806 2
3.6691773 -11.823975 -0.43968162 6
7.4685893 -27.565025 -1.0981205 13
6.9862976 -30.093195 -1.279698 5
3.9636567 -20.410261 -0.92195928 13
4.0187387 -25.633844 -1.2281659 0
11.771159 -33.575569 -1.7861779 4
3.6734033 -11.837592 -0.65976131 14
7.5678387 -27.931334 -1.6250014 11
3.2435324 -13.971386 -0.84810871 15
2.6105332 -13.442553 -0.84929723 9
2.056834 -13.119679 -0.86389506 13
4.7069874 -13.426016 -0.96642172 9
3.676476 -11.847494 -0.88004935 21
3.547991 -13.094904 -1.0020155 5
2.9961293 -12.905706 -1.0182863 12
2.5114963 -12.932576 -1.050482 12
2.1442993 -13.677583 -1.1460222 8
4.5977869 -13.114537 -1.1899399 6
4.0149512 -12.938235 -1.2009237 13
3.508462 -12.94901 -1.228261 7
2.9916146 -12.886259 -1.2512039 17
2.5470588 -13.115701 -1.3017914 10
2.0600967 -13.140491 -1.3367604 12
4.6217589 -13.182915 -1.4436184 3
4.1495457 -13.371967 -1.4893562 4
3.5470095 -13.091281 -1.4818288 5
3.6019537 -13.29407 -1.7490215 12
3.2652752 -12.051458 -1.8065983 10
3.1016474 -11.447541 -1.9281708 1
2.8530495 -10.530019 -1.9352571 2
2.6196795 -9.6686974 -1.9845703 0
2.5419703 -9.3818884 -2.098021 0
2.3153682 -8.5455465 -2.0681317 0
2.1355813 -7.8819909 -2.0518086 0
0.54007792 -1.9933163 -0.96612948 0
2.5834367 -9.6617537 2.6252534 10
3.4694452 -12.975323 2.5762243 2
4.5463138 -17.002687 2.4375072 0
4.5977583 -17.195082 1.5206069 0
5.2310061 -19.563356 1.0138056 1
5.40418 -20.211008 0.67720789 6
4.7004695 -20.556303 0.62068659 5
5.3122783 -27.84794 0.74930549 1
3.18648 -20.775232 0.49458686 0
10.101905 -29.123232 0.6333226 0
3.6140845 -11.784343 0.21730459 9
5.3372107 -19.96055 0.3025786 5
5.4288173 -23.741547 0.28565553 2
5.2921953 -27.742661 0.24696518 3
4.5668979 -29.775291 0.17560384 3
7.8047729 -22.500727 0.067753732 2
3.6181648 -11.797647 -0.0010768682 8
6.1292267 -22.922596 -0.072058804 5
12.150149 -53.135578 -0.32630906 145
3.8569033 -20.218596 -0.18357868 6
4.5654392 -29.765779 -0.35846666 9
3.3357487 -9.6167784 -0.15084015 0
3.6211107 -11.807253 -0.2196676 8
2.6652195 -9.9676123 -0.21378474 0
6.7905993 -29.696955 -0.72216672 4
3.873673 -20.306505 -0.55035949 3
3.9521494 -25.76725 -0.77187568 1
10.511401 -30.303787 -1.0427433 5
3.6276059 -11.828432 -0.43939769 12
7.3895278 -27.635977 -1.0999647 11
6.9247727 -30.283726 -1.2868166 10
3.9011927 -20.450769 -0.92319965 6
3.8658669 -25.204704 -1.206984 14
10.531219 -30.360922 -1.613296 0
3.6235902 -11.815338 -0.6578477 24
7.4658875 -27.921555 -1.6229831 10
3.1918428 -13.95871 -0.84669209 17
2.6093302 -13.678589 -0.86365855 12
2.0290494 -13.22901 -0.8706463 17
4.6742091 -13.475485 -0.96886152 9
3.6360011 -11.855805 -0.87976629 25
3.51176 -13.133575 -1.0040778 4
2.9542043 -12.919459 -1.0185928 13
2.4783087 -12.991751 -1.0546153 10
2.0034418 -13.062054 -1.0938853 9
4.5307622 -13.061936 -1.1837974 12
3.6449194 -11.884886 -1.1020241 16
3.4840226 -13.02984 -1.2348254 7
2.9568543 -12.931047 -1.2545936 17
2.4714732 -12.955917 -1.2851118 10
2.0086653 -13.096108 -1.3315605 14
4.5845361 -13.216964 -1.4456743 17
3.9663994 -12.933126 -1.4390057 8
3.4707086 -12.980047 -1.4679272 17
3.5670738 -13.340443 -1.7535566 10
3.2426767 -12.127235 -1.8163359 9
3.0769265 -11.507348 -1.936515 0
2.8181145 -10.539422 -1.9352571 3
2.5896292 -9.6849127 -1.986125 0
2.5179143 -9.416707 -2.1039286 0
2.2920475 -8.5719919 -2.072681 0
2.1094315 -7.8890295 -2.0518086 0
0.53814423 -2.0125971 -0.97460431 0
2.5388474 -9.6295605 2.6140821 13
2.7080605 -10.271367 2.0374703 2
4.7960353 -18.190819 2.605422 3
4.5753055 -17.353617 1.5332048 0
5.1962991 -19.708975 1.0204057 1
5.4661007 -20.732302 0.69403136 2
5.2869167 -23.498154 0.70895261 2
3.649791 -19.502489 0.52440816 0
2.089587 -13.948445 0.33188885 0
7.0823822 -20.650656 0.44853505 12
3.5764048 -11.80837 0.21751611 8
5.2705655 -19.990658 0.30275431 0
5.3836627 -23.928148 0.28767282 1
5.2210746 -27.898571 0.24818935 1
7.2339716 -48.288326 0.28463629 14
7.0501099 -20.556557 0.061824996 0
3.5723231 -11.794892 -0.0010754719 9
5.9002948 -22.37915 -0.070285276 1
6.1741419 -27.441502 -0.16838668 5
3.787039 -20.235868 -0.18361436 2
7.2418776 -48.341099 -0.58185959 12
11.424563 -33.311493 -0.52186543 5
3.5798731 -11.819821 -0.2196676 10
7.8881769 -29.918962 -0.64110565 0
6.180419 -27.469398 -0.66746861 7
3.8027661 -20.319904 -0.55035949 13
3.7810268 -25.239172 -0.75565684 13
11.352342 -33.10091 -1.1376209 2
3.5851357 -11.837197 -0.43925571 11
7.2807927 -27.615223 -1.0981205 11
6.7707701 -30.093266 -1.2777114 1
3.8172855 -20.39749 -0.92018729 16
3.8050916 -25.399809 -1.2156837 4
10.438136 -30.435289 -1.6153016 1
3.5788512 -11.816447 -0.65720987 24
3.7814252 -14.342518 -0.83290857 0
3.153616 -14.016515 -0.84952539 14
2.5887394 -13.832809 -0.87282008 8
1.9793105 -13.212326 -0.86908835 12
4.5753551 -13.340721 -0.95801806 11
3.5922809 -11.860788 -0.87920016 23
3.4170809 -12.960601 -0.98993582 11
2.9108396 -12.937474 -1.0192059 12
2.65152 -14.168275 -1.1493621 17
1.9418881 -12.962523 -1.0849758 9
3.5849316 -11.836523 -1.0963727 20
3.4263351 -12.995701 -1.2304491 6
2.9116981 -12.94129 -1.2545936 19
2.4430771 -13.05447 -1.2940335 7
1.9434803 -12.973151 -1.3183609 15
4.6145282 -13.454941 -1.4699333 4
3.5960939 -11.873379 -1.319688 17
3.5662892 -13.526531 -1.5283124 5
3.5113833 -13.318279 -1.7490215 11
3.2447343 -12.30691 -1.8415389 4
3.0407679 -11.533289 -1.9390825 1
2.7833183 -10.556811 -1.9366543 4
2.5568089 -9.6976862 -1.9869024 0
2.4780526 -9.3989735 -2.098021 0
2.2591345 -8.5686407 -2.0699513 0
2.0878165 -7.9188514 -2.057657 0
0.52742136 -2.0004497 -0.96782446 0
2.5091114 -9.6533422 2.6181445 12
2.6702139 -10.273154 2.0359633 2
4.748456 -18.268806 2.6142018 2
4.4364996 -17.068611 1.506647 2
5.21591 -20.067249 1.0380057 1
5.2569199 -20.225027 0.67643142 2
4.3563919 -19.682936 0.59338295 1
3.5838573 -19.526911 0.5247252 0
3.1952841 -21.849485 0.51961732 0
7.8154259 -23.049932 0.50005209 0
3.53631 -11.824615 0.21758662 9
5.5418358 -21.321188 0.32260993 0
5.0330248 -22.740082 0.27317658 0
3.6578987 -19.93033 0.17718816 1
4.2981429 -29.390877 0.1731555 3
6.9461999 -20.486336 0.061540507 0
3.5345676 -11.818788 -0.001076519 11
2.1433046 -8.2459679 -0.025874116 0
11.794456 -53.289402 -0.32674009 30
4.686811 -25.536434 -0.23156029 2
3.7313001 -25.514784 -0.30695105 1
11.441781 -33.745094 -0.52802938 0
3.5363002 -11.824581 -0.21952532 10
7.7635713 -29.868906 -0.6394484 0
6.775816 -30.614315 -0.74330658 4
3.8025508 -20.718477 -0.56079185 0
4.3050113 -29.437843 -0.88090909 9
11.258553 -33.2047 -1.1398304 14
3.5449395 -11.85347 -0.43939769 10
7.2094908 -27.737183 -1.1019627 8
6.7123199 -30.327431 -1.2866511 10
3.7662594 -20.520742 -0.92514884 13
4.3124881 -29.488972 -1.4106697 10
8.7488327 -25.802818 -1.3678119 11
3.5444489 -11.851829 -0.65848559 21
3.7162673 -14.297651 -0.82954466 0
3.0623879 -13.836402 -0.83795601 23
2.5332308 -13.802494 -0.87034398 8
1.9227821 -13.148063 -0.86441439 18
4.5454187 -13.405744 -0.96154219 10
3.5497136 -11.869432 -0.8789171 17
3.353756 -12.902955 -0.98463261 11
2.8544571 -12.896934 -1.015221 13
2.4976768 -13.608777 -1.1032605 6
1.9058578 -13.032333 -1.0902555 7
4.5955925 -13.55372 -1.2254299 11
3.5435925 -11.848965 -1.0963727 19
3.3589053 -12.922767 -1.2224261 5
2.8647852 -12.943598 -1.2538404 17
2.4830153 -13.528892 -1.3401935 3
1.9166125 -13.105875 -1.3311605 12
4.4193282 -13.033866 -1.4222375 12
3.5466485 -11.859183 -1.3167262 17
3.3670056 -12.953931 -1.4622797 16
3.4618776 -13.318933 -1.7475098 15
3.2097225 -12.348814 -1.8461213 4
3.0064499 -11.566761 -1.9429337 1
2.7365432 -10.528344 -1.9296678 4
2.5180066 -9.6875648 -1.9830157 0
2.4511306 -9.4302711 -2.1030846 0
2.2272508 -8.5689363 -2.0681317 0
2.0543063 -7.9035635 -2.0518086 0
0.52316964 -2.0127985 -0.97290939 0
2.4746728 -9.6662226 2.6191602 16
2.5818791 -10.084977 1.9967811 10
4.4603634 -17.422449 2.4907351 2
4.3768754 -17.09634 1.5076684 1
5.1443057 -20.093971 1.0384058 1
5.1242552 -20.015652 0.66879618 1
3.4956968 -16.073133 0.4841685 0
3.5306559 -19.642239 0.52747303 1
1.2219267 -8.5749779 0.20381947 0
7.1084557 -21.220318 0.45979157 1
5.7483411 -22.453369 0.33941984 12
6.1906743 -28.464577 0.3416701 1
3.5897789 -19.971163 0.177433 0
3.6097398 -25.331665 0.14916183 3
7.4491601 -22.237398 0.066718191 7
3.5025461 -11.870028 -0.0010800097 5
13.543469 -52.901615 -0.16583729 255
4.4075627 -20.265871 -0.12415883 0
3.7185609 -20.68762 -0.18746716 1
3.5993888 -25.259027 -0.30371347 8
3.5031238 -11.871986 -0.22016555 7
7.6451173 -29.862293 -0.63870263 1
5.9735026 -27.466028 -0.66633105 0
2.3669634 -13.168222 -0.35619012 0
4.1790371 -29.326757 -0.87712073 8
12.122194 -36.187443 -1.2406865 6
3.5139151 -11.908557 -0.44095936 4
7.1216588 -27.817633 -1.1041144 9
5.9632664 -27.418962 -1.1623234 11
6.5457129 -36.416027 -1.6406729 5
4.1942301 -29.433378 -1.4072655 21
8.6288223 -25.758949 -1.3638008 13
3.5145509 -11.910712 -0.66103703 4
3.5677607 -13.93589 -0.80779123 0
3.0167491 -13.870943 -0.83937263 15
2.48545 -13.827404 -0.87133443 11
1.8807731 -13.19849 -0.86727071 13
4.5203376 -13.494211 -0.96669281 11
3.5163486 -11.916805 -0.88146466 11
3.3193028 -12.965399 -0.98846275 8
2.8131044 -12.934588 -1.0173668 11
2.4132161 -13.425543 -1.0876813 2
1.8513304 -12.991873 -1.0862957 14
4.3851137 -13.090537 -1.1820911 6
3.5046504 -11.87716 -1.0977856 19
3.2966993 -12.877109 -1.2169558 11
2.8122504 -12.930662 -1.2515805 11
2.4108744 -13.412515 -1.3277807 14
1.8556503 -13.022188 -1.3219608 10
4.3563604 -13.004704 -1.4173036 6
3.5020325 -11.868288 -1.3163031 19
3.3056974 -12.912255 -1.4561977 9
3.4100854 -13.320001 -1.7459981 16
3.1673853 -12.372 -1.8478397 1
2.9659936 -11.585352 -1.9442174 1
2.6940291 -10.523042 -1.9268732 4
2.4824827 -9.6967287 -1.9830157 0
2.4155805 -9.4354038 -2.1022406 0
2.1938968 -8.5694942 -2.0663118 0
2.0214756 -7.8960066 -2.0479097 0
0.51758599 -2.0217223 -0.97629929 0
2.4749885 -9.8098507 2.6557207 14
2.5476213 -10.097737 1.9975346 10
4.5759273 -18.137119 2.590606 1
4.3181453 -17.115377 1.5080088 1
4.9656525 -19.681833 1.0162057 1
5.0347958 -19.955889 0.66620797 4
3.422848 -16.00704 0.48181474 10
3.4669254 -19.682011 0.52821285 1
0.92398232 -6.6502595 0.15799302 0
7.0293112 -21.229816 0.45946291 5
5.9267831 -20.34709 0.37362006 0
5.8851805 -23.326469 0.3523055 1
3.4299498 -16.040251 0.19239175 0
3.6414731 -20.67293 0.18355379 8
3.5834949 -25.791805 0.1517967 1
7.3488603 -22.194916 0.06651336 2
9.1717768 -31.487398 -0.0028619908 2
13.30197 -52.723618 -0.16513273 255
6.5524487 -30.6427 -0.18759118 3
3.6102428 -20.495634 -0.1856121 5
3.5161495 -25.307093 -0.30414197 4
4.0354743 -12.187878 -0.19025417 0
6.462513 -22.186291 -0.41102311 3
7.5330043 -29.857775 -0.63803971 2
5.8558507 -27.38504 -0.66386634 9
8.458478 -48.019447 -1.298082 1
4.1014013 -29.519379 -0.88244808 8
8.5878181 -25.936794 -0.88820988 10
6.5321288 -22.425287 -0.82953173 6
7.0646024 -28.001219 -1.1104157 8
5.8357625 -27.2911 -1.1560324 13
6.3769631 -36.202526 -1.630041 14
4.6182218 -33.239136 -1.5884455 11
8.5162506 -25.72065 -1.3601906 10
6.5392947 -22.449888 -1.2446802 1
3.5962749 -14.254176 -0.82550794 1
2.9674768 -13.877484 -0.83913654 18
2.4288571 -13.788814 -0.86836308 13
1.8456759 -13.284046 -0.87246394 13
4.5133471 -13.631142 -0.97536755 9
3.8172927 -13.105052 -0.96836567 11
3.2574351 -12.911152 -0.98345411 16
2.7570951 -12.893628 -1.0133818 14
2.3068504 -13.096172 -1.0603383 14
1.8937434 -13.630006 -1.1390927 8
4.3206015 -13.049013 -1.1769724 11
3.476541 -11.935225 -1.1020241 17
3.2712185 -12.965784 -1.2242495 5
2.7687621 -12.94819 -1.2523339 13
2.3529909 -13.358115 -1.3215743 7
1.8238753 -13.127139 -1.3319606 7
4.472271 -13.507084 -1.4703444 3
3.4639199 -11.891896 -1.3175725 20
3.2606049 -12.923716 -1.4561977 5
3.3635688 -13.331822 -1.7459981 13
3.1348324 -12.425204 -1.8541404 3
2.9158764 -11.557352 -1.9377987 2
2.6563165 -10.528563 -1.9261746 4
2.4505394 -9.712944 -1.9845703 0
2.3883688 -9.466526 -2.1073043 0
2.1658759 -8.5846539 -2.0681317 0
1.9967481 -7.9142995 -2.0508339 0
0.50786662 -2.0129774 -0.97121441 0
2.4640644 -9.9122972 2.6811099 15
2.498142 -10.049383 1.986232 9
4.5393524 -18.260647 2.6059706 4
4.2343383 -17.033655 1.4994967 0
4.9046292 -19.730062 1.0178056 2
3.0554492 -12.291287 0.40997413 0
3.3653069 -16.011066 0.48157936 19
3.5613842 -20.639679 0.55357718 6
2.9388793 -21.707901 0.51547694 0
7.1193395 -21.755934 0.4703086 2
5.7529507 -20.010193 0.36706284 0
5.7795968 -23.249832 0.35084122 6
3.3673556 -16.020813 0.19201644 11
3.5774546 -20.732815 0.18397349 0
3.4950521 -25.816048 0.15186666 2
6.9578457 -21.262426 0.06364572 0
6.3429337 -22.0623 -0.0020032888 7
13.090829 -52.661041 -0.16479261 255
3.3683493 -16.025541 -0.098033994 10
3.5495641 -20.571177 -0.18618289 0
7.4292011 -54.875465 -0.65918064 5
13.597027 -41.551044 -0.64787173 3
6.4380713 -22.393213 -0.41443762 6
7.3640947 -29.623861 -0.63248795 8
3.3666413 -16.017414 -0.38800582 7
4.4173722 -25.600481 -0.69162202 7
5.2905235 -39.07822 -1.1676396 4
8.4748478 -25.89822 -0.88587046 11
6.4759002 -22.52479 -0.83237112 4
6.9928517 -28.130444 -1.1145654 3
3.3721004 -16.043388 -0.67908424 7
6.2648311 -36.307262 -1.6337622 7
4.499486 -33.235256 -1.5874999 8
8.4152346 -25.716047 -1.3583857 8
6.4487486 -22.430351 -1.2423414 11
3.6544037 -14.700727 -0.85062528 0
2.9075181 -13.833052 -0.83583099 14
2.3291209 -13.498209 -0.84954488 12
1.7901909 -13.223166 -0.86804968 18
4.3974733 -13.438205 -0.9604578 8
3.750577 -13.045439 -0.96298742 18
3.2296689 -12.992127 -0.98875737 12
2.7235556 -12.957816 -1.0176733 12
2.3594346 -13.67389 -1.1064399 6
1.7595152 -12.99658 -1.0856358 15
4.2403193 -12.957958 -1.1674174 12
3.7144899 -12.91992 -1.1917402 11
3.225939 -12.977124 -1.2242495 10
2.7268233 -12.973364 -1.2538404 16
2.2461028 -13.017085 -1.2870513 17
1.7791094 -13.141313 -1.3327605 7
4.3805466 -13.386478 -1.4555423 3
3.4278829 -11.923029 -1.319688 14
3.2221873 -12.96203 -1.4592386 10
3.3179684 -13.347334 -1.746502 11
1.6990031 -6.8346529 -1.019004 0
2.8688483 -11.540639 -1.9333057 1
2.6223991 -10.549237 -1.9282706 2
2.4147263 -9.7138233 -1.9830157 0
2.3430474 -9.425477 -2.096333 0
1.2892432 -5.1862941 -1.2483399 0
1.9719172 -7.9325156 -2.0537579 0
0.49996284 -2.0112219 -0.96951944 0
2.4395711 -9.9621744 2.6922812 8
3.1414137 -12.828202 2.5332747 3
4.5358977 -18.522684 2.6410902 2
4.659265 -19.026464 1.6734847 5
4.8528323 -19.81691 1.0214057 3
5.0265813 -20.526428 0.68406671 4
3.3085883 -16.018801 0.48146167 16
3.8357162 -22.702202 0.60853332 0
2.8688405 -21.761639 0.51651204 2
6.831708 -21.126165 0.45617634 1
5.7278237 -20.187901 0.36995366 1
5.7726068 -23.57288 0.35540977 1
3.3065574 -16.008968 0.19173495 17
8.6527033 -51.212185 0.45416272 20
4.4358602 -33.648293 0.19784869 5
6.8823519 -21.282776 0.063634343 0
8.8971395 -31.358255 -0.0028445376 2
12.912634 -52.729725 -0.16486549 30
3.3042982 -15.998029 -0.09779454 18
4.3173494 -25.552811 -0.23113219 4
4.4424167 -33.698029 -0.40460217 4
13.750942 -42.522999 -0.66227418 2
6.346765 -22.369379 -0.41358399 3
7.2787156 -29.72319 -0.63406235 1
3.3066652 -16.009489 -0.38753185 18
2.3008852 -13.618097 -0.36768699 0
4.4475789 -33.737186 -1.0075819 6
8.3733234 -25.89341 -0.88470072 11
7.0344477 -24.793139 -0.91528171 6
8.4129124 -34.354767 -1.3600096 14
3.30476 -16.000265 -0.67676657 23
6.138721 -36.332844 -1.6339394 7
4.3735313 -33.175495 -1.5839065 9
8.3500004 -25.821287 -1.3623968 7
6.3704123 -22.452724 -1.2423414 0
3.4748259 -14.189716 -0.82034993 5
2.8745599 -13.917416 -0.84031707 10
2.3046024 -13.6401 -0.85796356 10
1.7414167 -13.209546 -0.86675137 19
4.2879138 -13.259814 -0.94663244 10
3.707195 -13.066129 -0.96355355 13
3.1966326 -13.053693 -0.99258745 10
2.691215 -13.029737 -1.0225778 10
2.3581886 -13.957255 -1.1286958 5
1.7282079 -13.109351 -1.0945452 9
4.1950612 -12.972681 -1.1674174 14
3.6584928 -12.894476 -1.1882081 10
3.1521966 -12.872235 -1.2133089 13
2.6831322 -12.990603 -1.2545936 11
2.1920283 -12.973814 -1.2820086 17
1.7040998 -12.926477 -1.3103611 15
4.1795387 -12.924679 -1.4037349 11
3.6891482 -13.002522 -1.4377364 5
3.1532764 -12.876644 -1.448378 10
3.2675812 -13.343417 -1.7444865 12
3.0527194 -12.466012 -1.8570044 3
2.8294849 -11.554418 -1.9339476 1
2.5771277 -10.523897 -1.9219828 2
2.3817368 -9.7260036 -1.983793 1
2.3054817 -9.4146099 -2.0921135 0
2.1077437 -8.607132 -2.0699513 0
1.941447 -7.9280472 -2.0508339 0
0.48863032 -1.9953591 -0.96104461 1
2.4437881 -10.132357 2.7359509 0
3.1002996 -12.854364 2.5362887 12
4.3606639 -18.080046 2.5757899 0
4.1825981 -17.341757 1.5240117 1
4.7714515 -19.783241 1.0188056 2
4.975522 -20.629351 0.68691373 1
3.5026679 -21.180838 0.56742191 1
2.7984571 -21.815151 0.51754713 1
7.4334755 -23.264111 0.50177753 1
5.6530061 -20.192364 0.36967161 3
5.3808284 -22.30982 0.3360813 2
3.2578135 -16.055691 0.19215718 20
3.3601875 -20.31925 0.18009116 3
4.318378 -33.66357 0.19784869 16
6.7946315 -21.264757 0.063509166 0
6.0377841 -21.56678 -0.0019544195 3
6.5461898 -27.141603 -0.084789358 1
3.2500248 -16.017305 -0.097842425 15
4.3149204 -26.092577 -0.23587684 0
4.3211989 -33.685562 -0.40426889 24
1.7858217 -5.5889807 -0.086947933 0
6.2513909 -22.329777 -0.41244581 8
8.3001003 -34.413612 -0.73349708 4
3.2491703 -16.013094 -0.38734224 17
4.2418017 -25.650421 -0.69215429 7
4.3241901 -33.708881 -1.0062797 21
8.2828922 -25.92248 -0.88470072 11
6.9661808 -24.882982 -0.91769522 3
9.689311 -40.173512 -1.5890087 3
3.2465038 -15.999953 -0.67626989 24
5.9955583 -36.255493 -1.6295094 6
4.2551579 -33.170746 -1.582961 8
8.3011637 -25.979662 -1.3692158 9
6.985486 -24.951941 -1.379269 2
3.4524281 -14.314348 -0.82685351 2
2.8196087 -13.896059 -0.8384282 12
2.2524157 -13.620489 -0.85623026 8
1.6902171 -13.175954 -0.86415476 15
4.2598252 -13.331722 -0.95069873 8
3.6626384 -13.082832 -0.96383661 19
3.1360822 -13.002725 -0.98787349 7
2.6282682 -12.953063 -1.0158341 14
2.2424471 -13.560209 -1.0959477 6
1.6697567 -13.016455 -1.0862957 15
4.1715899 -13.055578 -1.1735599 8
3.6080894 -12.887984 -1.186442 8
3.1184521 -12.929627 -1.2176851 10
2.7422986 -13.515046 -1.3043103 6
2.1564708 -13.040304 -1.2878271 15
1.6579545 -12.924452 -1.3095611 14
4.1683087 -13.045309 -1.4152477 3
3.1129706 -12.906899 -1.4505501 11
3.2219143 -13.3586 -1.7449903 11
3.0203245 -12.522774 -1.8638779 2
2.7872837 -11.556547 -1.9326638 1
2.5366831 -10.517514 -1.9191881 3
2.3431723 -9.7151871 -1.9799062 1
2.2652702 -9.3921919 -2.085362 0
2.0731199 -8.5955038 -2.065402 0
1.9183089 -7.9536314 -2.0557075 0
0.48675916 -2.0181854 -0.97121441 0
2.3905244 -10.06554 2.7156394 12
3.0263631 -12.742803 2.5121768 9
4.5456357 -19.139851 2.7244987 6
4.1155915 -17.329107 1.5216283 5
4.6211314 -19.457733 1.0012056 3
4.9201093 -20.716608 0.68924314 0
4.0194817 -20.1705 0.60538715 3
3.4344587 -21.228462 0.56837308 1
2.7331798 -21.912086 0.51961732 5
3.7200539 -11.784157 0.25388777 0
5.5878153 -20.231251 0.37002417 1
5.320478 -22.402401 0.33719414 2
3.2103467 -16.110113 0.19267322 1
3.2994602 -20.394032 0.18065079 0
3.1755104 -25.458281 0.14955823 1
7.4946299 -23.741026 0.070826203 0
6.2957888 -22.794538 -0.0020636772 0
7.9699826 -33.558403 -0.10474765 3
3.2066014 -16.091318 -0.098225564 7
4.0500569 -25.033487 -0.22617351 7
6.8086128 -54.58511 -0.65480036 7
12.309929 -38.994633 -0.60596842 1
11.818707 -42.790825 -0.78960824 1
7.111691 -29.944481 -0.63770831 0
3.2026322 -16.0714 -0.38847983 10
8.4769011 -52.395905 -1.4130508 6
4.2064972 -33.72377 -1.0062797 1
8.2104073 -26.008421 -0.88665026 10
7.6444778 -27.677605 -1.0197717 10
7.0885692 -29.847124 -1.1795765 4
3.196882 -16.042543 -0.6775943 25
4.134315 -25.554287 -1.1478863 12
4.1378603 -33.173504 -1.5823935 7
8.2248573 -26.054195 -1.3716226 8
7.7256832 -27.971617 -1.5446877 2
3.4411986 -14.489509 -0.83627248 6
2.7734261 -13.917564 -0.83913654 16
2.1857288 -13.510036 -0.84880203 14
1.6437198 -13.177812 -0.86389506 18
4.2288804 -13.395986 -0.95422286 11
3.6105776 -13.07246 -0.96213824 13
3.0888309 -13.00583 -0.98728424 11
2.5690076 -12.891754 -1.0103166 15
2.2180245 -13.709656 -1.1073937 7
1.6174024 -12.966825 -1.081676 17
4.1523862 -13.153672 -1.1810673 15
3.5662646 -12.912021 -1.1875017 12
3.1128781 -13.107082 -1.2333666 6
2.6359577 -13.227722 -1.2756855 15
2.1166606 -13.083123 -1.2913182 5
1.6162776 -12.957806 -1.3123611 17
4.1179552 -13.044603 -1.4136029 9
3.6872377 -13.350017 -1.4732779 4
3.1689665 -13.343248 -1.498337 5
3.1679289 -13.338879 -1.7409593 12
2.9674456 -12.494724 -1.85815 3
2.7469265 -11.566207 -1.9326638 1
2.5081446 -10.560792 -1.925476 3
2.3155921 -9.7500296 -1.9853476 1
2.2279539 -9.3810215 -2.0811422 0
2.0404029 -8.5913191 -2.0626724 0
1.8851552 -7.937633 -2.049859 0
0.47636256 -2.0057719 -0.96443456 0
2.3677061 -10.126566 2.7298574 10
2.69119 -11.510092 2.2672884 11
3.7372923 -15.984221 2.2734337 3
4.0432801 -17.292917 1.517202 1
4.6277652 -19.79273 1.0176057 1
6.4278841 -27.491755 0.91390067 3
3.949048 -20.184408 0.60538715 4
3.3041012 -20.884867 0.55886143 1
2.6610048 -21.957222 0.52046418 2
3.6788969 -11.79707 0.25388777 7
5.8966756 -21.643635 0.39547741 3
5.5782528 -23.857922 0.35880691 1
3.9512546 -20.195686 0.24136931 7
4.1070352 -25.960125 0.22982697 2
4.4359999 -36.60355 0.2149404 1
3.6808491 -11.80333 0.035174131 3
6.2151299 -22.812515 -0.0020633282 0
6.46947 -27.669615 -0.086295642 2
10.334457 -52.821568 -0.32221434 12
4.080153 -25.790205 -0.23288022 3
6.6016712 -54.473541 -0.65318155 20
3.6887946 -11.82881 -0.18361601 1
12.621732 -46.327824 -0.85405737 10
10.547101 -45.109447 -0.95987689 2
3.9720247 -25.106737 -0.67671865 3
5.8190165 -48.015484 -1.4321135 24
3.6872516 -11.823861 -0.40264475 1
7.5373101 -27.665552 -1.018352 10
7.04531 -30.132454 -1.1898738 10
3.1485364 -16.092827 -0.67924976 2
4.0606985 -25.667236 -1.1523162 3
4.0032892 -33.033051 -1.5750177 7
3.6916955 -11.838111 -0.62253493 10
6.7848744 -24.903751 -1.3739535 0
3.3624129 -14.380879 -0.82932037 1
2.7048931 -13.825274 -0.83299768 15
2.1260793 -13.438717 -0.84384984 13
1.59723 -13.179507 -0.86363542 18
4.1678367 -13.364947 -0.95096982 10
3.6005836 -13.215873 -0.97176242 12
3.0325146 -12.96992 -0.98374873 9
2.5285854 -12.924128 -1.0121558 12
2.152086 -13.603102 -1.0981734 7
1.5730888 -12.980306 -1.0823361 19
4.0672917 -13.042531 -1.1698061 12
3.5243132 -12.935925 -1.1885613 9
3.0380859 -12.993749 -1.2216966 7
2.5935907 -13.256384 -1.2775688 7
2.0933743 -13.231992 -1.3052826 17
1.5662478 -12.923858 -1.3083612 14
4.0344911 -12.937349 -1.4004456 11
3.1106014 -13.303894 -1.4926895 29
3.1186376 -13.338264 -1.7394476 11
2.9166021 -12.474168 -1.8535676 2
2.7011428 -11.552659 -1.9288126 1
2.4694719 -10.561813 -1.9240787 4
2.2779706 -9.7427711 -1.9822383 1
2.199645 -9.4077778 -2.085362 0
2.0166087 -8.6249399 -2.0690415 0
1.8539029 -7.9290547 -2.0459602 0
0.46605864 -1.9933106 -0.95765471 0
2.3227737 -10.101241 2.7207172 11
2.6542699 -11.542848 2.2718096 1
3.6671426 -15.947612 2.2663 11
3.686029 -16.029745 1.4051824 0
4.6796384 -20.350739 1.0454057 8
4.7314267 -20.575954 0.68341964 0
5.3703675 -27.993168 0.83899784 1
3.088372 -19.99584 0.5347653 3
4.6823344 -39.858807 0.94438237 0
3.6273971 -11.783719 0.25331262 9
5.4148979 -20.166428 0.36812046 1
5.456717 -23.730085 0.35658121 2
3.8907714 -20.280737 0.24221376 2
7.8808503 -51.025013 0.45146957 26
4.2602768 -36.266003 0.21286514 1
3.6293247 -11.789981 0.035094477 8
6.2020125 -23.097837 -0.0020870646 1
13.2434 -57.59269 -0.17946675 16
3.8789113 -20.218916 -0.12324889 8
4.5393577 -29.390329 -0.26523659 4
0.88523495 -7.5356445 -0.090318933 0
3.6324711 -11.800202 -0.18296406 8
12.394803 -46.161331 -0.85014486 6
6.2985697 -27.391121 -0.58235627 3
3.8959734 -20.307854 -0.49019745 4
4.5727205 -29.606337 -0.79754227 12
5.6779771 -48.334309 -1.4409925 5
3.6368327 -11.814371 -0.40186495 9
7.4348226 -27.689131 -1.0182101 9
9.5288944 -41.439106 -1.6349622 2
3.9170716 -20.417828 -0.86118877 2
3.9080389 -25.30282 -1.1353053 0
3.8770616 -33.003849 -1.5729374 6
3.640054 -11.824836 -0.621131 21
7.4818211 -27.864162 -1.5357577 17
3.2765698 -14.249096 -0.82102269 7
2.6444228 -13.784116 -0.82992822 24
2.0676684 -13.387237 -0.84013575 17
1.5535706 -13.224916 -0.86623204 18
3.6515224 -11.862091 -0.8430776 22
3.5386696 -13.178885 -0.96808255 15
2.986748 -12.988723 -0.98433799 8
2.4864588 -12.960725 -1.0143014 10
2.0504797 -13.275947 -1.0711483 7
1.5301536 -13.025576 -1.0856358 11
3.6606641 -11.891788 -1.0653836 9
3.5161402 -13.094981 -1.2019833 7
2.9645567 -12.892218 -1.2111207 13
2.482712 -12.941195 -1.2463076 16
2.0084012 -13.003507 -1.2820086 14
1.5197974 -12.937417 -1.3091612 14
3.9964106 -12.982471 -1.4037349 5
3.5286922 -13.141728 -1.447468 5
2.9682567 -12.908308 -1.4470748 15
3.0750678 -13.372807 -1.7424709 12
2.8708651 -12.484774 -1.8535676 2
2.6596694 -11.566328 -1.9294544 1
2.4298639 -10.566955 -1.92338 4
2.2378516 -9.7319345 -1.9783515 1
2.1625228 -9.4043446 -2.0828302 0
1.9823664 -8.6208839 -2.0663118 0
1.8300472 -7.9584808 -2.0518086 0
0.46930543 -2.0409081 -0.97968924 0
2.2764456 -10.052288 2.7054837 16
2.9352744 -12.961532 2.5490983 11
3.6124876 -15.951958 2.2652025 19
3.6170065 -15.971912 1.3990536 9
2.1556199 -9.5187473 0.4886027 0
4.6596355 -20.575935 0.68290198 1
3.6777475 -19.519957 0.58467406 0
3.4526572 -22.856623 0.61096406 0
1.7450629 -15.292495 0.36218888 0
3.5883007 -11.795684 0.25331262 8
5.293704 -19.979376 0.36438355 2
5.3877115 -23.79096 0.35722548 2
5.2283325 -27.749819 0.33120841 1
7.7737331 -51.462185 0.45510706 10
4.6746645 -40.965446 0.24035643 2
3.5878794 -11.794299 0.035071716 10
5.9737587 -22.546022 -0.0020354029 11
4.5931444 -20.282324 -0.063154705 2
3.8133218 -20.239531 -0.12329678 7
4.5099769 -29.856089 -0.26930344 13
4.1542773 -36.405144 -0.43616855 11
3.5828438 -11.777745 -0.18243064 11
12.18327 -45.981823 -0.84609014 4
6.2350831 -27.532766 -0.584925 1
3.8256464 -20.304943 -0.48981825 13
3.8838463 -25.7111 -0.69226074 4
4.1568313 -36.427525 -1.0855982 1
3.5894897 -11.799593 -0.40095514 15
7.3439841 -27.717499 -1.018352 9
6.806531 -30.056156 -1.1849557 13
3.8404617 -20.383577 -0.85920215 15
3.8068004 -25.201056 -1.1301665 14
3.5961704 -11.821554 -0.62032878 22
7.424161 -28.020098 -1.5429868 10
3.2504697 -14.353365 -0.82640499 3
2.6046124 -13.824202 -0.83181709 17
2.0328038 -13.45718 -0.8440975 9
1.5128741 -13.257756 -0.86804968 18
3.6075199 -11.858863 -0.84199321 27
3.5112972 -13.252258 -0.97261161 11
2.9392533 -12.979102 -0.98286486 8
2.6457951 -14.042783 -1.0982902 5
1.9510561 -12.91601 -1.0415796 20
1.4819788 -12.987011 -1.082006 13
3.5991712 -11.831418 -1.0588998 20
3.4910645 -13.175897 -1.2083412 5
2.9261866 -12.921402 -1.2129441 8
2.5068793 -13.305474 -1.280582 8
1.9759717 -13.080952 -1.2889907 17
1.4786915 -12.958203 -1.3107611 11
3.6348927 -11.948845 -1.2906631 25
3.4463811 -13.007253 -1.4313897 17
3.0053546 -13.27099 -1.4866076 5
3.0324576 -13.390671 -1.7434787 10
2.8303223 -12.498086 -1.8541404 2
2.6230431 -11.582787 -1.9307382 1
2.393939 -10.571113 -1.9226813 3
2.2098999 -9.7584362 -1.9822383 1
2.1347787 -9.4267178 -2.086206 0
1.9563482 -8.6388073 -2.0690415 0
1.8036456 -7.9645057 -2.0518086 0
0.44893089 -1.982381 -0.95087481 0
2.2531211 -10.113041 2.7197018 9
2.8498609 -12.791483 2.5136838 3
3.3069112 -14.842935 2.1060677 7
3.5586319 -15.972772 1.3980322 14
4.6921706 -21.060614 1.0802059 2
4.3826065 -19.671148 0.65236098 0
3.6168573 -19.571991 0.58585095 0
3.2205739 -21.836071 0.58338034 0
4.4531083 -40.271324 0.95341587 1
3.556308 -11.838778 0.25396994 9
5.5868158 -21.386894 0.38969579 1
5.378561 -24.141449 0.36220402 0
5.16851 -27.968489 0.333601 4
5.8116755 -39.404205 0.3482905 0
1.6142975 -14.598769 0.085621737 0
3.5489888 -11.814412 0.035094477 9
5.8404288 -22.35775 -0.0020165534 0
11.873366 -53.293114 -0.165813 175
4.7152057 -25.515512 -0.15533623 3
3.7182293 -25.210262 -0.22727939 3
4.0166235 -36.324009 -0.43502587 4
3.556668 -11.839976 -0.18320113 10
7.8227334 -29.946213 -0.55052054 0
6.7729197 -30.399971 -0.64533162 6
3.7170601 -25.202335 -0.67820901 11
4.0309682 -36.453735 -1.0859534 6
3.55288 -11.827366 -0.40147501 12
7.2583008 -27.785507 -1.0199137 8
6.7798014 -30.430859 -1.1987879 8
3.8048773 -20.589428 -0.8673141 17
3.7397988 -25.356508 -1.1365457 2
3.5262887 -31.889708 -1.518659 4
3.5571818 -11.841687 -0.62072986 19
7.3333735 -28.072893 -1.5444751 10
3.2020838 -14.37242 -0.82685351 2
2.5425572 -13.758604 -0.82733101 13
1.9764963 -13.401 -0.84013575 13
1.4608833 -13.21138 -0.86467409 19
3.5638063 -11.863739 -0.84145105 30
3.4266958 -13.117738 -0.96185517 13
2.9052069 -13.039901 -0.98669499 8
2.5866172 -13.997027 -1.0939988 4
1.9141036 -12.977966 -1.0460309 19
1.4331313 -12.960407 -1.0793662 17
3.5601425 -11.851542 -1.0595822 21
3.3826149 -12.948991 -1.186442 9
2.8732681 -12.896545 -1.209662 14
2.4662111 -13.34547 -1.2835951 9
1.9366881 -13.131093 -1.2932577 9
1.4334496 -12.963286 -1.3107611 13
3.5588205 -11.847141 -1.2783281 22
3.3738127 -12.915296 -1.4199657 10
2.8742707 -12.901045 -1.4440337 16
2.9744785 -13.350824 -1.7369281 12
2.7892606 -12.519481 -1.8558588 2
2.5783024 -11.572603 -1.9275289 1
2.3553109 -10.571715 -1.9212841 3
2.1655836 -9.7201328 -1.97291 1
2.1052611 -9.449378 -2.0895817 0
1.9227927 -8.6303749 -2.065402 0
1.7741457 -7.9631796 -2.049859 0
0.46012986 -2.0652738 -0.98985898 0
2.2128372 -10.098169 2.7136083 11
2.9742105 -13.572658 2.6651378 4
3.2525351 -14.842776 2.1044214 2
3.4670238 -15.821586 1.3837318 10
3.4932585 -15.941305 0.8170045 10
4.3096356 -19.666801 0.65171391 4
3.5499418 -19.592367 0.58608633 1
3.151742 -21.89863 0.58475423 1
4.3278294 -40.429764 0.9568035 1
5.6148496 -21.805189 0.39695808 1
6.2085967 -28.332613 0.42475802 3
3.5997255 -19.867126 0.23681872 1
5.6627059 -39.34507 0.34759098 0
4.3187361 -40.344818 0.23653238 1
3.5179634 -11.861243 0.035196893 6
13.618376 -52.886768 -0.004765796 90
11.656441 -53.193573 -0.16537568 255
4.6189795 -25.492458 -0.15509677 0
3.7293575 -25.911963 -0.23348668 1
3.8966148 -36.40144 -0.43578765 1
3.521003 -11.871491 -0.18349747 9
