# .PCD v0.7 - Point Cloud Data file format
VERSION 0.7
FIELDS x y z intensity
SIZE 4 4 4 4
TYPE F F F F
COUNT 1 1 1 1
WIDTH 1410
HEIGHT 1
VIEWPOINT 0 0 0 1 0 0 0
POINTS 1410
DATA ascii
57.775764 -13.956085 -2.8133962 1
50.685863 -6.5199833 -2.8696549 1
42.90472 -10.363895 -2.871341 0
68.24823 -6.271132 -4.8622088 4
68.061234 -6.2539496 -6.0590134 255
68.016106 -6.2498026 -7.2656884 100
11.682804 -1.5028192 -2.3335998 0
9.6582775 -1.242394 -2.2746718 0
8.8497486 -1.1383886 -2.2418811 0
6.2658219 -0.80600488 -2.1830454 0
54.758503 -7.2382631 2.7652154 1
54.782524 -7.2414384 1.7887192 2
47.080257 -9.7498531 1.2707545 2
40.888592 -10.028068 0.99067926 0
55.033497 -5.2506576 0.97462732 1
51.506397 -6.808383 0.76083934 0
69.9179 -11.850836 0.83177412 2
59.820393 -12.388208 0.53418767 1
50.343178 -12.346837 0.30217102 1
68.365295 -4.0257225 0.19482896 0
68.154503 -6.5025115 -0.0059746108 255
51.555302 -6.8148475 -0.15792929 2
75.624008 -12.818002 -0.45918414 0
66.745094 -13.822246 -0.60792154 0
68.342094 -4.0243564 -1.0145111 0
68.159653 -6.5030026 -1.2178463 255
51.528618 -6.8113203 -1.0769614 1
75.868286 -12.859406 -1.8241867 1
60.995724 -12.631608 -1.6583173 1
51.145206 -12.543537 -1.5592599 1
61.040154 -5.8237429 -2.1776805 0
97.855843 -12.935094 -3.7953932 2
75.84034 -12.85467 -3.1863322 2
61.031784 -12.639075 -2.7637515 1
51.009506 -12.510257 -2.4860241 1
57.095528 -5.4473925 -3.0530174 0
8.6193275 -1.1393474 -0.48821807 0
42.879913 -10.516446 -2.8721201 1
68.206062 -6.507431 -4.8607936 3
68.042953 -6.491869 -6.0593667 182
67.978043 -6.4856758 -7.2639961 165
11.390081 -1.5056002 -1.8678352 0
10.489106 -1.3865045 -2.2836866 0
9.6229897 -1.2720168 -2.2673929 0
8.8534126 -1.17029 -2.2438304 0
6.2442303 -0.82539475 -2.1765132 0
54.582806 -7.4089894 4.7058458 0
54.756657 -7.4325881 2.7664154 1
54.792564 -7.4374623 1.789884 1
46.756401 -9.8531208 1.2629339 1
41.256905 -10.271207 1.0004656 1
55.002895 -5.4415488 0.97441578 2
6.3451257 -0.86127806 0.093772419 0
70.017982 -12.119374 0.83346301 2
59.921597 -12.627464 0.53548181 1
51.0256 -12.703195 0.3065314 0
68.35881 -4.2648373 0.19485173 0
68.111488 -6.738409 -0.0059728655 255
51.5312 -6.9947691 -0.15792929 1
69.615585 -12.049724 -0.4229542 0
66.575096 -14.029577 -0.60681564 0
51.189747 -12.74406 -0.62794751 1
68.279732 -4.2599039 -1.0137999 0
68.136536 -6.7408872 -1.2178463 255
51.536228 -6.9954519 -1.0776242 0
105.78882 -18.310928 -2.545121 0
4.4889517 -1.117557 -0.13697243 0
9.165328 -0.57181561 -0.29853937 0
51.659077 -5.1107383 -1.8436247 0
6.6460962 -0.90213132 -0.25789309 0
61.124146 -12.88088 -2.7699535 1
51.054703 -12.710439 -2.4903738 0
50.624718 -10.668303 -3.2087588 0
68.036026 -6.7309427 -4.8503203 0
11.640923 -1.5801218 -2.3273809 0
10.491952 -1.4241621 -2.2853744 0
9.6725273 -1.3129346 -2.2801311 0
8.8415852 -1.2001438 -2.2418811 0
6.2338185 -0.84616935 -2.1739004 0
54.765984 -7.6286402 2.7682154 0
54.730633 -7.6237159 1.7887192 0
71.753044 -12.677824 2.1447463 2
46.768639 -10.026324 1.264202 1
40.99593 -10.358341 0.99500787 1
55.084888 -3.6297662 1.1341963 0
55.007439 -5.635952 0.97483879 3
51.477413 -7.1705575 0.76113218 0
60.821674 -10.746394 0.72443634 0
46.814472 -10.036151 0.41866213 0
8.4929466 -2.1458919 0.051065251 0
68.347496 -4.5036931 0.1948631 1
68.151222 -6.9826384 -0.0059784506 134
2.4206178 -0.3371805 -0.0074221054 0
66.00444 -11.662121 -0.40125933 2
68.312332 -4.5013762 -1.0145111 1
51.495651 -7.1730981 -1.0772928 0
100.51838 -17.760283 -2.4197989 1
80.818398 -17.325958 -2.20048 1
5.7526145 -1.453499 -0.17568459 0
51.664787 -5.2934709 -1.8444765 0
54.9884 -13.893784 -2.6846035 0
50.881222 -5.2131886 -2.722605 0
50.587173 -10.844947 -3.2087588 0
41.292301 -10.433224 -2.7705922 1
10.533387 -1.4672506 -2.2955017 0
9.6331644 -1.3418537 -2.2719421 0
7.3273091 -1.0206592 -1.8588119 0
6.234571 -0.86844599 -2.1752067 0
54.736435 -7.8096404 2.7680154 0
7.9433541 -1.1333354 0.25972793 0
71.517792 -12.880971 2.1389797 1
46.449924 -10.119228 1.256487 1
40.988472 -10.50118 0.99566656 0
9.8423634 -0.68134099 0.20269939 0
54.976513 -5.8170724 0.97462732 3
14.657969 -2.0913577 0.21683042 0
60.801449 -10.950865 0.72462398 3
11.693279 -2.5474093 0.10464804 0
51.061943 -13.081987 0.30727756 0
68.348145 -4.7314243 0.19490862 2
51.73122 -5.4736872 -0.0045396015 9
2.3798878 -0.33955568 -0.0073006307 0
66.07563 -11.90079 -0.4019298 2
3.3610308 -0.73220873 -0.030679686 0
68.308998 -4.7287145 -1.014689 1
51.703152 -5.4707174 -0.92476642 42
11.833595 -1.6883841 -0.24767542 0
5.9065619 -1.5132517 -0.18053842 0
68.284416 -4.7270126 -2.2252035 0
51.650921 -5.4651909 -1.8446184 0
90.646355 -12.933167 -3.5207479 1
70.940735 -12.777039 -2.9858515 2
63.897045 -13.920126 -2.8998394 1
53.707325 -13.75973 -2.6242731 1
50.792152 -5.3743243 -2.7187779 1
48.994495 -10.67357 -3.1099632 1
8.1934652 -0.56719548 -0.55789506 0
51.703476 -5.4707518 -4.6090746 1
51.587345 -5.4584641 -5.5182338 25
11.598824 -1.6548874 -2.3211622 0
10.466533 -1.4933354 -2.2819986 0
9.5785322 -1.3666381 -2.260114 0
8.8408918 -1.2613935 -2.2438304 0
6.2279143 -0.88858128 -2.1739004 0
54.788239 -8.0122709 1.7923427 0
55.683586 -10.229899 1.6664623 3
42.786087 -11.121019 1.0402697 1
55.166599 -4.0124602 1.1364148 0
54.951893 -6.0085077 0.9745568 5
51.435329 -7.5219393 0.7612493 0
55.719604 -10.236517 0.66448104 0
51.216511 -11.34505 0.45870957 2
50.919189 -13.234986 0.30669463 0
55.110195 -4.0083575 0.15719685 0
51.672035 -5.6498837 -0.0045361104 11
79.391182 -11.610224 -0.24366614 1
65.671753 -12.064874 -0.39972678 2
52.505142 -11.630497 -0.47963765 1
68.292084 -4.9671226 -1.014689 3
51.655914 -5.6481209 -0.92426848 255
85.852211 -12.555088 -1.7977805 1
70.924774 -13.029932 -1.7094818 1
65.641182 -17.061546 -2.0081792 0
68.151871 -4.9569244 -2.2214346 0
51.53616 -5.6350269 -1.8412112 1
77.357925 -14.211797 -3.2580152 1
63.013145 -13.958141 -2.8619189 1
52.935837 -13.759156 -2.588907 1
50.68573 -5.5420399 -2.7141004 1
7.0706916 -1.56624 -0.44916186 0
39.825714 -10.351556 -2.6768544 0
51.695946 -5.6524982 -4.6101341 5
51.567978 -5.6385059 -5.5182338 60
11.526975 -1.6857129 -2.3079472 0
10.581188 -1.5474006 -2.3081605 0
9.6584949 -1.4124652 -2.2801311 0
8.8517904 -1.2944921 -2.2477295 0
6.2434793 -0.91305083 -2.1804323 0
85.824829 -12.857238 2.8091252 2
54.889065 -10.282123 1.6437485 2
3.5537465 -0.80021977 0.096278891 0
42.866879 -11.301908 1.0431868 1
55.136307 -4.2037888 1.1360861 0
54.922642 -6.1993866 0.97441578 10
75.030602 -11.240177 1.1110363 0
55.219635 -10.344047 0.65894526 1
51.145382 -11.516732 0.45842978 2
46.080521 -12.14919 0.27780429 1
55.099861 -4.2010098 0.15720823 0
51.671871 -5.8324566 -0.0045378557 20
76.767006 -11.500303 -0.23573385 0
61.870682 -11.589957 -0.37683463 0
52.36277 -11.790859 -0.47871014 1
8.4003277 -2.2147574 -0.10341208 0
68.278313 -5.2057819 -1.0147482 11
51.667675 -5.8319831 -0.92483753 255
65.604424 -17.296694 -2.0088894 2
68.217865 -5.2011733 -2.2241638 1
51.488369 -5.8117437 -1.8402174 1
85.758942 -12.847366 -3.334321 1
62.086887 -13.9805 -2.8220496 1
52.103195 -13.737076 -2.5505149 0
50.531124 -5.7036948 -2.7068713 2
47.392021 -10.671564 -3.0129006 1
39.704426 -10.468124 -2.6711419 1
51.6759 -5.8329115 -4.6101341 6
68.185928 -5.1987386 -7.0667815 0
51.555889 -5.819365 -5.5190802 112
11.555943 -1.7311716 -2.3149433 0
9.599575 -1.4380922 -2.2673929 0
8.8395433 -1.3242334 -2.24578 0
6.2178206 -0.93147862 -2.1725938 0
54.872475 -10.47741 1.6443369 1
41.843307 -9.5757084 1.1345267 2
40.462902 -10.819298 0.98559791 0
55.181091 -4.4009953 1.1373186 0
54.928471 -6.3943033 0.97490931 8
75.200432 -11.534153 1.1141405 1
55.234264 -10.546491 0.65955514 1
51.030788 -11.678234 0.45776522 2
46.234905 -12.362663 0.27899349 1
68.322769 -5.4491158 0.19498828 120
51.651199 -6.0127912 -0.0045378557 24
3.8825784 -0.59550524 -0.011928818 0
65.35804 -12.479535 -0.39833793 2
50.94883 -11.659478 -0.46615288 0
46.247871 -12.36613 -0.56986153 2
68.279655 -5.4456778 -1.0150446 71
51.647003 -6.0123029 -0.92483753 255
66.625282 -12.721504 -1.6079538 0
6.5327458 -1.4949982 -0.17841442 0
68.175385 -5.4373612 -2.2233841 1
51.467766 -5.9914374 -1.8402174 1
66.429878 -12.684194 -2.8014295 1
56.105057 -12.839464 -2.5521774 1
51.159424 -13.679421 -2.5066385 0
50.546616 -5.8842049 -2.7087848 4
7.2610259 -1.9415118 -0.48894334 0
68.236839 -5.4422626 -5.8613157 3
51.663143 -6.0141811 -4.6108408 5
68.159431 -5.4360895 -7.065959 5
51.586624 -6.0052738 -5.5245805 82
11.658424 -1.7881552 -2.336709 0
9.6214476 -1.4757261 -2.273762 0
8.8387022 -1.3556696 -2.2467546 0
6.2257414 -0.95489681 -2.1765132 0
7.5677114 -1.1877782 1.4693295 0
54.694279 -10.641398 1.6401001 1
41.805729 -9.7208052 1.1344211 2
40.521378 -10.986636 0.98795038 0
55.085686 -4.5869508 1.1356753 0
54.897877 -6.5850496 0.97476828 4
75.167618 -11.797814 1.1142577 1
54.682796 -10.639164 0.65340948 2
50.779331 -11.807377 0.45587653 2
61.05072 -16.552795 0.36874241 1
68.299347 -5.6872435 0.1949769 255
51.649754 -6.1954341 -0.0045396015 22
4.0582986 -0.63696384 -0.012475454 0
65.47506 -12.738924 -0.39931971 1
52.033737 -12.099055 -0.47646266 0
84.676575 -22.958519 -1.0443573 0
68.272194 -5.6849828 -1.0152223 255
51.661442 -6.1968365 -0.9254778 255
80.702484 -12.666532 -1.6926283 1
90.469681 -17.601913 -2.184891 0
55.993847 -13.019874 -1.5304679 1
46.191311 -12.523936 -1.4170785 2
68.163956 -5.6759701 -2.223644 2
51.474327 -6.1743917 -1.8412112 1
55.958698 -13.0117 -2.5475705 0
46.094318 -12.497639 -2.2605891 2
50.557499 -6.0644169 -2.7104857 255
68.134026 -5.6734776 -5.8541493 69
50.510414 -6.0587692 -4.5098219 2
5.8555264 -0.91904491 -0.54265213 0
2.4118099 -0.46924528 -0.23238796 0
68.080574 -5.6690269 -7.0597916 67
51.541653 -6.1824675 -5.5220418 23
11.617225 -1.8233632 -2.3297129 0
10.606894 -1.6647882 -2.3174438 0
9.6123896 -1.5086975 -2.2728519 0
8.7955914 -1.3804981 -2.2370074 0
6.2186356 -0.97603619 -2.1752067 0
46.99324 -9.3134384 1.4101378 3
41.787109 -9.8703537 1.1348438 2
42.985237 -11.815894 1.049021 0
55.145039 -4.7857723 1.1372365 1
54.850742 -6.7736993 0.97434527 2
71.267799 -11.440767 1.0570337 1
54.594318 -10.819871 0.65279961 1
50.659954 -11.96617 0.45517701 1
58.204056 -15.999282 0.35188386 0
68.24321 -5.9224997 0.19487448 255
51.619873 -6.3747087 -0.004538903 10
74.865135 -12.018255 -0.23026748 2
65.602829 -13.001614 -0.40037334 1
52.497242 -12.400147 -0.48110029 0
84.538071 -23.238045 -1.0436431 1
68.216072 -5.9201441 -1.014689 255
51.631557 -6.3761516 -0.92533553 130
11.265658 -2.2327044 -0.27225819 0
68.10788 -5.9107547 -2.2224743 3
51.476261 -6.3569736 -1.842063 0
80.698395 -12.95468 -3.1426685 2
70.891205 -14.049698 -2.9936326 1
59.273079 -14.00064 -2.7006691 1
46.027298 -12.652103 -2.2594545 3
60.436432 -5.244987 -3.0454874 0
50.567734 -6.2447762 -2.7121866 9
37.995373 -10.444267 -2.5633821 1
68.217789 -5.9202933 -4.6512942 1
9.9176626 -1.5921029 -0.74186265 0
68.121742 -5.9119577 -5.8548317 153
2.4140637 -0.47843546 -0.2327646 0
68.088112 -5.909039 -7.0626698 120
11.506188 -1.8471122 -2.3087246 0
10.411852 -1.6714361 -2.2760911 0
9.5647602 -1.5354507 -2.2628436 0
8.7983799 -1.4124221 -2.2389569 0
6.2226567 -0.99893594 -2.1778195 0
47.115555 -9.5172749 1.4148453 2
41.46682 -9.9553041 1.1271288 1
42.984009 -11.985178 1.0500561 1
55.035526 -4.9795694 1.1353467 1
54.837444 -6.9762063 0.9745568 1
71.130661 -11.686338 1.0556279 1
54.526855 -11.014348 0.65247118 0
10.497305 -2.5201802 0.094400086 0
85.570389 -23.859484 0.51785761 0
68.205109 -6.1711426 0.19482896 255
51.560452 -6.55932 -0.0045357617 4
74.923203 -12.30943 -0.23058333 1
60.845936 -12.290793 -0.37161446 1
51.498554 -12.36371 -0.47236016 1
60.781021 -16.947496 -0.75111836 2
68.185951 -6.1694093 -1.0145704 255
51.588001 -6.5628247 -0.92497981 16
60.685524 -16.92087 -1.8654058 1
68.141502 -6.1653876 -2.2242937 10
51.523998 -6.5546823 -1.8446184 0
85.694969 -14.079166 -3.3392391 0
4.5695381 -1.0970491 -0.20838442 0
49.094227 -13.688882 -2.4124551 1
50.635639 -6.4416685 -2.717077 3
7.3778372 -1.4903127 -0.44506821 0
44.344322 -10.646131 -2.8284323 1
68.227432 -6.1731625 -4.6534629 1
68.099625 -6.1615982 -5.8548317 215
68.077888 -6.1596322 -7.0639033 132
11.62324 -1.9096282 -2.3335998 0
10.525261 -1.729237 -2.302253 0
9.6282539 -1.581864 -2.2792211 0
8.8122835 -1.447805 -2.2438304 0
6.2003002 -1.018672 -2.1712875 0
47.06638 -9.678462 1.4143746 2
40.666504 -9.9134274 1.1063089 1
55.057621 -5.1753926 1.1361682 2
54.872246 -7.1753559 0.97561437 1
70.351837 -11.810734 1.0446751 1
54.350952 -11.176419 0.65082926 0
50.440899 -12.296168 0.45398784 1
68.175194 -6.4084387 0.1948062 255
6.9726386 -0.91177541 -0.00061365776 0
69.873856 -11.730489 -0.21516818 0
60.195381 -12.378234 -0.36790285 0
52.333328 -12.757493 -0.4804225 0
83.784576 -23.677059 -1.0364062 1
68.167984 -6.4077611 -1.0146296 255
51.568745 -6.7433743 -0.92505097 3
75.885536 -12.739736 -1.5943536 1
60.962936 -12.53607 -1.475427 1
70.633797 -17.218668 -1.9355197 2
65.874657 -6.1921892 -2.1509912 0
51.512691 -6.7360444 -1.8450444 0
61.076572 -12.559437 -2.5829041 1
57.536892 -14.025986 -2.6260691 0
48.480938 -13.700445 -2.384654 1
56.857441 -5.3445749 -2.8669899 1
50.755428 -6.6370211 -2.7247312 2
10.994129 -2.6800804 -0.9023208 0
68.073723 -6.398901 -5.8544908 83
68.028244 -6.3946257 -7.0610251 98
11.589416 -1.9456421 -2.3281584 0
10.553864 -1.7717928 -2.3098485 0
9.5957832 -1.6109492 -2.2728519 0
8.791873 -1.475988 -2.2399316 0
6.2265344 -1.0453166 -2.1817389 0
46.989262 -9.8336878 1.41308 1
40.643295 -10.058197 1.1066259 2
44.133335 -12.638361 1.0802619 1
55.015339 -5.3652205 1.1356753 2
54.787407 -7.3588672 0.9745568 0
70.223457 -12.041367 1.0433866 2
54.354675 -11.375086 0.65134531 0
40.864704 -11.702331 0.2477947 0
68.128517 -6.6440477 0.19473793 255
6.9892359 -0.93877149 -0.00061540306 0
69.749687 -11.960129 -0.21491309 1
59.36095 -12.422775 -0.36306581 1
52.385544 -12.964109 -0.48131433 0
83.616821 -23.945156 -1.0353588 1
68.15316 -6.6464505 -1.0147482 255
51.521114 -6.9201488 -0.92462415 1
105.57614 -18.103367 -2.2194667 1
51.134758 -12.654572 -1.4024055 1
51.679398 -5.0398922 -1.6880406 0
51.492828 -6.9163499 -1.8451864 0
75.808739 -12.999087 -2.9574711 2
61.091034 -12.784839 -2.5853872 1
51.021198 -12.626468 -2.3306806 1
47.810555 -13.691398 -2.3540161 1
55.597889 -5.4220324 -2.8044155 0
50.945728 -6.8428655 -2.7362127 0
50.55069 -10.579006 -3.0538526 0
42.90477 -10.617855 -2.7412741 1
68.043045 -6.6357121 -5.8538079 32
6.1563549 -0.82690167 -0.55065888 0
67.969872 -6.6285758 -7.0573244 44
10.497517 -1.8000317 -2.2988772 0
9.5632277 -1.6398271 -2.2664831 0
8.7904911 -1.5073243 -2.2409065 0
6.2116685 -1.0651281 -2.1778195 0
46.708282 -9.9451952 1.4056656 2
40.809601 -10.250663 1.1121216 1
41.143288 -11.937655 1.0080878 1
54.992298 -5.5568271 1.1355932 4
85.474037 -11.784488 1.5211321 1
70.023415 -12.258823 1.0410438 2
46.764416 -9.9571476 0.56080246 1
50.594349 -12.708422 0.45615634 1
41.092514 -11.922923 0.24942693 1
68.188484 -6.8902674 0.1949769 87
2.4250598 -0.33434814 -0.0002136283 0
69.502632 -12.167652 -0.21428141 1
59.407207 -12.649069 -0.36361656 0
51.164532 -12.851642 -0.47050509 1
85.40728 -24.780777 -1.0585932 1
51.508526 -7.1015897 -0.92483753 0
100.42676 -17.581461 -2.1124916 1
80.989243 -17.244349 -1.9629701 2
4.5412717 -1.1406885 -0.12465589 0
51.617737 -5.215837 -1.6866111 0
80.65287 -14.119696 -3.148355 1
64.986259 -13.836968 -2.7522612 1
55.453224 -13.928886 -2.5353436 1
47.041065 -13.648886 -2.3184609 2
51.003712 -5.153791 -2.5735722 0
51.21434 -7.0610299 -2.7519467 0
41.163708 -11.94358 -2.7882493 0
10.429547 -1.8258748 -2.2853744 0
9.5958128 -1.679915 -2.2755816 0
8.7737122 -1.5359918 -2.2379823 0
6.2116365 -1.0874556 -2.179126 0
45.180546 -9.7848921 1.3607088 1
40.920811 -10.430584 1.1161376 1
44.347118 -13.035246 1.0876958 1
29.787247 -3.1149964 0.61532861 0
80.264618 -11.351896 1.4291196 1
55.479404 -9.9123602 0.82532614 1
46.651192 -10.103394 0.55986422 2
50.460533 -12.862229 0.45535189 1
41.211819 -12.113667 0.25040627 1
51.729702 -5.4096251 0.14796805 5
2.3803115 -0.33664957 -0.00020978857 0
66.116692 -11.812896 -0.20396821 0
4.4292345 -0.95925313 -0.027130561 0
83.785309 -24.627577 -1.0395485 1
51.696392 -5.4061418 -0.77026266 143
51.416103 -7.2718248 -0.92362827 0
51.654884 -5.4018011 -1.6884305 0
51.435371 -7.27455 -1.8449024 0
79.151169 -14.141732 -3.0916433 0
64.062614 -13.87424 -2.715178 1
54.664665 -13.933849 -2.5014989 1
46.556129 -13.684556 -2.296901 1
50.866215 -5.3193264 -2.5675554 1
49.023853 -10.617249 -2.9660194 1
41.309227 -10.529591 -2.6439638 0
41.075813 -12.073689 -2.7851334 2
6.5400133 -1.9223499 -0.56426662 0
51.622093 -5.3983717 -5.3637147 3
10.403866 -1.8588315 -2.2811546 0
9.5592155 -1.70792 -2.2683027 0
8.7797546 -1.5686556 -2.2409065 0
6.211525 -1.1097969 -2.1804323 0
5.5259213 -1.0072194 0.28120154 0
55.665237 -10.1462 1.8315543 2
45.075832 -9.9270592 1.3585905 2
42.750088 -11.055925 1.1670777 1
38.272621 -11.39502 0.93967736 1
54.940235 -5.9393144 1.1353467 14
55.448402 -10.106678 0.82538474 2
52.025616 -11.457612 0.62483925 2
50.740612 -13.122416 0.45828986 0
41.15395 -12.252886 0.25031298 0
51.626991 -5.5811357 0.14772908 6
51.461872 -7.4616132 -0.0045378557 0
60.502888 -11.027967 -0.18676738 1
52.582958 -11.580356 -0.32233405 0
41.163235 -12.25565 -0.51125181 1
51.649364 -5.5835547 -0.76984781 255
51.465611 -7.4621553 -0.92497981 0
71.022354 -12.94537 -1.4958303 1
41.240086 -12.27853 -1.2740685 1
51.548267 -5.5726256 -1.6855713 1
90.614731 -13.138505 -3.2518268 1
70.926163 -12.927836 -2.7721202 2
63.038029 -13.882877 -2.6737907 1
53.602066 -13.862439 -2.4550731 1
45.81496 -13.640621 -2.2626696 2
50.589169 -5.4689422 -2.5545192 2
41.241295 -10.665726 -2.641983 0
41.018112 -12.212442 -2.7840948 2
51.74408 -5.5937939 -4.456388 1
11.49987 -2.5326188 -1.1137297 0
51.579201 -5.5759692 -5.3612475 35
10.343461 -1.8853209 -2.2693396 0
9.5685234 -1.7440717 -2.2719421 0
8.7360592 -1.5923369 -2.231159 0
6.1852975 -1.127405 -2.1725938 0
5.5223722 -1.0265025 0.28120154 0
55.00452 -10.224279 1.8109779 1
3.5193086 -0.78794861 0.10615459 0
43.055462 -11.295387 1.1764836 1
38.198158 -11.518157 0.93883049 1
51.636261 -5.7645597 1.0674789 0
79.85112 -11.862597 1.423197 1
55.22797 -10.265816 0.8226319 2
47.703609 -10.680505 0.57337528 0
46.071136 -12.086535 0.41649359 0
41.210503 -12.42649 0.25091925 1
51.599243 -5.7604275 0.14770631 7
51.435513 -7.6412048 -0.0045378557 0
60.318516 -11.212049 -0.18631794 0
52.378281 -11.727131 -0.32132834 1
41.177647 -12.416583 -0.51196599 1
51.649437 -5.7660313 -0.77014416 255
65.526581 -17.190573 -1.8035185 0
41.22377 -12.430491 -1.2748971 1
51.50069 -5.7494249 -1.6846615 2
7.7262821 -1.1478082 -0.2774097 0
3.6153548 -0.67202479 -0.14139549 0
61.93618 -13.867078 -2.6290925 1
52.784164 -13.847664 -2.419811 1
41.035049 -12.373584 -2.0287242 4
50.549919 -5.6432829 -2.5535164 2
47.475639 -10.629463 -2.8767698 1
46.142868 -12.105352 -2.9586742 0
36.374027 -10.968114 -2.4714618 1
51.708393 -5.7726126 -4.4550233 3
51.595013 -5.7599549 -5.3649483 68
10.52518 -1.9564279 -2.3106925 0
8.7838449 -1.6327474 -2.2448053 0
6.2036257 -1.1531345 -2.1804323 0
55.756699 -10.565575 2.8410158 2
41.785187 -9.5087023 1.2613802 3
43.116238 -11.472342 1.1792314 1
38.138592 -11.645585 0.93835998 0
54.901405 -6.3231821 1.1354288 23
75.202942 -11.440512 1.3410555 1
55.042473 -10.430233 0.8204062 1
12.429362 -2.828445 0.14951292 0
50.972454 -13.56272 0.46122783 1
9.4032307 -2.8712683 0.057314329 0
51.594719 -5.9423399 0.14775184 8
75.297676 -11.454924 -0.0066465628 1
60.28294 -11.423271 -0.18633008 0
50.909546 -11.585055 -0.31256416 0
46.314629 -12.323369 -0.42744651 0
55.387325 -16.91247 -0.68936628 3
51.632969 -5.9467449 -0.77020341 255
75.819801 -17.253672 -1.8433357 2
65.570511 -17.446962 -1.8063928 1
55.374634 -16.908594 -1.7143455 1
51.496193 -5.9309921 -1.6851814 3
6.5603371 -0.99801439 -0.23567049 0
74.290077 -14.077543 -2.9073679 0
56.104332 -12.76719 -2.3834169 1
52.121494 -13.868456 -2.3916364 1
41.090961 -12.547088 -2.0336413 0
50.549755 -5.8219876 -2.5545192 5
39.638027 -10.546863 -2.5439301 1
36.446224 -11.128821 -2.478992 0
51.676052 -5.9517074 -4.4539995 4
51.570641 -5.9395666 -5.3645372 85
11.496011 -2.1784279 -2.3180528 0
10.403038 -1.971316 -2.2853744 0
9.5599413 -1.8115541 -2.2728519 0
8.8009615 -1.6677316 -2.2506537 0
6.1809902 -1.1712621 -2.1739004 0
55.484127 -10.714689 2.8290157 1
8.1216154 -1.5683872 0.26775143 0
41.958202 -9.7022448 1.2676176 2
40.354248 -10.888412 1.1047236 0
38.747192 -11.979439 0.95435691 1
54.882973 -6.5152521 1.1355109 13
75.012383 -11.67957 1.3383763 1
50.78437 -11.743172 0.61137509 2
46.147827 -12.451639 0.41796261 1
55.273617 -17.0889 0.33726382 0
51.58955 -6.1242843 0.14779736 10
75.114944 -11.695539 -0.0066339965 3
60.050255 -11.596467 -0.18573485 0
50.716805 -11.727549 -0.31163028 0
46.209545 -12.468293 -0.42687574 1
84.136398 -26.012383 -1.0483091 1
51.62381 -6.1283512 -0.77038121 255
115.23708 -17.942633 -2.0743933 1
90.488388 -17.474459 -1.9095618 1
55.963165 -12.940696 -1.3616701 1
46.167992 -12.45708 -1.2730657 0
100.02664 -30.925158 -3.1000516 1
6.0542684 -0.71871263 -0.19820312 0
91.329308 -14.220147 -3.2826343 0
66.469902 -12.836184 -2.6030602 0
6.7908335 -1.5702848 -0.2887184 0
51.328152 -13.849399 -2.3574374 1
44.146519 -13.648745 -2.1872094 1
50.548958 -6.0007539 -2.555522 255
45.898586 -10.613403 -2.7856312 1
45.837528 -12.367914 -2.9445605 1
38.306263 -11.843117 -2.6083035 0
50.507248 -5.9958024 -4.3550367 5
51.565399 -6.121417 -5.3661819 52
11.5076 -2.2222636 -2.3219395 0
10.507425 -2.0291173 -2.3098485 0
9.5076656 -1.8360511 -2.2619336 0
8.7379503 -1.6874093 -2.2360327 0
6.1805763 -1.1935478 -2.1752067 0
55.336632 -10.886708 2.8234155 0
46.986244 -9.2438869 1.5500853 2
41.846233 -9.8303547 1.2652638 2
40.381561 -11.047146 1.1065203 0
54.875774 -6.7087321 1.1358396 7
75.251579 -11.986009 1.3433824 1
54.913376 -10.803439 0.81958616 0
50.622368 -11.892011 0.6099208 3
87.308403 -23.884878 0.79150575 1
83.851112 -26.245205 0.51219147 0
51.575798 -6.3053002 0.14782012 6
74.706291 -11.899157 -0.0066015334 1
60.025108 -11.809101 -0.18578345 0
52.575798 -12.350904 -0.32331583 0
83.873314 -26.252153 -1.0461665 2
51.633865 -6.3123989 -0.77085537 255
80.682045 -12.850969 -1.4531637 1
46.128082 -12.619216 -1.2731721 1
100.64307 -31.501047 -3.122545 1
51.493217 -6.2952046 -1.686481 1
71.123085 -13.992474 -2.7871819 1
59.188614 -13.90436 -2.5185053 1
46.079857 -12.606023 -2.1183977 3
43.599091 -13.646415 -2.1624343 1
50.575291 -6.1829848 -2.5579286 78
45.840286 -12.540484 -2.9475319 2
38.382778 -12.013721 -2.616353 2
51.672802 -6.3171592 -4.4574118 0
51.559513 -6.303309 -5.3678265 6
6.9722786 -1.1105387 -0.75102478 0
11.565221 -2.2752955 -2.3351543 0
10.419713 -2.049933 -2.2921259 0
9.470624 -1.8632128 -2.2546546 0
8.7358131 -1.7186491 -2.2370074 0
6.2023387 -1.2202234 -2.1843517 0
54.977085 -11.015447 2.8070154 1
47.020332 -9.4211979 1.5522853 2
40.80439 -9.7360287 1.2347827 1
42.901264 -11.897571 1.176695 1
54.852016 -6.9002447 1.1358396 3
75.232956 -12.252463 1.3438053 1
54.585125 -10.936912 0.81525195 2
50.708935 -12.099278 0.61146891 2
83.225151 -26.368605 0.50892699 1
51.569347 -6.4872932 0.14786564 2
71.229553 -11.600468 -0.0062978459 2
59.77565 -11.976908 -0.18513963 0
51.493546 -12.286488 -0.31692231 1
84.441513 -23.417698 -0.78154719 2
84.151016 -26.661949 -1.0507848 1
51.675007 -6.5005851 -0.77180368 48
110.64848 -18.020247 -1.9940099 1
8.9089804 -1.7850418 -0.18826315 0
101.42058 -32.133545 -3.1501288 0
69.658997 -13.957178 -2.7316995 1
58.078445 -13.857661 -2.4733102 2
46.035572 -12.766791 -2.1183977 2
42.827496 -13.569231 -2.1265008 2
44.397953 -10.593462 -2.6989784 1
45.803928 -12.702551 -2.9480271 1
38.393879 -12.164508 -2.6199884 1
7.8729916 -1.2821978 -0.70713216 0
11.518735 -2.3079436 -2.3273809 0
10.462334 -2.0962784 -2.303097 0
9.5098925 -1.9054432 -2.265573 0
8.7411728 -1.7514192 -2.2399316 0
6.1498508 -1.2322108 -2.1673682 0
46.967575 -9.5812712 1.5516382 2
40.684666 -9.8576918 1.2321935 3
42.840225 -12.041842 1.1761665 1
38.025589 -12.194043 0.93967736 0
54.855362 -7.0952649 1.1364148 1
71.800896 -11.950945 1.2832392 1
54.51527 -11.120983 0.81478333 1
50.639183 -12.269621 0.61114055 2
9.4993448 -3.0462492 0.05815376 0
51.546387 -6.6672659 0.14786564 1
69.82341 -11.6218 -0.0061770692 2
59.525761 -12.143111 -0.18449581 1
50.256897 -12.176995 -0.30957097 0
60.747288 -17.075289 -0.56279385 1
51.588535 -6.6727176 -0.77085537 4
60.959171 -12.435523 -1.2890888 0
70.616318 -17.10998 -1.7224691 2
60.681995 -17.056936 -1.6781175 2
101.78751 -32.641209 -3.1650455 1
51.467838 -6.6571059 -1.6871309 0
84.984512 -14.1453 -3.0597413 1
61.025135 -12.448979 -2.3948092 0
57.346104 -13.894674 -2.4441736 1
48.964447 -13.763283 -2.2553716 1
8.4159622 -2.6988301 -0.41834044 0
50.744835 -6.5635896 -2.5687587 3
50.76392 -12.299845 -3.0885608 1
45.801586 -12.874243 -2.9507508 1
38.366386 -12.303329 -2.621027 1
11.510609 -2.3481364 -2.3273809 0
9.5489817 -1.9479692 -2.2764916 0
6.1603303 -1.2566924 -2.1725938 0
45.730133 -9.4952288 2.338213 2
47.047359 -9.7687321 1.5553911 1
40.731541 -10.019705 1.2346649 2
44.140053 -12.573625 1.2130506 1
54.79855 -7.2824831 1.1357574 1
70.157959 -11.929318 1.2546132 2
8.149292 -1.6920875 0.12188657 0
42.637856 -10.488647 0.51501501 0
40.780121 -11.616523 0.37078005 0
84.507614 -27.425573 0.51792753 1
51.558487 -6.8518934 0.14796805 1
69.762695 -11.862109 -0.0061753239 3
59.612255 -12.377659 -0.18489668 0
51.064709 -12.5616 -0.31481507 0
83.925911 -23.906923 -0.77830082 2
86.47374 -28.063646 -1.0822084 2
51.541142 -6.8495884 -0.77049977 1
75.866905 -12.90004 -1.3687966 1
51.198845 -12.594596 -1.2499039 2
87.548996 -24.938986 -2.4234979 0
51.519585 -6.8467236 -1.6896003 0
75.811394 -12.8906 -2.7310803 1
61.028275 -12.671675 -2.3966537 2
51.091728 -12.568246 -2.1794598 1
48.370377 -13.778664 -2.2302094 1
41.838631 -13.578048 -2.082057 1
50.868145 -6.7601504 -2.5761795 1
45.787083 -13.042793 -2.9527316 1
40.55183 -13.160439 -2.7734485 0
10.416818 -2.1629078 -2.2963455 0
9.4811039 -1.9686198 -2.2619336 0
8.7097406 -1.8084569 -2.2350581 0
6.1485023 -1.2766513 -2.169981 0
45.696712 -9.6547995 2.338213 2
46.097672 -9.7395153 1.5251089 1
40.913551 -10.216063 1.2412555 2
44.011372 -12.703232 1.2107255 2
55.157837 -18.11364 1.3661362 0
54.772793 -7.4737229 1.1357574 0
70.092255 -12.17004 1.2541901 1
54.369778 -11.487245 0.81378764 1
42.717403 -10.666482 0.51642245 1
41.334984 -11.930732 0.3762013 1
51.494625 -7.0264187 0.14785425 0
69.582932 -12.081606 -0.0061631063 2
59.451279 -12.560864 -0.18453225 0
51.393108 -12.832795 -0.31711388 0
84.168587 -24.29402 -0.78133315 1
74.83448 -24.575382 -0.93761241 0
51.505032 -7.0278382 -0.77032197 1
105.74098 -18.359688 -1.9089313 1
81.092026 -17.133121 -1.7173213 0
51.527061 -7.0308437 -1.6906401 0
81.579247 -14.164513 -2.9406283 1
65.351936 -13.807554 -2.5683262 1
55.774242 -13.926759 -2.3812647 1
47.577148 -13.732441 -2.1958332 1
41.369614 -13.585636 -2.0610642 1
51.022362 -6.961978 -2.5852046 1
50.562374 -10.682817 -2.9019485 0
50.545094 -12.621047 -3.080533 1
45.396057 -13.102901 -2.9304469 0
40.251564 -13.218472 -2.7560513 1
10.363297 -2.1895573 -2.2862184 0
6.3377123 -1.3390316 -1.5131117 0
8.7299452 -1.8444625 -2.2418811 0
6.1736002 -1.3043581 -2.1804323 0
45.303394 -9.7370214 2.3198128 2
45.316845 -9.739912 1.5003915 0
41.76519 -10.58373 1.268206 1
41.142082 -12.03079 1.1329415 1
54.67112 -7.6543355 1.1341963 0
69.966644 -12.399969 1.2527095 2
46.63784 -10.023832 0.69857818 2
50.542816 -12.808071 0.61156273 1
41.308441 -12.079436 0.37634122 0
50.447243 -16.762011 0.30988911 3
51.390556 -7.195034 0.14762667 0
61.005341 -10.811785 -0.005406681 0
59.418804 -12.770835 -0.18456869 1
51.681454 -13.096614 -0.31917322 0
84.125504 -24.600025 -0.78172553 1
50.482483 -16.773718 -0.63323236 2
51.432652 -7.2009277 -0.7696107 0
100.39539 -17.792761 -1.8135381 1
50.448769 -16.762516 -1.5740582 3
10.749422 -1.5049936 -0.35286653 0
80.22644 -14.218281 -2.893636 0
64.353745 -13.831496 -2.5309794 1
54.706402 -13.863166 -2.3377252 1
46.961277 -13.732442 -2.1696079 1
40.916225 -13.595157 -2.0408282 2
49.037144 -10.539514 -2.8165047 1
41.327225 -10.472745 -2.5209513 0
39.940018 -13.270793 -2.737875 1
10.359414 -2.2265403 -2.2870622 0
9.4518967 -2.0314882 -2.2582941 0
8.700696 -1.8700334 -2.2360327 0
2.4395127 -0.52432245 -0.86224413 0
4.735949 -1.0352015 1.2725116 0
44.976418 -9.8311138 2.3048127 2
45.134151 -9.865593 1.4954739 1
39.784092 -10.229624 1.2091267 2
43.956123 -13.020394 1.2116767 2
36.479477 -12.262528 0.90561336 1
80.125366 -11.503422 1.6630881 0
55.436172 -10.024492 0.9931708 2
46.583031 -10.182294 0.69828534 0
50.555901 -12.999363 0.61226642 1
41.170147 -12.19515 0.37546682 2
50.441505 -16.955845 0.31021556 1
51.396805 -7.3789258 0.1477177 0
60.683819 -10.973421 -0.0053815483 2
4.4587059 -0.97460067 -0.013860266 0
52.011192 -13.373559 -0.32149595 0
83.920242 -24.858303 -0.78061968 1
50.469116 -16.965126 -0.63380373 1
51.490341 -7.392355 -0.77085537 0
12.267769 -4.1237941 -0.38321498 0
90.654114 -13.015011 -2.9773357 1
70.975433 -12.834449 -2.5615678 1
63.223431 -13.819614 -2.4884071 1
53.589367 -13.779353 -2.2920334 1
46.380478 -13.738521 -2.1449773 2
40.610989 -13.651329 -2.0279677 2
41.317486 -10.623903 -2.522604 0
44.503441 -13.182517 -2.8786967 0
36.318024 -12.208255 -2.4924943 3
10.363039 -2.265192 -2.2895942 0
9.4980221 -2.0761132 -2.2710323 0
8.7092752 -1.9037061 -2.2399316 0
6.1200228 -1.3377376 -2.1647553 0
44.922329 -9.9837189 2.3038127 3
45.118954 -10.027418 1.4961209 1
39.829388 -10.389627 1.2115982 0
38.276546 -11.483514 1.0562143 2
36.368305 -12.366614 0.90391958 1
55.294651 -10.198355 0.99126709 1
47.601368 -10.57912 0.71409953 1
46.040115 -12.009716 0.55808151 1
55.176132 -16.553633 0.50372362 0
75.241638 -11.07047 0.21635903 1
60.263584 -11.114807 -0.0053476887 2
52.030293 -11.563421 -0.16186507 0
51.995152 -13.563107 -0.32168752 0
41.184731 -12.356011 -0.38349608 1
79.537498 -27.04579 -1.000031 0
51.476097 -7.5737929 -0.77103317 0
70.987305 -13.092653 -1.2839315 0
41.210079 -12.363617 -1.1454291 1
70.86338 -13.069797 -2.5591543 0
62.195438 -13.822565 -2.4498305 1
52.81778 -13.777693 -2.2610757 1
45.892071 -13.768281 -2.1245997 1
36.311207 -12.347198 -1.8153933 3
47.500404 -10.556681 -2.7324066 1
50.174469 -13.088177 -3.0661304 0
44.31567 -13.295339 -2.8695352 1
36.275188 -12.33495 -2.4924943 3
5.9895654 -0.88125813 -0.41123751 0
10.385604 -2.3081384 -2.2963455 0
8.7101517 -1.9357791 -2.2418811 0
6.1116257 -1.3582723 -2.1634488 0
0.3183156 -0.07074374 -0.15254676 0
41.641174 -9.4071569 2.1372118 1
41.788483 -9.4404354 1.3867686 2
39.816071 -10.534727 1.2123042 1
38.132923 -11.58567 1.0533608 2
38.090866 -13.100865 0.94786406 0
79.920525 -12.044039 1.6605411 1
55.203686 -10.38096 0.99027997 1
47.649975 -10.764606 0.71538812 1
46.048183 -12.183649 0.55869138 0
41.152893 -12.503206 0.3760964 0
36.478085 -12.546169 0.22487363 0
75.162987 -11.327077 0.21624523 2
60.212627 -11.322884 -0.0053466414 2
50.951767 -11.510513 -0.15863384 1
65.659409 -17.372482 -0.40659922 1
41.114559 -12.491559 -0.38324636 0
75.875237 -17.140974 -1.6117547 1
65.607353 -17.358709 -1.608807 2
41.151367 -12.502743 -1.1450033 1
36.311489 -12.488872 -1.1369777 1
75.398087 -14.178484 -2.7246916 1
61.222794 -13.83084 -2.4134059 1
52.108688 -13.787167 -2.2327666 2
41.056713 -12.473985 -1.9027482 3
36.332115 -12.495965 -1.8186084 0
55.990597 -12.648835 -3.2233157 0
49.472248 -13.089605 -3.0259914 0
41.060261 -12.475062 -2.6615441 3
8.2327681 -1.8598645 -1.4972043 0
11.367054 -2.5679309 -2.3087246 0
10.388924 -2.3469617 -2.2988772 0
9.4870958 -2.1432297 -2.2719421 0
8.7033415 -1.9661716 -2.2418811 0
6.1105342 -1.3804307 -2.1647553 0
41.705421 -9.5748024 2.1422119 2
41.891655 -9.6175585 1.3912979 2
39.759747 -10.668468 1.2117158 2
37.874409 -11.651691 1.0473367 2
36.904274 -12.836987 0.91944599 0
75.273445 -11.61259 1.5648196 2
54.738976 -10.49153 0.98259467 1
47.561436 -10.919236 0.71462667 0
46.206253 -12.398215 0.56113088 2
41.177814 -12.667953 0.37672594 0
36.407623 -12.664228 0.22471042 1
74.976723 -11.566813 0.2158242 2
60.109879 -11.520943 -0.0053410563 1
50.728046 -11.646232 -0.15806291 2
46.185421 -12.392626 -0.28627172 2
55.299988 -17.012501 -0.51602519 1
36.367886 -12.650406 -0.45835549 0
115.50079 -17.818546 -1.7318463 1
66.56958 -12.75904 -1.2056109 0
56.030018 -12.863467 -1.1911457 2
46.238937 -12.406985 -1.1349146 0
55.343746 -17.025963 -1.541539 0
36.279003 -12.619488 -1.1373328 1
66.502823 -12.746245 -2.4048328 1
56.094151 -12.878192 -2.2129931 3
51.187878 -13.734901 -2.1953526 1
44.652828 -13.737006 -2.0716176 1
39.480858 -13.733239 -1.9786066 2
45.868568 -10.530584 -2.6427019 0
46.074863 -12.362961 -2.8208115 0
38.276691 -11.77545 -2.4837611 5
7.6267014 -2.6529138 -0.52529597 0
8.6337318 -1.3319436 -0.59340733 0
9.5000572 -2.5490868 -0.93030512 0
10.541404 -2.4201136 -1.1816401 0
11.426858 -2.6233976 -2.322717 0
10.319695 -2.3692133 -2.2853744 0
9.4453897 -2.168489 -2.2637534 0
8.6775188 -1.9921998 -2.2370074 0
6.1204176 -1.405136 -2.169981 0
4.8114605 -1.1223181 1.2968854 0
47.23531 -11.018078 4.1437049 1
41.940197 -9.7829437 2.1560118 2
41.842255 -9.7600985 1.3907803 1
39.699116 -10.800893 1.2110096 2
38.081657 -11.861114 1.0542063 0
36.71212 -12.913978 0.91577613 1
75.422066 -11.905205 1.5687635 1
54.442955 -10.631951 0.97794116 1
50.896107 -11.871993 0.76534927 2
60.816963 -16.5464 0.73926097 1
55.259441 -17.211399 0.50610197 0
127.05799 -44.694344 0.78516901 1
71.518219 -11.288992 0.2059809 1
60.002556 -11.717664 -0.0053351223 3
50.733829 -11.834141 -0.15820868 0
84.04998 -26.178652 -0.78515023 1
36.31596 -12.774623 -0.45826027 2
80.703812 -12.738916 -1.2107514 1
90.456696 -17.664934 -1.6393263 1
46.19149 -12.567265 -1.1348199 1
94.711182 -33.315922 -2.9727869 0
59.521015 -13.883834 -2.3500853 1
46.099319 -12.542189 -1.9789792 3
44.245964 -13.781082 -2.054961 1
38.969078 -13.707892 -1.9553444 2
46.069958 -12.5342 -2.8231726 3
38.258224 -11.916109 -2.4852469 22
38.926655 -13.69297 -2.6843846 2
4.1431265 -0.80909491 -0.29948285 0
19.090117 -4.4529481 -2.4892442 0
11.440557 -2.6686172 -2.3273809 0
10.368478 -2.4185448 -2.2980335 0
9.4263821 -2.198792 -2.2610238 0
8.6667337 -2.0215969 -2.2360327 0
6.1191573 -1.4273508 -2.1712875 0
47.118996 -11.164511 4.1368952 0
40.160366 -9.5157127 2.0662115 2
40.524166 -9.6019125 1.3480747 0
42.894962 -11.831353 1.30975 2
37.719681 -11.89297 1.0453287 0
38.121136 -13.559335 0.95209849 0
75.530067 -12.192623 1.5718857 1
54.503574 -10.841435 0.97970384 1
6.1568527 -1.4588224 0.09265957 0
83.767479 -26.411783 0.7680369 1
36.536907 -12.99584 0.22606283 1
69.875137 -11.279763 0.20136081 1
59.859287 -11.906753 -0.0053260466 2
50.517059 -11.969658 -0.15766205 0
84.603218 -23.335384 -0.5253942 1
110.43013 -17.82645 -1.6576413 1
80.56591 -13.005547 -2.6530623 1
70.399536 -14.003339 -2.5492165 0
58.515404 -13.864808 -2.3122773 1
46.024433 -12.694529 -1.9776549 1
43.469666 -13.705933 -2.0211163 1
9.1514587 -3.2550893 -0.45975843 0
55.276043 -13.097264 -3.1899009 0
46.029774 -12.696001 -2.8234088 4
38.342045 -12.0892 -2.493418 1
38.41605 -13.664233 -2.652446 3
12.673759 -3.0029566 -2.3104315 0
11.33954 -2.6868231 -2.3087246 0
9.4603415 -2.2415607 -2.2710323 0
8.6596241 -2.0518363 -2.2360327 0
6.1031013 -1.4460864 -2.1673682 0
3.708895 -0.89248103 1.001354 0
47.234734 -11.366217 4.1505146 0
6.9603534 -1.674888 0.35840198 0
40.494289 -9.7442465 1.3482041 2
42.72633 -11.945487 1.3058662 0
40.355888 -12.879208 1.1196252 0
35.620125 -12.80999 0.89074564 0
46.978615 -9.5152225 0.84503424 0
42.369892 -10.195578 0.63819134 1
59.017029 -18.834738 0.54170752 0
69.76825 -11.512527 0.20116736 3
59.535091 -12.058458 -0.0053009139 1
50.474972 -12.145924 -0.15766205 1
60.756981 -16.986521 -0.37767273 1
91.921555 -33.057552 -1.1628146 1
60.944637 -12.343953 -1.1060207 1
70.686676 -17.009518 -1.5064367 1
60.752563 -16.985285 -1.4954293 2
43.748569 -15.733205 -1.3765906 1
85.3797 -14.088588 -2.8131845 1
68.900589 -13.955381 -2.4966874 0
57.786579 -13.905335 -2.2853816 1
49.04747 -13.71276 -2.1095979 2
8.0630245 -2.5732396 -0.37530458 0
38.680683 -13.910651 -1.9456992 3
60.825039 -12.31973 -3.3034842 0
46.065933 -12.879177 -2.828367 0
38.280594 -12.216897 -2.4921799 2
38.082661 -13.695586 -2.6327119 3
8.167387 -1.9653397 -1.2154729 0
11.433093 -2.7511749 -2.3297129 0
10.309525 -2.480808 -2.2887502 0
9.4448862 -2.2727475 -2.2692125 0
8.6486378 -2.0811441 -2.2350581 0
6.0980163 -1.4673815 -2.1673682 0
41.20541 -10.067657 3.6237838 0
40.321926 -9.8517962 2.0780115 2
40.572659 -9.9130573 1.351957 2
37.329594 -10.577284 1.1420445 0
37.886871 -12.237127 1.0523039 0
35.560158 -12.928782 0.89036924 0
7.5557475 -1.2738899 0.15742685 0
42.718689 -10.437394 0.64398986 0
40.687302 -11.528685 0.4960151 1
82.78936 -26.740238 0.76076186 1
45.816933 -16.65789 0.28419328 1
69.672417 -11.746686 0.20100805 2
59.606251 -12.289619 -0.0053110369 0
10.957623 -2.6772599 -0.034255873 0
84.103424 -23.830578 -0.5233109 2
87.398567 -28.228971 -0.81914765 1
45.94603 -16.704826 -0.58195484 2
75.750481 -12.771441 -1.1383837 1
85.629066 -17.655005 -1.5551014 1
51.218079 -12.514037 -1.0924566 1
43.355202 -15.762865 -1.3659359 1
83.457436 -14.070824 -2.7514491 0
61.060356 -12.589427 -2.2141669 3
56.782516 -13.873588 -2.2475736 1
48.349472 -13.699749 -2.08162 2
42.403248 -13.695877 -1.9759308 1
38.594337 -14.031935 -1.943808 2
60.828613 -12.541646 -3.3060358 1
53.720657 -13.125488 -3.1053541 0
46.69685 -13.231481 -2.8699224 1
38.306103 -12.372536 -2.4966369 3
38.090889 -13.848893 -2.6366067 2
2.6250811 -0.64138216 -0.34315288 0
10.312198 -2.5195639 -2.2912819 0
8.6375532 -2.1104004 -2.2340832 0
6.1222382 -1.4958373 -2.1778195 0
7.7019706 -1.9103256 1.5220747 0
41.061703 -10.184566 3.6142502 2
40.011986 -9.9242039 2.0638113 2
40.464077 -10.036336 1.3494982 2
37.26939 -10.700906 1.1413383 2
37.786915 -12.350664 1.0507187 0
35.338402 -12.987998 0.88594657 0
70.227455 -12.092525 1.4640861 2
46.954094 -9.8519907 0.84580982 1
42.65094 -10.578745 0.64352131 2
41.446445 -11.900235 0.50577307 0
69.603394 -11.985066 0.20092839 2
59.480774 -12.480362 -0.0053037065 1
50.454945 -12.51438 -0.15786855 0
83.988976 -24.115181 -0.52311933 2
87.010551 -28.439426 -0.81643641 1
45.887436 -16.865108 -0.58195484 0
4.6073751 -1.1427708 -0.098357551 0
87.272369 -25.05792 -2.1524701 1
43.104767 -15.842387 -1.3597798 7
75.736809 -13.041184 -2.498399 1
66.270241 -13.904939 -2.4048328 1
51.096832 -12.673587 -2.024261 1
47.648323 -13.680938 -2.0534766 1
42.074108 -13.751935 -1.9628181 1
38.338856 -14.090762 -1.9334061 2
50.632217 -10.623741 -2.7538602 0
50.941753 -12.635122 -2.9472494 2
46.443127 -13.334899 -2.8571725 1
38.361343 -12.538417 -2.5030746 1
37.929916 -13.940464 -2.6288168 1
7.6720557 -1.9029058 -1.00376 0
11.390757 -2.8252583 -2.3250489 0
10.32611 -2.561193 -2.2963455 0
9.4287891 -2.33863 -2.2692125 0
8.6338978 -2.1414723 -2.2350581 0
6.0839539 -1.5090078 -2.1660616 0
41.006577 -10.322968 3.6125479 2
39.829884 -10.026748 2.0562115 2
37.389214 -10.876726 1.1461636 2
36.559101 -12.090767 1.017745 0
35.33783 -13.127984 0.88707578 3
70.074532 -12.318206 1.4617856 1
46.540028 -9.934845 0.83897054 2
42.815437 -10.778328 0.64656699 0
57.085503 -16.606483 0.6973204 0
35.474499 -13.178757 0.22060654 0
60.925575 -10.709936 0.17598446 1
59.429024 -12.686245 -0.0053030085 1
50.628178 -12.745102 -0.1585488 0
84.104004 -24.466312 -0.52436453 2
50.454262 -16.686152 -0.4739655 0
35.502579 -13.189189 -0.45083287 1
66.158218 -11.629767 -0.99542642 0
81.052719 -17.302229 -1.4741489 1
11.967956 -3.0128047 -0.25571308 0
104.14051 -30.295042 -2.5710955 2
43.090431 -16.00807 -1.3610821 2
80.522156 -14.154764 -2.6578712 0
65.224403 -13.923377 -2.3686304 0
55.273369 -13.914479 -2.1916301 0
47.112915 -13.705403 -2.0324519 2
41.585747 -13.753171 -1.9422632 1
35.536552 -13.20181 -1.7944006 0
60.653633 -12.947659 -3.301358 0
45.951542 -13.367554 -2.8297837 2
38.396942 -12.698574 -2.5082743 2
11.30092 -2.8448858 -2.3087246 0
10.290565 -2.5905395 -2.2904379 0
9.3790188 -2.3610675 -2.2592039 0
8.6301327 -2.1725435 -2.2360327 0
6.0823159 -1.531158 -2.1673682 0
40.777218 -10.416723 3.5955236 2
39.748196 -10.153854 2.0538113 2
39.854607 -10.181038 1.3315101 1
44.131653 -13.005394 1.354236 1
36.501507 -12.213234 1.0173223 1
35.303024 -13.25547 0.88735807 0
55.490334 -9.9542913 1.1582705 2
60.684437 -13.175885 1.0947723 0
6.8977304 -1.7620561 0.10425666 0
41.185875 -12.137287 0.50361508 1
50.388199 -16.859657 0.4646205 3
35.417046 -13.298284 0.22053659 0
60.738209 -10.895697 0.17555204 2
59.474285 -12.913135 -0.0053110369 2
50.560131 -12.915812 -0.15847592 0
84.0718 -24.775572 -0.52469981 1
50.471573 -16.887552 -0.47467896 2
35.441349 -13.307408 -0.45064244 1
65.849525 -11.812605 -0.99139613 0
103.7196 -30.565685 -2.5633221 2
50.360905 -16.850523 -1.4137958 2
35.383415 -13.285656 -1.1191014 0
79.346832 -14.233857 -2.6207001 0
63.94096 -13.882945 -2.3237679 0
54.051037 -13.80758 -2.145062 0
46.635429 -13.743246 -2.0139103 2
40.999367 -13.718197 -1.9171013 1
35.400482 -13.292064 -1.7898617 0
60.881302 -13.218628 -3.3162415 0
45.617336 -13.443219 -2.8120754 1
41.116177 -13.757281 -2.6890285 1
36.000629 -13.517405 -2.5015826 0
36.014 -10.61316 -2.8856554 0
11.290921 -2.8843164 -2.3087246 0
10.307978 -2.6332192 -2.2963455 0
9.3782663 -2.3957202 -2.2610238 0
8.6187372 -2.201695 -2.2350581 0
6.0476303 -1.5448942 -2.1569166 0
40.717461 -10.553 3.5934806 2
39.681568 -10.284521 2.0522113 3
39.575016 -10.256906 1.3233571 2
38.323814 -11.43939 1.1772332 2
36.454865 -12.339293 1.0172166 0
36.60997 -13.892201 0.92142206 0
55.223152 -10.105458 1.1534228 1
47.566933 -10.501796 0.85878319 1
6.8489494 -1.7750852 0.10361238 0
41.08577 -12.263815 0.50291139 0
50.457859 -17.079044 0.4658097 2
60.365364 -11.046448 0.17458478 2
51.81617 -11.43994 -0.0046307077 1
51.838974 -13.435432 -0.16263036 0
41.172176 -12.289607 -0.25722548 2
72.431023 -27.485037 -0.92218632 1
71.020752 -12.996309 -1.0699278 1
41.234158 -12.308108 -1.020115 1
50.381313 -17.053137 -1.4160314 1
43.078556 -16.346802 -1.3642784 2
70.939919 -12.981518 -2.3445153 1
63.05286 -13.92077 -2.2932441 0
53.337006 -13.823688 -2.1186271 0
41.099346 -12.267867 -1.7766777 0
40.739262 -13.789481 -1.9071782 1
38.136902 -14.471618 -1.9307585 2
59.80508 -13.203727 -3.2601097 0
45.329086 -13.530415 -2.7972004 1
36.318245 -12.29305 -2.3780322 1
35.628548 -13.519785 -2.478992 1
35.896481 -10.714849 -2.8792183 0
11.314968 -2.9325714 -2.3157208 0
10.279799 -2.6642799 -2.2921259 0
9.377388 -2.4303966 -2.2628436 0
8.6072445 -2.2307937 -2.2340832 0
6.0678186 -1.5726347 -2.1660616 0
40.819141 -10.73155 3.6057382 2
39.66861 -10.42907 2.0534112 2
39.662697 -10.427516 1.3274983 2
38.080807 -11.511778 1.1709957 2
36.301865 -12.428908 1.0141517 1
36.445507 -13.975526 0.91850501 1
54.983112 -10.260015 1.1491503 1
47.60413 -10.684408 0.86012286 1
43.272705 -11.376604 0.65523553 1
55.101368 -16.657072 0.67517728 2
116.90913 -44.830399 0.72990662 2
12.417603 -2.3171625 0.03593656 0
50.921188 -11.428899 -0.0045542619 1
50.464859 -13.267456 -0.15846378 0
41.224747 -12.462188 -0.25782415 1
72.286087 -27.719084 -0.92156732 0
65.623413 -17.252714 -1.4059247 2
41.171803 -12.446183 -1.019641 2
62.871269 -14.111009 -2.2884171 0
5.6670899 -1.4899055 -0.22531065 0
41.090702 -12.421665 -1.7781677 4
36.324257 -12.436576 -1.7025149 3
38.123459 -14.618959 -1.9326496 2
50.574974 -13.296406 -2.9364848 0
41.096268 -12.423348 -2.5386596 5
36.233566 -12.405525 -2.3753085 3
35.687065 -10.788154 -2.8654246 0
11.27051 -2.9630718 -2.3087246 0
10.206151 -2.6832466 -2.2777791 0
9.3726149 -2.4641061 -2.2637534 0
8.6256685 -2.2677302 -2.2409065 0
6.0696049 -1.5957285 -2.1686745 0
40.873852 -10.898609 3.6139097 1
39.662846 -10.575706 2.0550113 2
39.680138 -10.580317 1.3293101 1
36.949718 -12.794986 1.0334921 0
36.430058 -14.115663 0.91935188 1
54.632664 -10.392097 1.1425771 2
47.613335 -10.861188 0.86096895 1
43.313885 -11.54922 0.65646553 1
41.213326 -12.615911 0.50553852 1
36.43206 -12.61573 0.33713317 1
116.22977 -45.035896 0.72664219 1
60.113873 -11.434719 0.17408407 1
5.4831505 -1.2507741 -0.00049078657 0
46.209312 -12.321257 -0.14523518 1
55.275169 -16.920416 -0.3460643 2
79.591774 -27.561121 -0.75122422 0
115.51863 -44.760349 -1.4747173 2
56.031586 -12.781495 -1.0222225 0
46.207336 -12.320729 -0.99086744 0
55.428883 -16.96747 -1.3741834 1
36.280743 -12.563334 -1.0221571 1
65.250359 -25.282751 -2.0719891 0
56.110367 -12.799466 -2.0439446 0
44.769264 -13.704428 -1.939413 1
36.284405 -12.5646 -1.702692 0
37.904545 -14.686986 -1.9241391 2
10.701562 -2.4411581 -0.58428103 0
50.018883 -13.33704 -2.9068823 1
38.326504 -11.732219 -2.3700767 14
38.570518 -13.356238 -2.5315497 0
35.205761 -13.641281 -2.4561417 1
35.515717 -10.871802 -2.854696 0
4.1878924 -1.1166602 -0.4735249 0
10.347841 -2.7591498 -2.3115363 0
4.8889785 -1.3035978 -1.1819195 0
8.5764666 -2.2868302 -2.2301843 0
6.11514 -1.6305416 -2.1869645 0
40.866337 -11.049541 3.6166337 2
39.822372 -10.767271 2.0652115 2
39.689274 -10.731284 1.330863 1
38.056793 -11.795106 1.1727611 1
36.768967 -12.87631 1.0296874 0
36.540688 -14.305425 0.9233982 0
54.466496 -10.557618 1.1398656 1
51.023167 -11.826536 0.92336822 1
8.8569746 -2.3947706 0.13436224 0
41.115547 -12.743119 0.50488174 0
5.8328323 -2.2835133 0.03651515 0
60.034325 -11.636868 0.17397028 3
50.711567 -11.754312 -0.0045427429 1
46.173744 -12.484571 -0.14525947 0
84.07682 -26.058292 -0.52695066 1
36.380192 -12.740163 -0.34379086 0
18.152102 -3.5185475 -0.27400157 0
56.021694 -12.985133 -1.0228628 1
46.229675 -12.499694 -0.99227607 1
8.2694931 -2.5629995 -0.20523641 0
36.251762 -12.695188 -1.0225829 1
65.269676 -25.552626 -2.0754223 0
66.349327 -12.86095 -2.1971302 0
56.073139 -12.997057 -2.0442286 0
46.116707 -12.46915 -1.8369119 1
44.572273 -13.814476 -1.9329565 1
40.075932 -14.034392 -1.882902 1
8.1629238 -3.1957278 -0.41493624 0
66.238129 -12.839396 -3.3872397 1
56.83075 -13.172663 -3.1053219 0
46.216988 -12.496264 -2.6884513 1
38.281502 -11.864751 -2.3698406 115
39.868824 -13.961864 -2.6199458 2
34.789963 -13.620028 -2.4304352 1
35.40136 -10.972096 -2.8485656 0
34.13652 -11.95444 -2.8840563 0
7.9596939 -2.1521618 -0.75489914 0
16.126938 -4.3604412 -2.4171989 0
11.249549 -3.0416811 -2.3087246 0
9.4228659 -2.5477779 -2.2801311 0
8.5871563 -2.3218167 -2.2350581 0
6.0838637 -1.6449702 -2.1778195 0
40.758335 -11.173161 3.6105049 2
37.426598 -10.259826 1.9428108 0
39.786522 -10.906756 1.3353924 0
38.175617 -11.978147 1.177704 1
36.655952 -12.980555 1.0277851 0
36.211632 -14.322579 0.91634071 0
54.570557 -10.775569 1.1428236 1
42.35099 -9.9723368 0.76705277 0
43.143486 -11.827006 0.65511841 0
41.394943 -16.372705 0.25950009 1
59.836372 -11.815363 0.1735151 2
50.487236 -11.888168 -0.0045263367 1
84.122749 -26.394716 -0.52781272 1
36.316647 -12.860399 -0.34361249 1
41.429909 -16.386534 -0.53034401 1
2.7345059 -0.74961531 -0.058749374 0
60.556625 -14.259195 -2.2094817 0
46.080612 -12.632167 -1.8372192 2
44.329308 -13.908955 -1.9245135 1
39.940063 -14.143519 -1.8788265 1
36.192295 -14.314931 -1.8422488 0
66.008698 -13.034159 -3.3778136 1
55.9174 -13.166803 -3.0579076 0
46.065239 -12.627953 -2.6821718 4
38.380821 -12.042532 -2.3785768 23
39.594048 -14.020988 -2.6050894 2
37.802567 -10.36289 -2.894973 0
35.362846 -11.0956 -2.8485656 0
33.974312 -12.030934 -2.8738823 0
11.292651 -2.2298608 -1.1895152 0
16.035259 -4.3957767 -2.4057429 0
12.48147 -3.4215696 -2.2957597 0
11.231295 -3.0788565 -2.3071699 0
10.215202 -2.800313 -2.2862184 0
9.3500538 -2.5631483 -2.2646632 0
8.5789995 -2.3517778 -2.2350581 0
6.0707927 -1.664198 -2.1752067 0
37.36927 -10.377466 1.9416107 1
5.8282738 -1.6185148 0.19579889 0
38.413879 -12.192981 1.1862952 0
37.587791 -13.450974 1.0551574 1
36.115662 -14.423304 0.91511744 2
47.049698 -9.4527063 0.98597193 1
42.438274 -10.141536 0.76923847 2
41.63961 -11.563341 0.63286132 0
83.714058 -26.571745 1.0301708 1
36.53371 -13.073766 0.33930168 1
36.399929 -14.536831 0.22848785 1
