# .PCD v0.7 - Point Cloud Data file format
VERSION 0.7
FIELDS x y z intensity
SIZE 4 4 4 4
TYPE F F F F
COUNT 1 1 1 1
WIDTH 1099
HEIGHT 1
VIEWPOINT 0 0 0 1 0 0 0
POINTS 1099
DATA ascii
22.280157 -20.164778 -2.099057 0.011764706
38.0103 -31.18861 1.4300613 0.043137256
34.755447 -34.714569 0.85700673 0.031372551
12.886715 -10.550782 -1.0652483 0.015686275
10.921939 -11.998788 -0.94321656 0.10196079
36.377483 -32.948109 2.8565769 0.16470589
34.76022 -34.719341 2.0004497 0.18039216
31.492046 -28.518044 -1.977495 0.047058824
19.825327 -19.783691 -1.4661915 0.086274512
2.7484655 -2.4535949 0.44848475 0
34.766838 -34.725964 4.0090842 0.16862746
13.563294 -11.106561 -0.71283573 0.023529412
32.914528 -36.254498 -1.7088624 0.031372551
6.7058473 -6.0421128 2.4101386 0
34.790337 -34.749454 8.9599276 0.031372551
36.375877 -32.946655 -1.1411995 0.019607844
3.5090046 -3.4908047 -2.2939639 0.050980393
37.892975 -31.314152 -0.85738426 0.054901961
19.881908 -19.979265 -0.8193689 0.035294119
5.9931779 -5.4338503 -2.2557929 0.082352944
7.9663043 -7.9795642 -2.2490528 0.019607844
36.261593 -33.074146 9.0566173e-05 0.043137256
32.995529 -36.599762 -0.57324964 0.023529412
9.7092285 -8.8272486 -2.0365579 0.023529412
37.891933 -31.31329 0.28559181 0.019607844
34.63311 -34.834579 -0.28522471 0.023529412
14.4945 -13.197031 -2.1080627 0.023529412
7.4856434 -8.2666912 -1.0383503 0.039215688
36.269508 -33.081371 1.1416595 0.019607844
22.22142 -20.253042 -2.1001728 0.011764706
11.363437 -11.400672 -1.3115656 0.019607844
37.904282 -31.3235 1.430178 0.043137256
34.639698 -34.841209 0.85714656 0.031372551
12.865187 -10.608275 -1.0665272 0.015686275
10.893349 -12.05153 -0.94437927 0.094117649
36.262253 -33.074741 2.8565772 0.16470589
34.650078 -34.851662 2.0011013 0.18039216
23.334347 -21.269341 -1.4692091 0.0078431377
36.299446 -33.108704 6.0287237 0.019607844
34.651031 -34.852619 4.0097351 0.16862746
13.527522 -11.156236 -0.71299845 0.023529412
32.803825 -36.386848 -1.7096996 0.031372551
36.260651 -33.073292 -1.1411992 0.019607844
3.4987314 -3.506068 -2.2956541 0.050980393
37.777946 -31.452671 -0.85738403 0.054901961
19.811352 -20.054697 -0.81948513 0.035294119
5.9703875 -5.4530163 -2.2547145 0.11372549
7.9562778 -8.0281067 -2.2545438 0.027450981
36.140129 -33.206676 9.0809139e-05 0.043137256
23.351189 -26.079683 -0.40713647 0.011764706
9.7058992 -8.8893785 -2.042707 0.023529412
37.773838 -31.449245 0.2855688 0.019607844
34.513622 -34.969677 -0.2852942 0.023529412
14.463595 -13.266066 -2.1106331 0.023529412
7.4526396 -8.290946 -1.0379784 0.039215688
36.1539 -33.219341 1.1418458 0.019607844
22.179344 -20.363914 -2.1032419 0.011764706
8.9006729 -8.9861622 -1.0300512 0.015686275
37.780006 -31.454382 1.4298292 0.043137256
34.520184 -34.97633 0.85735625 0.031372551
12.838485 -10.665426 -1.0675505 0.011764706
10.851765 -12.094197 -0.94461173 0.10588235
36.140785 -33.207272 2.8565774 0.16470589
34.530525 -34.986816 2.00159 0.18039216
26.070444 -23.943405 -1.6473229 0.0078431377
12.114738 -12.24673 -0.90119314 0.015686275
36.160328 -33.225243 6.0257993 0.019607844
34.528652 -34.984917 4.0103865 0.16862746
13.495752 -11.213264 -0.71348685 0.019607844
23.373196 -26.104309 -1.2225305 0.015686275
7.5837464 -6.9371638 2.7455707 0
34.546314 -35.002823 8.9613628 0.031372551
36.13036 -33.197693 -1.1409198 0.019607844
3.4851635 -3.514318 -2.2939639 0.054901961
37.678947 -31.571066 -0.85738379 0.054901961
19.767839 -20.136694 -0.82029945 0.035294119
5.953227 -5.4716115 -2.2547143 0.098039217
7.9282746 -8.0501251 -2.2537594 0.019607844
36.041496 -33.325348 9.1031463e-05 0.043137256
32.764233 -36.844154 -0.57357514 0.023529412
9.7040281 -8.9438572 -2.0482409 0.023529412
7.5785851 -7.6931386 -1.3707483 0
37.659527 -31.554771 0.28545275 0.019607844
34.409195 -35.083504 -0.28534049 0.023529412
14.471461 -13.357233 -2.1179156 0.039215688
7.4292021 -8.3171616 -1.0383502 0.039215688
36.046429 -33.32991 1.1417528 0.019607844
23.247892 -26.128847 0.40690133 0.73725492
21.09918 -19.492741 -2.0064225 0.0039215689
8.5459909 -8.6807289 -0.99197328 0.019607844
37.674877 -31.567644 1.4295967 0.043137256
34.412933 -35.087318 0.85742629 0.031372551
12.823265 -10.720964 -1.0690854 0.011764706
10.826976 -12.143023 -0.94577444 0.10196079
36.036282 -33.320511 2.8565776 0.16470589
34.423237 -35.097839 2.0017529 0.18039216
20.887299 -19.296595 -1.3231069 0.0039215689
11.779912 -11.982117 -0.87900347 0.019607844
36.064507 -33.346634 6.0272617 0.019607844
34.426949 -35.101624 4.011363 0.16862746
13.481894 -11.273452 -0.71462655 0.019607844
34.447197 -35.122284 8.9642324 0.031372551
22.383259 -20.681452 -0.70835316 0.011764706
3.4716442 -3.5275102 -2.2939639 0.054901961
37.545227 -31.705013 -0.8571043 0.054901961
19.707094 -20.229486 -0.82099748 0.031372551
5.9378076 -5.4995208 -2.256871 0.10196079
7.9027743 -8.085969 -2.2553284 0.023529412
35.910347 -33.460594 9.127603e-05 0.043137256
32.638382 -36.987522 -0.57385421 0.023529412
9.6985168 -9.0078487 -2.0543897 0.023529412
37.53809 -31.698977 0.28545302 0.019607844
34.274231 -35.215206 -0.28534025 0.023529412
14.280482 -13.282319 -2.0973532 0.047058824
7.3945775 -8.342474 -1.0379784 0.039215688
35.91819 -33.467907 1.1417532 0.019607844
23.160616 -26.232763 0.40713435 0.53333336
8.306963 -8.5017719 -0.96788996 0.019607844
37.547279 -31.706743 1.4293643 0.043137256
34.283535 -35.224773 0.85756618 0.031372551
12.794199 -10.780267 -1.0701085 0.023529412
10.78555 -12.190333 -0.94623941 0.10196079
35.899315 -33.450294 2.8558803 0.16470589
34.293793 -35.235325 2.002079 0.18039216
11.655855 -11.946895 -0.87314188 0.027450981
35.936203 -33.484703 6.0272617 0.019607844
34.29747 -35.239105 4.0120144 0.16862746
13.591114 -11.453986 -0.72276747 0.015686275
23.573627 -26.701424 -1.2427708 0.035294119
34.323051 -35.265419 8.967103 0.031372551
21.444004 -19.965094 -0.68099773 0.0039215689
3.4504592 -3.5252349 -2.285511 0.062745102
37.438766 -31.814957 -0.85688955 0.054901961
19.668152 -20.314203 -0.8219251 0.023529412
5.9201975 -5.5153871 -2.2557919 0.11764706
7.8907337 -8.1219206 -2.2584651 0.023529412
35.813343 -33.57864 9.6883719e-05 0.043137256
32.537651 -37.104839 -0.57408112 0.023529412
9.7014847 -9.0652065 -2.0605376 0.023529412
7.3976245 -7.6114388 -1.3470088 0.031372551
37.431641 -31.808893 0.28538871 0.019607844
34.18256 -35.339886 -0.28547388 0.023529412
7.3708329 -8.3655424 -1.037977 0.035294119
35.818241 -33.583233 1.1418519 0.019607844
20.956343 -19.631107 -2.0055821 0.0039215689
37.437767 -31.8141 1.4289041 0.043137256
34.175159 -35.332222 0.8575719 0.031372551
12.781006 -10.835813 -1.0716416 0.015686275
10.77074 -12.248072 -0.94809788 0.090196081
35.802334 -33.568298 2.8563509 0.16470589
34.190937 -35.348557 2.0024102 0.13333334
11.584682 -11.945989 -0.87041873 0.023529412
35.818813 -33.583767 6.0248299 0.019607844
34.197357 -35.355198 4.0129962 0.20392157
13.868049 -11.760683 -0.73937345 0.031372551
23.463127 -26.742172 -1.2412308 0.035294119
34.225491 -35.384312 8.9699793 0.039215688
3.4394064 -3.5409012 -2.2872014 0.050980393
37.322395 -31.963511 -0.85702884 0.054901961
19.612141 -20.412491 -0.82285577 0.035294119
5.8933802 -5.5326109 -2.2536354 0.094117649
7.8594894 -8.1519852 -2.2584651 0.027450981
35.68705 -33.718487 9.7156124e-05 0.043137256
32.405434 -37.241405 -0.57426715 0.023529412
9.6895761 -9.1239491 -2.0654569 0.023529412
37.312263 -31.954821 0.28541225 0.019607844
34.038303 -35.46204 -0.28540394 0.023529412
14.111897 -13.307623 -2.0857849 0.039215688
7.3334341 -8.3875971 -1.0372335 0.039215688
35.691929 -33.723099 1.1419451 0.019607844
22.046072 -20.813637 -2.1177471 0.011764706
7.9905806 -8.2887383 -0.93729639 0.054901961
37.312298 -31.954847 1.4287882 0.043137256
34.044773 -35.468784 0.85771179 0.031372551
12.821125 -10.954793 -1.0785488 0.011764706
10.728869 -12.295193 -0.94856292 0.086274512
35.673176 -33.705353 2.8563511 0.16470589
34.063251 -35.48806 2.0028989 0.13333334
20.409817 -19.26568 -1.3057945 0.047058824
11.511086 -11.961374 -0.86832529 0.023529412
35.69825 -33.729069 6.0262928 0.019607844
34.066868 -35.491829 4.0136476 0.20392157
23.318323 -26.783613 -1.2389973 0.015686275
34.073029 -35.498241 8.9656744 0.031372551
20.560009 -19.407766 -0.6570819 0.050980393
3.428266 -3.5515463 -2.2872014 0.062745102
37.230885 -32.088299 -0.85723799 0.054901961
5.8731794 -5.5482988 -2.2525568 0.086274512
7.7986717 -8.1395741 -2.2482669 0.019607844
35.57515 -33.824772 9.7355252e-05 0.043137256
32.296124 -37.351963 -0.57440662 0.023529412
9.6866283 -9.1787291 -2.070991 0.023529412
7.3032546 -7.6194854 -1.339433 0.074509807
33.948803 -35.591827 -0.28558967 0.023529412
14.046974 -13.329808 -2.0823576 0.039215688
7.3148561 -8.4194956 -1.0383487 0.043137256
35.591606 -33.840431 1.1421316 0.019607844
32.298737 -37.354992 0.57466155 0.015686275
21.948788 -20.852386 -2.1146779 0.011764706
7.9535036 -8.3021116 -0.93599451 0.05882353
37.202648 -32.063927 1.4284391 0.043137256
33.941452 -35.584103 0.85792136 0.031372551
10.70585 -12.346831 -0.94995815 0.086274512
35.567112 -33.817112 2.8563514 0.16470589
33.948841 -35.591862 2.0027363 0.18039216
20.314465 -19.296497 -1.303561 0.035294119
11.443147 -11.965519 -0.86602253 0.019607844
35.57198 -33.821743 6.0228806 0.019607844
33.960697 -35.604305 4.0142984 0.20392157
26.264231 -22.624954 -1.4108485 0.015686275
30.355835 -35.104794 -1.6195179 0.031372551
34.007481 -35.653404 8.9778709 0.039215688
20.484455 -19.45833 -0.65661651 0.047058824
3.4158485 -3.5633342 -2.2872014 0.06666667
33.810635 -35.695454 -1.4298733 0.023529412
5.8398747 -5.5552812 -2.2471654 0.098039217
7.7216949 -8.1152983 -2.2341464 0.019607844
35.462639 -33.954124 9.7609351e-05 0.043137256
32.175957 -37.476463 -0.57459265 0.023529412
9.6687956 -9.2260046 -2.0740652 0.023529412
7.2711606 -7.63901 -1.3384225 0.039215688
33.818863 -35.704147 -0.28554296 0.023529412
13.983136 -13.36209 -2.0797873 0.094117649
7.2854223 -8.4448204 -1.0383487 0.039215688
35.470375 -33.96154 1.1420387 0.019607844
32.183765 -37.485569 0.57494116 0.015686275
21.841301 -20.89558 -2.1113296 0.011764706
7.9162569 -8.3209782 -0.93501812 0.05882353
37.087471 -32.190811 1.428323 0.043137256
33.825279 -35.710926 0.85813105 0.031372551
12.721073 -11.015719 -1.0762463 0.0039215689
10.680879 -12.40519 -0.95158589 0.074509807
35.454613 -33.946426 2.8568165 0.16470589
33.835381 -35.721603 2.0033877 0.18039216
11.376605 -11.979117 -0.86413842 0.019607844
35.485229 -33.975773 6.0282431 0.019607844
33.844429 -35.731171 4.0152755 0.20392157
32.999866 -28.638577 -1.7786618 0.035294119
31.848928 -37.095024 -1.7062029 0.031372551
33.882824 -35.771744 8.9778719 0.039215688
20.407749 -19.521257 -0.65633726 0.050980393
3.3928397 -3.5650933 -2.2804396 0.06666667
36.976242 -32.332493 -0.85667908 0.054901961
33.696003 -35.836456 -1.4305712 0.023529412
5.8305583 -5.5871859 -2.2514787 0.082352944
7.6892152 -8.140521 -2.233362 0.019607844
35.346588 -34.092049 9.7882228e-05 0.043137256
32.05912 -37.61834 -0.57496488 0.023529412
9.6576605 -9.2831793 -2.0789845 0.031372551
7.2268167 -7.6480865 -1.3353921 0.023529412
26.029543 -22.74885 0.20078635 0.7019608
33.695992 -35.836441 -0.28561246 0.023529412
13.765285 -13.250083 -2.0545127 0.047058824
7.2595849 -8.4773664 -1.0390922 0.043137256
35.345661 -34.091152 1.1420389 0.019607844
32.051346 -37.609203 0.5750345 0.015686275
21.824846 -21.033537 -2.1171887 0.011764706
7.8802476 -8.3439569 -0.93436712 0.062745102
36.966236 -32.323727 1.428207 0.043137256
33.699646 -35.840324 0.85827094 0.031372551
12.707644 -11.085768 -1.0785484 0.0039215689
10.650869 -12.462335 -0.95298111 0.062745102
35.327087 -34.073204 2.8565843 0.16470589
33.712437 -35.853951 2.0038767 0.13333334
11.327154 -12.014743 -0.8637197 0.027450981
35.349041 -34.094406 6.0262933 0.019607844
33.7187 -35.860619 4.0159264 0.20392157
26.691053 -23.327993 -1.4427611 0.015686275
31.75421 -37.260052 -1.708436 0.031372551
33.76226 -35.906994 8.9807415 0.039215688
20.330311 -19.590202 -0.656151 0.050980393
3.3680127 -3.5634999 -2.2719872 0.06666667
36.863152 -32.461216 -0.85667884 0.054901961
33.587059 -35.971245 -1.431269 0.023529412
5.799974 -5.5966043 -2.2471654 0.10196079
7.6661019 -8.1728916 -2.234931 0.019607844
35.221626 -34.209484 9.8101591e-05 0.043137256
31.927614 -37.729862 -0.57496464 0.023529412
9.6393652 -9.3304548 -2.0820589 0.023529412
7.2109008 -7.6847181 -1.3374125 0.086274512
33.578873 -35.962463 -0.28568193 0.023529412
13.647673 -13.228578 -2.0438035 0.05882353
7.229949 -8.5024967 -1.0390921 0.043137256
35.232178 -34.219738 1.1422253 0.019607844
31.932777 -37.73597 0.57526755 0.015686275
21.75415 -21.112217 -2.1174676 0.011764706
7.8483548 -8.3683405 -0.93404168 0.062745102
36.841183 -32.441837 1.4277418 0.043137256
33.579788 -35.96344 0.85841084 0.031372551
24.151739 -21.253977 -2.0596273 0.019607844
35.210793 -34.19894 2.856817 0.16470589
33.587078 -35.971256 2.0038767 0.18039216
20.064911 -19.469412 -1.3007689 0.42352942
11.28242 -12.051129 -0.86351025 0.023529412
35.255428 -34.242344 6.0306811 0.019607844
33.606911 -35.992527 4.0175543 0.20392157
23.016493 -27.184391 -1.2427658 0.015686275
5.7095556 -5.5086627 2.1171544 0
33.596458 -35.981304 8.9699802 0.039215688
20.258936 -19.658104 -0.65605783 0.050980393
3.3383121 -3.556457 -2.2601538 0.094117649
36.743637 -32.584225 -0.85653901 0.054901961
33.458576 -36.085178 -1.4311525 0.023529412
5.7914109 -5.627439 -2.2514784 0.11764706
7.6428571 -8.2051992 -2.2364998 0.019607844
35.104858 -34.334866 9.8344062e-05 0.043137256
31.813713 -37.862373 -0.57529032 0.023529412
9.6632137 -9.4191971 -2.0943568 0.019607844
7.1678562 -7.6922154 -1.3343821 0.05882353
33.464005 -36.091038 -0.28577471 0.023529412
7.2027864 -8.5305777 -1.0394639 0.047058824
35.115372 -34.345158 1.1423187 0.019607844
31.818855 -37.8685 0.57559377 0.015686275
21.657515 -21.165531 -2.1152353 0.011764706
7.8109708 -8.3867531 -0.93306524 0.062745102
36.730701 -32.572735 1.4278585 0.043137256
33.467632 -36.094948 0.85876012 0.031372551
24.053522 -21.31679 -2.0575807 0.019607844
21.792999 -25.919489 -1.9703763 0.015686275
35.094055 -34.324276 2.8570499 0.1882353
33.474888 -36.102783 2.0046914 0.13333334
20.019667 -19.561543 -1.3022577 0.11372549
11.224002 -12.072696 -0.86225408 0.019607844
35.130013 -34.359489 6.0297065 0.019607844
33.489197 -36.118233 4.0185304 0.20392157
26.402018 -23.401997 -1.4359223 0.094117649
22.957434 -27.307287 -1.2447199 0.015686275
33.516109 -36.147285 8.9821777 0.039215688
20.210194 -19.748131 -0.65670902 0.074509807
3.3338635 -3.5753622 -2.2652252 0.086274512
36.629421 -32.700413 -0.85639912 0.054901961
24.105875 -26.158081 -1.0342698 0.011764706
5.7809486 -5.6545749 -2.2547133 0.10980392
7.6182623 -8.2332354 -2.2372842 0.019607844
34.993664 -34.453743 9.8573721e-05 0.043137256
31.69311 -37.973656 -0.57538331 0.023529412
9.8345833 -9.6508255 -2.1386299 0.015686275
7.1423106 -7.7157922 -1.3343819 0.062745102
36.631393 -32.702168 0.28529745 0.019607844
33.346851 -36.204597 -0.28579772 0.023529412
9.7056131 -9.5236816 -1.461206 0
7.1770091 -8.5573244 -1.0398356 0.043137256
35.004139 -34.464069 1.1424118 0.019607844
31.718718 -38.004379 0.5760597 0.015686275
7.7777205 -8.4065905 -0.93241435 0.062745102
36.616528 -32.688877 1.4276259 0.043137256
33.350468 -36.208523 0.85883015 0.031372551
23.991632 -21.404266 -2.0583479 0.019607844
21.714602 -26.000664 -1.9710739 0.015686275
34.988575 -34.448719 2.8577478 0.16470589
33.360397 -36.219318 2.005017 0.18039216
19.963228 -19.636086 -1.3028158 0.054901961
11.173093 -12.09794 -0.86141682 0.019607844
35.007401 -34.467278 6.028244 0.019607844
33.377342 -36.237736 4.0195074 0.20392157
26.422607 -23.577168 -1.4412951 0.015686275
22.82325 -27.330908 -1.2423466 0.015686275
33.388069 -36.24939 8.9800253 0.039215688
20.14175 -19.81208 -0.65661585 0.05882353
3.3305144 -3.5981002 -2.2719872 0.06666667
36.518234 -32.842304 -0.85660827 0.054901961
23.953215 -26.184082 -1.031826 0.011764706
5.7574511 -5.6728458 -2.2536352 0.10196079
7.6039023 -8.2783155 -2.2419908 0.023529412
34.867146 -34.581608 9.8817291e-05 0.043137256
31.574104 -38.114048 -0.57575554 0.023529412
8.3884964 -8.2857313 -1.829334 0.015686275
7.1032786 -7.7300301 -1.3323616 0.070588239
36.49345 -32.819988 0.28515819 0.019607844
33.224716 -36.338226 -0.28589046 0.023529412
8.8212547 -8.7154999 -1.3322635 0.0039215689
7.1557498 -8.5956812 -1.0413226 0.047058824
34.883255 -34.597603 1.1425984 0.019607844
31.594503 -38.13871 0.57633936 0.015686275
12.383971 -12.253626 -1.2159606 0.015686275
7.7468553 -8.4348745 -0.93241429 0.082352944
36.487553 -32.814671 1.427277 0.043137256
33.233704 -36.348068 0.85924929 0.031372551
23.907087 -21.486549 -2.0578361 0.019607844
21.629335 -26.092216 -1.9720038 0.015686275
34.867744 -34.582191 2.8582132 0.16470589
33.238197 -36.352989 2.0056686 0.18039216
19.899628 -19.717405 -1.3033741 0.043137256
11.128675 -12.138645 -0.86141676 0.019607844
34.900551 -34.614773 6.0316567 0.019607844
33.252357 -36.368496 4.0204835 0.20392157
32.359257 -29.09734 -1.7714964 0.035294119
22.738205 -27.43269 -1.243184 0.015686275
33.254978 -36.371357 8.9800262 0.039215688
20.068996 -19.885607 -0.65661573 0.050980393
3.3118868 -3.6003494 -2.2669158 0.086274512
36.385242 -32.929874 -0.85591006 0.054901961
33.11845 -36.451172 -1.4323153 0.023529412
5.7396016 -5.690764 -2.2536352 0.086274512
7.5752225 -8.2991161 -2.2412064 0.023529412
34.76965 -34.702145 9.9057732e-05 0.043137256
31.469454 -38.231457 -0.57603467 0.023529412
7.8200588 -7.7698827 -1.710043 0.0039215689
7.0736275 -7.7462893 -1.3313515 0.054901961
36.384239 -32.928955 0.28511187 0.019607844
33.113079 -36.445251 -0.2859135 0.023529412
7.1362982 -8.6272078 -1.0424379 0.047058824
34.777225 -34.709713 1.1426915 0.019607844
31.48723 -38.253086 0.57657236 0.015686275
11.936162 -11.883339 -1.1755031 0.019607844
7.7122822 -8.4501715 -0.93143785 0.070588239
36.387249 -32.931683 1.4273936 0.043137256
33.127415 -36.461044 0.85945892 0.031372551
23.750725 -21.480995 -2.0501611 0.019607844
21.542191 -26.15373 -1.9715387 0.015686275
34.767403 -34.69989 2.858911 0.16470589
33.129196 -36.463009 2.0059943 0.18039216
19.840412 -19.782509 -1.30356 0.054901961
11.09317 -12.176363 -0.86162597 0.023529412
34.786022 -34.718498 6.0306821 0.019607844
33.148655 -36.484451 4.0217857 0.20392157
32.312111 -29.23897 -1.7739387 0.035294119
29.59943 -35.956348 -1.6252398 0.031372551
33.151131 -36.487164 8.9828959 0.039215688
20.012085 -19.954069 -0.6568017 0.062745102
3.309006 -3.6225038 -2.2736776 0.05882353
36.28484 -33.069996 -0.85625875 0.054901961
32.999039 -36.57531 -1.4326643 0.023529412
5.7115569 -5.7024088 -2.2504003 0.086274512
7.5488329 -8.3282642 -2.2419908 0.023529412
34.648304 -34.823143 9.9287412e-05 0.043137256
31.350983 -38.359505 -0.57631379 0.023529412
7.717669 -7.7212758 -1.6934407 0.0078431377
7.0438895 -7.7678285 -1.3308464 0.050980393
36.277935 -33.06369 0.28518188 0.019607844
32.996368 -36.572342 -0.28600624 0.023529412
8.1773825 -8.1839113 -1.2427319 0.023529412
7.1061406 -8.651907 -1.0424379 0.050980393
34.658672 -34.833572 1.1427848 0.019607844
31.35857 -38.368801 0.57666576 0.015686275
11.613351 -11.641727 -1.1476012 0.027450981
7.688076 -8.4828072 -0.93208867 0.074509807
36.272072 -33.058338 1.4273938 0.043137256
33.007973 -36.585217 0.85966861 0.031372551
21.43309 -26.206953 -1.9699106 0.015686275
34.646065 -34.820881 2.8589113 0.16470589
33.007072 -36.584217 2.0063205 0.18039216
11.053273 -12.217821 -0.86183524 0.027450981
34.653427 -34.828285 6.0287323 0.019607844
33.029106 -36.608669 4.0227623 0.16862746
26.210903 -23.877165 -1.4430858 0.015686275
29.410551 -35.981865 -1.62175 0.031372551
33.018295 -36.596657 8.9814606 0.039215688
19.950766 -20.032154 -0.65708071 0.05882353
3.3005407 -3.6398463 -2.2770586 0.039215688
36.154568 -33.194485 -0.85604918 0.054901961
32.867428 -36.698826 -1.4327804 0.023529412
5.6906195 -5.7231388 -2.2504003 0.10196079
7.5234885 -8.3615589 -2.2435596 0.023529412
34.517632 -34.946888 9.9519057e-05 0.043137256
31.232838 -38.501961 -0.57673258 0.023529412
7.5866199 -7.6452322 -1.6706892 0.0039215689
7.0127268 -7.7904701 -1.3303412 0.050980393
36.15062 -33.190853 0.28513566 0.019607844
32.878105 -36.710758 -0.28614545 0.023529412
7.9630036 -8.0267954 -1.2144588 0.015686275
7.076889 -8.6808233 -1.0428095 0.047058824
34.530773 -34.960205 1.1427851 0.019607844
31.217731 -38.483315 0.57666594 0.015686275
11.427692 -11.539168 -1.1333712 0.039215688
7.6516185 -8.5048189 -0.93143779 0.070588239
36.162441 -33.201721 1.4278597 0.043137256
32.892323 -36.726654 0.86015755 0.031372551
23.402449 -21.471775 -2.0332768 0.019607844
21.339405 -26.288267 -1.970143 0.015686275
34.526623 -34.955994 2.8596091 0.16470589
32.891411 -36.725632 2.0074606 0.18039216
12.18952 -12.311481 -0.80551267 0.019607844
11.013743 -12.264039 -0.86225379 0.027450981
34.559006 -34.988815 6.0345826 0.019607844
32.905338 -36.741199 4.0240645 0.16862746
21.668501 -19.8778 -1.1965742 0.0078431377
29.338861 -36.163803 -1.6250999 0.031372551
32.92067 -36.758327 8.9915056 0.039215688
19.882828 -20.110668 -0.65726662 0.070588239
3.290319 -3.6511934 -2.2770579 0.050980393
36.043865 -33.323097 -0.85611331 0.054901961
32.781406 -36.858067 -1.4345198 0.023529412
5.6784983 -5.748323 -2.2525556 0.12941177
7.4993558 -8.3905554 -2.2443428 0.023529412
34.409088 -35.078495 0.00010531924 0.043137256
31.110723 -38.623104 -0.5769127 0.023529412
7.4683475 -7.5755234 -1.6497813 0
6.990623 -7.8177223 -1.3308452 0.05882353
36.034061 -33.314022 0.28511795 0.019607844
32.752216 -36.825195 -0.28613952 0.023529412
7.8205495 -7.9350748 -1.1964656 0.023529412
7.0590243 -8.717741 -1.0442953 0.047058824
34.41378 -35.083279 1.1428839 0.019607844
31.108219 -38.619987 0.57709122 0.015686275
11.356329 -11.544642 -1.1300211 0.019607844
7.6217337 -8.5283499 -0.93111092 0.074509807
36.037048 -33.31678 1.4273996 0.043137256
32.776997 -36.853096 0.86044276 0.031372551
20.965881 -19.364807 -1.8268248 0.0078431377
21.259993 -26.37492 -1.9710692 0.015686275
34.409649 -35.079056 2.8598478 0.16470589
32.781391 -36.858044 2.0084436 0.18039216
11.90291 -12.102632 -0.78913248 0.023529412
10.986621 -12.317203 -0.86329854 0.027450981
34.416889 -35.086445 6.0306883 0.019607844
32.784634 -36.861691 4.0247216 0.16862746
20.909302 -19.312429 -1.1581453 0.0078431377
22.440458 -27.842686 -1.2476462 0.015686275
32.797222 -36.875854 8.9922295 0.039215688
19.831776 -20.196964 -0.6578216 0.05882353
3.2895432 -3.6760852 -2.2855103 0.054901961
22.426762 -20.862741 -0.53398061 0.019607844
32.647259 -36.96611 -1.4342868 0.023529412
5.6557131 -5.7651834 -2.2514775 0.13333334
7.4726167 -8.4194593 -2.2451272 0.023529412
34.292007 -35.20396 0.00010557521 0.043137256
30.99069 -38.750061 -0.57719183 0.023529412
7.3867397 -7.5447178 -1.6374834 0
6.9632912 -7.8419104 -1.3308451 0.15686275
35.917553 -33.439438 0.28511822 0.019607844
32.641991 -36.960133 -0.286302 0.023529412
7.687427 -7.8538303 -1.1801871 0.019607844
7.0360065 -8.7514992 -1.0454106 0.050980393
34.296684 -35.208763 1.1430703 0.019607844
30.988194 -38.746933 0.57737082 0.015686275
8.6310558 -8.8239031 -0.86076945 0.023529412
7.5892801 -8.5517464 -0.93078548 0.070588239
35.917599 -33.43948 1.4272835 0.043137256
32.664028 -36.985119 0.8608619 0.031372551
21.135403 -26.408237 -1.9680458 0.015686275
34.298122 -35.210239 2.8607783 0.16470589
32.665749 -36.987072 2.009258 0.18039216
11.788154 -12.069474 -0.78429341 0.023529412
10.954127 -12.367298 -0.8641358 0.027450981
34.310814 -35.223278 6.0336142 0.019607844
32.666309 -36.987705 4.0260239 0.16862746
32.696934 -37.022419 9.0001221 0.039215688
19.777884 -20.2831 -0.65837973 0.062745102
3.2749462 -3.684088 -2.2838197 0.054901961
32.535034 -37.086037 -1.4347521 0.023529412
5.6419172 -5.7892885 -2.253634 0.11764706
7.4498248 -8.449934 -2.246696 0.023529412
34.177856 -35.320198 0.00010580939 0.043137256
30.876934 -38.871262 -0.57747096 0.023529412
7.3397083 -7.5462756 -1.6325641 0.0039215689
6.9346342 -7.861815 -1.33034 0.070588239
35.806473 -33.558201 0.28511846 0.019607844
32.529793 -37.080048 -0.28639475 0.023529412
7.5839615 -7.7990441 -1.1681925 0.031372551
7.0143723 -8.783987 -1.0465258 0.050980393
34.19363 -35.336517 1.1435357 0.019607844
30.874451 -38.86813 0.57765055 0.015686275
8.4215174 -8.665803 -0.84263337 0.027450981
7.5661349 -8.5827055 -0.93143636 0.070588239
35.806519 -33.558243 1.4272838 0.043137256
32.546478 -37.099091 0.86100173 0.031372551
20.423164 -19.121582 -1.7907537 0.043137256
34.181175 -35.323624 2.8607786 0.16470589
32.553452 -37.107056 2.0099094 0.18039216
11.717524 -12.076733 -0.78224599 0.023529412
10.928849 -12.421424 -0.86539179 0.027450981
34.207615 -35.350983 6.0360513 0.019607844
32.559238 -37.113663 4.027977 0.16862746
22.282713 -28.035181 -1.2494603 0.015686275
32.605095 -37.166 9.0087318 0.039215688
19.727188 -20.365673 -0.65893787 0.047058824
3.2644463 -3.6980662 -2.2855103 0.06666667
20.749479 -19.564167 -0.49712524 0.019607844
32.410629 -37.205246 -1.4349846 0.023529412
5.6296759 -5.8171182 -2.2568688 0.11764706
7.4331555 -8.4905195 -2.2506185 0.023529412
34.059898 -35.444889 0.00010606295 0.043137256
30.760855 -39.003777 -0.57784325 0.023529412
7.2832198 -7.5403118 -1.6258 0.0078431377
6.9123573 -7.8917947 -1.3313501 0.047058824
35.694931 -33.688316 0.28516525 0.019607844
32.418537 -37.214333 -0.28655717 0.023529412
7.5346632 -7.8023458 -1.1647654 0.027450981
6.9910593 -8.8176374 -1.047641 0.043137256
34.072845 -35.458378 1.1436291 0.019607844
30.76333 -39.00692 0.57811642 0.015686275
8.2779446 -8.5769358 -0.83119357 0.043137256
7.5413623 -8.614913 -0.93208718 0.074509807
35.694973 -33.688354 1.4275168 0.043137256
32.424652 -37.221359 0.86121142 0.031372551
20.338886 -19.17614 -1.7892187 0.043137256
11.750249 -14.861508 -1.1015759 0.0039215689
34.060429 -35.445435 2.8610113 0.16470589
32.431599 -37.229347 2.0103981 0.18039216
11.653165 -12.094329 -0.78075701 0.027450981
10.901154 -12.477415 -0.86664772 0.027450981
34.081257 -35.46714 6.0355639 0.019607844
32.439957 -37.238953 4.0292788 0.20392157
20.430471 -19.262691 -1.1425141 0.05882353
28.919056 -36.66481 -1.6295605 0.031372551
32.464832 -37.267544 9.0058632 0.039215688
3.2538877 -3.7120154 -2.2872007 0.06666667
32.309311 -37.351276 -1.4362644 0.023529412
5.6146517 -5.8421445 -2.2590253 0.11764706
7.4009089 -8.513278 -2.2498338 0.023529412
33.958046 -35.586563 0.00010636791 0.043137256
30.624521 -39.110748 -0.57784301 0.023529412
7.2350435 -7.5426316 -1.6208808 0.0078431377
6.8847685 -7.9157081 -1.3313501 0.054901961
35.577122 -33.812542 0.28516552 0.019607844
32.30151 -37.342239 -0.28667316 0.023529412
7.4772043 -7.7967615 -1.1600531 0.023529412
6.9700499 -8.8543711 -1.0491282 0.039215688
33.946106 -35.574036 1.1435362 0.019607844
30.64669 -39.139107 0.57848918 0.015686275
8.206666 -8.5622807 -0.82700831 0.035294119
7.5112457 -8.6410179 -0.93208712 0.070588239
35.582958 -33.8181 1.4277499 0.043137256
32.302372 -37.343231 0.86142105 0.031372551
20.268936 -19.244101 -1.7889627 0.035294119
11.646654 -14.836205 -1.0966923 0.0039215689
33.942009 -35.569729 2.8614767 0.16470589
32.314507 -37.357281 2.0112126 0.18039216
11.59434 -12.117411 -0.7796402 0.027450981
10.881032 -12.54243 -0.86853158 0.027450981
33.968208 -35.597218 6.0375137 0.019607844
32.325409 -37.369904 4.0312319 0.20392157
20.316786 -19.28964 -1.1399089 0.27058825
28.790895 -36.765366 -1.6295604 0.031372551
32.329399 -37.374516 9.004427 0.039215688
33.943352 -35.571152 -1.1432306 0.019607844
3.2409108 -3.7231848 -2.2872005 0.062745102
20.465132 -19.567085 -0.49356508 0.070588239
32.181335 -37.466702 -1.4363804 0.023529412
5.5968719 -5.8643394 -2.2601037 0.11764706
7.3711467 -8.5388947 -2.2498336 0.023529412
33.833614 -35.70472 0.00010660155 0.043137256
30.514784 -39.251995 -0.5783549 0.023529412
7.197804 -7.5561914 -1.6184212 0.0078431377
6.8570952 -7.939527 -1.3313501 0.06666667
35.464649 -33.941895 0.28521228 0.019607844
32.17617 -37.460674 -0.28671941 0.023529412
7.4335418 -7.8053164 -1.1574829 0.019607844
6.953752 -8.8973579 -1.0513587 0.047058824
33.827221 -35.69796 1.1437227 0.019607844
30.512333 -39.24884 0.57853603 0.015686275
8.1630144 -8.5762177 -0.82561314 0.031372551
7.483633 -8.6700459 -0.93241256 0.05882353
35.464695 -33.941933 1.4277501 0.043137256
32.184837 -37.470776 0.86177039 0.031372551
20.192991 -19.30628 -1.788195 0.027450981
33.828609 -35.699425 2.862407 0.16470589
32.202122 -37.490925 2.0123527 0.13333334
11.53 -12.134425 -0.77815127 0.023529412
10.868392 -12.616557 -0.87104356 0.023529412
33.857384 -35.729824 6.0399518 0.019607844
32.199959 -37.4884 4.0318828 0.20392157
28.672188 -36.878109 -1.6301185 0.031372551
32.221802 -37.513859 9.0108852 0.039215688
33.82172 -35.692154 -1.1433233 0.019607844
3.2231941 -3.7287884 -2.2838194 0.047058824
20.399582 -19.641016 -0.49363476 0.070588239
32.060726 -37.590816 -1.4368457 0.023529412
5.57373 -5.880867 -2.2590251 0.13333334
7.354012 -8.5793362 -2.253756 0.023529412
33.695076 -35.807861 0.00010678981 0.043137256
30.392235 -39.377117 -0.57863402 0.023529412
7.1713843 -7.5811043 -1.6184212 0.0078431377
6.831913 -7.9662685 -1.3318549 0.043137256
35.340199 -34.059761 0.28516603 0.019607844
32.060776 -37.590866 -0.28685862 0.023529412
7.3926339 -7.8165588 -1.1553408 0.019607844
6.9323764 -8.9340296 -1.0528456 0.047058824
33.71336 -35.827312 1.1440951 0.019607844
30.401999 -39.38979 0.57904851 0.015686275
8.1275625 -8.5986776 -0.82505506 0.031372551
7.4559078 -8.6989841 -0.93273795 0.070588239
35.34024 -34.059803 1.4275175 0.043137256
32.061623 -37.591862 0.86198008 0.031372551
20.122602 -19.373713 -1.7879391 0.015686275
11.233237 -14.515115 -1.0671588 0.023529412
33.706528 -35.820038 2.8626399 0.16470589
32.076241 -37.609024 2.0126786 0.13333334
11.468421 -12.154049 -0.77684838 0.023529412
10.889032 -12.730279 -0.87627691 0.0078431377
33.735176 -35.850521 6.0404396 0.019607844
32.089581 -37.624683 4.0344872 0.20392157
20.181625 -19.430674 -1.1399086 0.4509804
21.891552 -28.346064 -1.2495995 0.015686275
2.8925138 -3.3404868 0.79999363 0
33.705139 -35.818573 -1.1436023 0.019607844
3.2031364 -3.7315452 -2.278748 0.054901961
20.325161 -19.706362 -0.49349502 0.070588239
31.944805 -37.720646 -1.4375435 0.023529412
5.5531683 -5.9001198 -2.2590251 0.11764706
7.3290858 -8.6107788 -2.2553251 0.023529412
33.578068 -35.933865 0.00010704719 0.043137256
30.286192 -39.524097 -0.57923907 0.023529412
6.816875 -8.0050507 -1.3343803 0.039215688
35.229694 -34.191109 0.285236 0.019607844
31.950026 -37.726814 -0.28704432 0.023529412
7.3571649 -7.8334265 -1.1540557 0.019607844
6.915669 -8.9769859 -1.0550762 0.039215688
33.596275 -35.953377 1.1443745 0.019607844
26.650381 -34.771805 0.5097937 0.011764706
8.0893326 -8.6180763 -0.82421798 0.027450981
7.428072 -8.7278337 -0.93306333 0.074509807
35.226871 -34.188362 1.4277506 0.043137256
31.950871 -37.72781 0.86253887 0.031372551
13.33905 -12.917014 -1.1877812 0.0039215689
11.019933 -14.341581 -1.051578 0.0078431377
33.586735 -35.943146 2.8631053 0.16470589
31.962828 -37.741955 2.0138187 0.13333334
11.4232 -12.190918 -0.77666223 0.027450981
22.840714 -26.954395 -1.849893 0.015686275
33.634205 -35.994015 6.0448275 0.019607844
31.970922 -37.751518 4.0361142 0.20392157
20.105076 -19.492477 -1.1394199 0.16470589
31.999779 -37.785633 9.0223656 0.039215688
33.585361 -35.941689 -1.1437881 0.019607844
3.1790864 -3.7281086 -2.2702959 0.050980393
20.262562 -19.776295 -0.49356467 0.05882353
31.832399 -37.841522 -1.438125 0.023529412
5.5335732 -5.9183445 -2.2590251 0.10588235
7.3080587 -8.6438866 -2.257678 0.023529412
33.472321 -36.059528 0.00010730961 0.043137256
30.164642 -39.636898 -0.5794251 0.023529412
7.1088691 -7.6178222 -1.6159613 0.011764706
6.7877393 -8.024416 -1.3338751 0.047058824
35.11898 -34.31039 0.28525952 0.019607844
31.829885 -37.838524 -0.2870906 0.023529412
7.3311486 -7.8576236 -1.1540556 0.023529412
6.9195957 -9.0441074 -1.060281 0.015686275
33.479584 -36.067368 1.1444677 0.019607844
30.169477 -39.643261 0.5797475 0.015686275
8.0579967 -8.6417694 -0.82393885 0.031372551
7.4067802 -8.7614183 -0.93403959 0.074509807
35.113308 -34.304836 1.4277508 0.043137256
31.841015 -37.851772 0.86295795 0.031372551
13.253343 -12.919147 -1.183944 0.0078431377
10.779044 -14.123526 -1.0329744 0.023529412
33.475502 -36.062954 2.8638029 0.16470589
31.842634 -37.853703 2.0141447 0.18039216
11.366414 -12.210993 -0.77554542 0.023529412
22.710094 -26.98089 -1.8465433 0.015686275
33.538952 -36.131401 6.0492144 0.019607844
31.863504 -37.878544 4.038393 0.16862746
20.051758 -19.570066 -1.1400712 0.12156863
11.160707 -14.625833 -0.64141142 0.027450981
31.871767 -37.888371 9.0216475 0.039215688
33.471432 -36.058575 -1.1439741 0.019607844
3.1590886 -3.7306645 -2.2652245 0.054901961
20.190557 -19.843927 -0.49349472 0.070588239
31.71036 -37.964523 -1.4385902 0.023529412
5.510272 -5.9346237 -2.257947 0.098039217
7.2803545 -8.6721897 -2.2584627 0.023529412
33.351665 -36.18187 0.0001075558 0.043137256
30.050184 -39.773708 -0.57989043 0.023529412
7.0849118 -7.6453319 -1.6165763 0.023529412
6.7622304 -8.0509415 -1.3343803 0.050980393
34.999001 -34.432598 0.28525975 0.019607844
31.707861 -37.961521 -0.28718334 0.023529412
7.2982888 -7.8771462 -1.1531988 0.023529412
33.369732 -36.2015 1.1450264 0.019607844
30.052595 -39.776905 0.58016688 0.015686275
8.0142717 -8.6549988 -0.82254374 0.031372551
7.3838143 -8.7962379 -0.93501592 0.078431375
35.004738 -34.438244 1.4282165 0.043137256
31.736874 -37.996307 0.86372614 0.031372551
10.590201 -13.975996 -1.0194865 0.019607844
33.354828 -36.185299 2.8642685 0.16470589
31.72567 -37.982876 2.0151219 0.18039216
11.318306 -12.244545 -0.77517301 0.027450981
22.54414 -26.97394 -1.8406818 0.015686275
31.741306 -38.001614 4.0396948 0.16862746
19.974781 -19.631355 -1.1395825 0.12156863
10.926626 -14.421987 -0.63080251 0.027450981
8.5570669 -9.2446918 3.3667448 0
31.751923 -38.014336 9.0252352 0.039215688
33.361607 -36.19268 -1.1445321 0.019607844
3.1529834 -3.7498784 -2.2702956 0.062745102
20.135365 -19.9282 -0.49384359 0.05882353
31.595495 -38.096367 -1.4394045 0.023529412
5.4843259 -5.9479685 -2.2557902 0.098039217
7.2600451 -8.7094669 -2.2616005 0.023529412
33.238659 -36.312664 0.00010782739 0.043137256
29.915964 -39.884594 -0.57998335 0.023529412
6.7391472 -8.0804424 -1.3353902 0.043137256
34.884277 -34.56002 0.28530651 0.019607844
31.587912 -38.087208 -0.28729936 0.023529412
7.2653823 -7.8965359 -1.152342 0.023529412
10.27729 -13.660095 -1.5930229 0.0039215689
33.253956 -36.329399 1.1453989 0.019607844
29.930349 -39.903805 0.58049303 0.015686275
7.9867043 -8.6856995 -0.82282269 0.023529412
7.350522 -8.8187208 -0.93469048 0.074509807
34.88715 -34.56287 1.4283332 0.043137256
31.604048 -38.106686 0.86372638 0.031372551
12.601724 -12.45437 -1.1332911 0.011764706
10.395343 -13.817735 -1.0053011 0.031372551
33.24448 -36.319023 2.865664 0.16470589
31.610731 -38.114761 2.0162621 0.13333334
11.28089 -12.289712 -0.7755453 0.023529412
22.432011 -27.030764 -1.8392164 0.050980393
33.267143 -36.343819 6.0458026 0.019607844
31.618631 -38.124294 4.040997 0.16862746
19.91181 -19.706423 -1.1399081 0.12156863
10.69171 -14.21349 -0.62005419 0.027450981
31.646641 -38.158112 9.0331278 0.039215688
33.245865 -36.320549 -1.1449039 0.019607844
3.1392186 -3.761235 -2.2702956 0.086274512
20.065016 -20.00452 -0.49391323 0.10196079
31.460728 -38.217918 -1.4396369 0.023529412
5.4573116 -5.9621496 -2.2536337 0.090196081
7.2330561 -8.7419033 -2.2631693 0.023529412
33.116093 -36.445919 0.0001081002 0.043137256
29.793434 -40.025902 -0.58044875 0.023529412
7.0273676 -7.692565 -1.6159612 0.070588239
6.7094855 -8.1049137 -1.3353902 0.027450981
34.757374 -34.687473 0.28530678 0.019607844
31.465879 -38.224182 -0.28746179 0.023529412
7.2310472 -7.9170475 -1.1514852 0.023529412
10.210526 -13.67512 -1.5904206 0.0039215689
33.139385 -36.471592 1.1460505 0.019607844
7.9494534 -8.7088289 -0.82226455 0.031372551
7.3232131 -8.8515882 -0.93534124 0.074509807
34.760239 -34.690331 1.4283334 0.043137256
31.479404 -38.240631 0.86414552 0.031372551
12.14658 -12.09115 -1.0961969 0.011764706
10.206477 -13.669673 -0.99181336 0.031372551
33.121868 -36.452282 2.8665943 0.16470589
31.491123 -38.25489 2.0175648 0.13333334
11.230399 -12.324883 -0.77517289 0.023529412
22.307423 -27.081764 -1.8371227 0.070588239
33.160389 -36.494732 6.0506778 0.019607844
31.491344 -38.255154 4.0426245 0.16862746
19.847929 -19.787571 -1.1403962 0.11372549
10.494089 -14.056684 -0.61153919 0.027450981
5.7272968 -6.9099503 1.6308407 0
33.117893 -36.447906 -1.1450897 0.019607844
3.1262863 -3.7692006 -2.2686045 0.10196079
20.014463 -20.091326 -0.49432874 0.050980393
31.349817 -38.352173 -1.4405618 0.023529412
5.433815 -5.9752822 -2.251476 0.082352944
7.2099586 -8.7730217 -2.2647367 0.023529412
32.999165 -36.570091 0.00011405985 0.043137256
21.079149 -28.503952 -0.41228771 0.011764706
7.008266 -7.7227654 -1.6171899 0.086274512
6.6886744 -8.1342783 -1.3363992 0.031372551
34.641365 -34.811314 0.28533581 0.019607844
31.352427 -38.355362 -0.28761834 0.023529412
7.2085314 -7.9450393 -1.1519123 0.023529412
9.9855242 -13.466956 -1.5621642 0.0039215689
33.017014 -36.589901 1.1461495 0.019607844
7.9188352 -8.7334051 -0.82198417 0.027450981
7.2998133 -8.8831205 -0.93599081 0.070588239
34.652672 -34.822693 1.4288046 0.043137256
31.363359 -38.368755 0.86457056 0.031372551
11.800104 -11.824688 -1.0683104 0.015686275
10.061623 -13.570104 -0.98204422 0.015686275
33.010254 -36.58239 2.8677635 0.16470589
31.372492 -38.379948 2.0183852 0.13333334
11.197827 -12.372765 -0.7757293 0.027450981
22.227858 -27.174812 -1.8381652 0.070588239
33.05386 -36.630787 6.0540967 0.019607844
31.375202 -38.383263 4.0445838 0.20392157
19.79249 -19.867939 -1.1410444 0.14117648
10.302683 -13.896852 -0.6030221 0.035294119
31.41256 -38.429028 9.0438957 0.039215688
33.000954 -36.572083 -1.1453631 0.019607844
3.118336 -3.785013 -2.2719858 0.10196079
19.958967 -20.168804 -0.49460781 0.039215688
31.235054 -38.471283 -1.4411433 0.023529412
5.4191079 -5.9988427 -2.2536328 0.10588235
7.1857667 -8.8028097 -2.2663057 0.023529412
29.574755 -40.298473 -0.58146644 0.023529412
6.9852533 -7.7487431 -1.6178048 0.10196079
6.6641612 -8.1593285 -1.3369042 0.019607844
34.534161 -34.934368 0.28540581 0.019607844
31.235134 -38.471378 -0.28771105 0.023529412
7.1768398 -7.9628067 -1.1510556 0.023529412
9.7478018 -13.236387 -1.5316793 0.0039215689
32.900829 -36.704983 1.1463358 0.019607844
20.993967 -28.586432 0.4126462 0.32549021
7.8871689 -8.7564783 -0.8217051 0.027450981
7.2753363 -8.9133062 -0.93664163 0.070588239
34.539806 -34.940086 1.4289211 0.043137256
31.246023 -38.48481 0.86485004 0.031372551
11.564528 -11.664723 -1.0504029 0.023529412
9.8702459 -13.403513 -0.96762633 0.035294119
32.894081 -36.697441 2.8682287 0.16470589
31.255112 -38.496021 2.0190368 0.13333334
11.162066 -12.41562 -0.77610147 0.023529412
22.155228 -27.269928 -1.8396305 0.050980393
32.932205 -36.740036 6.0540967 0.019607844
31.257786 -38.499313 4.0458856 0.16862746
19.729301 -19.936142 -1.1412071 0.05882353
10.13605 -13.766312 -0.5959031 0.035294119
31.279995 -38.526703 9.0424614 0.039215688
23.374737 -26.061203 -0.81375694 0.011764706
3.0998969 -3.7905836 -2.2686045 0.10588235
19.898905 -20.255922 -0.49495667 0.062745102
31.108871 -38.604015 -1.4418412 0.023529412
5.4022021 -6.0242395 -2.255789 0.1254902
7.1559119 -8.8319597 -2.2670901 0.023529412
29.443317 -40.42907 -0.58179212 0.023529412
6.9594316 -7.7770643 -1.6184196 0.10588235
6.6416731 -8.192791 -1.3384192 0.015686275
34.411488 -35.066238 0.28545257 0.019607844
31.111469 -38.607239 -0.28787354 0.023529412
7.1476068 -7.9888735 -1.1510556 0.023529412
9.603199 -13.139768 -1.5164367 0.0039215689
32.789978 -36.852043 1.1471736 0.019607844
7.8576727 -8.788126 -0.82198405 0.027450981
7.2501144 -8.9490461 -0.93761796 0.06666667
34.414314 -35.069122 1.4290378 0.043137256
31.112274 -38.608234 0.86505967 0.031372551
11.398769 -11.581397 -1.0391467 0.031372551
9.7200813 -13.300533 -0.9576267 0.023529412
32.775272 -36.835484 2.8696244 0.16470589
31.121319 -38.61948 2.0195255 0.18039216
11.135062 -12.477172 -0.77740413 0.023529412
22.072655 -27.372551 -1.8410956 0.015686275
32.802597 -36.866238 6.0550718 0.019607844
31.136456 -38.638287 4.0484896 0.20392157
9.9891462 -13.670623 -0.59017986 0.039215688
31.153372 -38.659306 9.0467663 0.039215688
32.771389 -36.831123 -1.146293 0.019607844
3.0895739 -3.803508 -2.2702949 0.10588235
19.851152 -20.34169 -0.49544513 0.086274512
30.998161 -38.728657 -1.4426554 0.023529412
5.3796473 -6.0390658 -2.2547107 0.10196079
7.1314831 -8.8616028 -2.2686591 0.023529412
23.195852 -26.227499 8.1111626e-05 0.43529412
29.332506 -40.558743 -0.58225751 0.035294119
6.9257593 -7.7910414 -1.6165749 0.11372549
6.6119924 -8.211503 -1.3379142 0.015686275
34.303383 -35.188591 0.28552258 0.019607844
30.995762 -38.725651 -0.2879895 0.023529412
7.1210761 -8.0123653 -1.1510555 0.023529412
9.4803114 -13.061585 -1.5037967 0.0039215689
32.675537 -36.969402 1.1474531 0.019607844
7.8284883 -8.8139668 -0.82198399 0.031372551
7.2228894 -8.9759874 -0.9379434 0.06666667
34.306198 -35.191479 1.4293873 0.043137256
31.011545 -38.745399 0.86582792 0.031372551
11.34081 -11.598943 -1.0373559 0.035294119
9.587101 -13.209497 -0.94879001 0.0039215689
32.6688 -36.961765 2.8710198 0.16470589
31.005562 -38.737911 2.02034 0.18039216
11.112133 -12.534833 -0.77870691 0.023529412
22.029146 -27.504719 -1.8450727 0.015686275
32.688053 -36.983578 6.0565343 0.019607844
31.020605 -38.756729 4.050117 0.20392157
9.845479 -13.567376 -0.58431715 0.039215688
31.025007 -38.76223 9.0467663 0.039215688
32.662308 -36.954418 -1.1467581 0.019607844
3.0762787 -3.8140938 -2.2702949 0.086274512
19.824501 -20.456694 -0.4965618 0.050980393
30.882666 -38.861507 -1.4435861 0.023529412
5.3636117 -6.0634265 -2.2568674 0.10196079
7.1029453 -8.8893385 -2.2694433 0.023529412
18.391493 -25.592165 -0.36647767 0.0078431377
6.9089408 -7.8268852 -1.6190344 0.10196079
6.5906878 -8.2436838 -1.3394295 0.019607844
34.185905 -35.313694 0.28556934 0.019607844
30.875311 -38.852234 -0.2881287 0.023529412
7.0930648 -8.0369987 -1.1510555 0.023529412
9.3488216 -12.974648 -1.4900414 0.0039215689
32.551559 -37.089077 1.1476394 0.019607844
29.216381 -40.696468 0.58301532 0.023529412
7.7950439 -8.8380642 -0.82170492 0.035294119
7.2039032 -9.0165854 -0.93957055 0.062745102
34.191486 -35.319462 1.4297365 0.043137256
30.878595 -38.856369 0.86589795 0.031372551
8.6729345 -8.9202967 -0.79509318 0.0078431377
32.547474 -37.084412 2.8717179 0.16470589
30.887541 -38.867645 2.0214798 0.18039216
11.094645 -12.603421 -0.780568 0.023529412
11.728983 -14.720035 -0.98470926 0.0039215689
32.569221 -37.109226 6.0584846 0.019607844
30.904955 -38.889584 4.052721 0.20392157
9.6886139 -13.44877 -0.57775646 0.039215688
30.916418 -38.904026 9.0546589 0.039215688
32.548923 -37.086075 -1.147316 0.019607844
3.0607033 -3.8217859 -2.2686043 0.098039217
30.759195 -38.984604 -1.4441676 0.023529412
5.3474712 -6.087749 -2.2590239 0.10196079
7.0718727 -8.9139042 -2.2694433 0.023529412
17.982082 -25.20627 -0.36005303 0.0078431377
6.8841729 -7.8537607 -1.6196493 0.10196079
6.5618715 -8.2664642 -1.3394294 0.023529412
34.06797 -35.438412 0.2856161 0.019607844
30.751879 -38.975311 -0.28824469 0.023529412
7.0649676 -8.0615339 -1.1510553 0.023529412
32.437645 -37.220406 1.1481979 0.019607844
29.076462 -40.801292 0.58306205 0.023529412
7.7667656 -8.8680553 -0.82198387 0.035294119
7.1797862 -9.0508976 -0.94054687 0.070588239
34.065224 -35.435547 1.4296205 0.043137256
30.765043 -38.99202 0.86652654 0.031372551
8.6030436 -8.9100266 -0.79151165 0.0078431377
9.3627033 -13.090285 -0.93553472 0.078431375
32.42569 -37.206661 2.8724158 0.16470589
30.76899 -38.997032 2.0226202 0.18039216
11.079436 -12.675056 -0.78261524 0.023529412
32.473366 -37.261452 6.0648227 0.019607844
30.786283 -39.018978 4.0549994 0.20392157
19.543137 -20.306995 -1.1467423 0.19215687
9.5373297 -13.335751 -0.57147491 0.039215688
30.821825 -39.064095 9.0668564 0.039215688
32.421898 -37.202312 -1.1474088 0.019607844
3.0473447 -3.8322709 -2.2686043 0.086274512
33.94223 -35.555023 -0.85728997 0.054901961
30.640171 -39.113605 -1.4449819 0.023529412
5.3312249 -6.1120319 -2.2611806 0.13333334
7.045548 -8.9445391 -2.2710123 0.023529412
32.305794 -37.331238 0.00011570387 0.043137256
17.840921 -25.193565 -0.35898221 0.019607844
6.8567157 -7.8775673 -1.6196493 0.10980392
6.5403109 -8.298521 -1.3409445 0.019607844
33.957859 -35.571415 0.28573263 0.019607844
30.647678 -39.123199 -0.28854659 0.023529412
7.0367846 -8.0859709 -1.1510553 0.027450981
9.2350407 -13.006714 -1.4863235 0.10196079
32.310139 -37.336262 1.1482912 0.019607844
28.973083 -40.957905 0.58385402 0.023529412
7.7383723 -8.8979568 -0.82226282 0.035294119
7.1628866 -9.0945711 -0.94249946 0.070588239
33.957874 -35.571426 1.4303188 0.043137256
30.648462 -39.124199 0.86708534 0.031372551
8.5443468 -8.9109325 -0.7889533 0.0078431377
9.3146496 -13.11945 -0.93530208 0.023529412
32.30867 -37.334557 2.873579 0.16470589
30.644989 -39.119762 2.0234346 0.18039216
11.056023 -12.737664 -0.78410405 0.023529412
11.662848 -14.848408 -0.98784918 0.019607844
32.324932 -37.353374 6.0614104 0.019607844
30.664633 -39.144867 4.0569525 0.16862746
19.549345 -20.455917 -1.1513011 0.035294119
30.668312 -39.149563 9.0618343 0.039215688
32.304909 -37.330212 -1.1478739 0.019607844
3.0406196 -3.8513007 -2.2736759 0.078431375
33.845406 -35.702156 -0.8579877 0.054901961
30.515715 -39.235943 -1.4455636 0.023529412
5.3098583 -6.1304288 -2.2611804 0.11372549
7.052772 -9.0184727 -2.2835636 0.023529412
32.19352 -37.464855 0.00011599769 0.043137256
6.8343239 -7.9072785 -1.6208791 0.10980392
6.5259042 -8.3399305 -1.3439748 0.015686275
33.833485 -35.689556 0.28573287 0.043137256
30.513376 -39.232929 -0.28856963 0.023529412
7.0085168 -8.1103096 -1.1510553 0.023529412
9.2055845 -13.061526 -1.4889258 0.13333334
32.197842 -37.469887 1.1489429 0.019607844
7.681283 -8.8944559 -0.81947261 0.015686275
7.1457672 -9.138238 -0.94445211 0.054901961
33.838997 -35.695377 1.4305519 0.043137256
30.53133 -39.256046 0.86764413 0.031372551
8.4912376 -8.9173374 -0.78690678 0.011764706
9.2665071 -13.14844 -0.9350695 0.0039215689
32.188553 -37.459057 2.8745096 0.16470589
30.535213 -39.261051 2.0252259 0.18039216
11.058325 -12.83059 -0.78745407 0.019607844
32.202103 -37.474846 6.0628724 0.019607844
30.54492 -39.273544 4.0592313 0.20392157
9.3774557 -13.306727 -0.56742668 0.15294118
30.558012 -39.290398 9.069726 0.039215688
32.187428 -37.457756 -1.1483389 0.019607844
3.030046 -3.8640666 -2.2753663 0.06666667
33.729565 -35.81694 -0.85805726 0.054901961
30.412294 -39.371578 -1.4468431 0.023529412
5.2870016 -6.1449051 -2.260102 0.10980392
7.0300121 -9.0509615 -2.2859168 0.023529412
32.084671 -37.589504 0.00011626952 0.043137256
17.216616 -24.664074 -0.34976423 0.0078431377
6.8080654 -7.9297318 -1.6208791 0.10980392
6.5054827 -8.3707848 -1.3454899 0.011764706
33.723167 -35.810135 0.2858029 0.019607844
30.407536 -39.365406 -0.28880179 0.023529412
6.9841638 -8.1363668 -1.1514837 0.027450981
32.088974 -37.594547 1.1495014 0.019607844
17.488516 -25.054733 0.35545385 0.019607844
7.672452 -8.9440079 -0.82170475 0.031372551
7.1519442 -9.2090731 -0.94933379 0.023529412
33.72044 -35.807228 1.4305521 0.043137256
30.413195 -39.372738 0.86799335 0.031372551
8.4534168 -8.9365549 -0.78613919 0.011764706
9.2228546 -13.17893 -0.93506944 0.0039215689
32.074516 -37.577579 2.8754399 0.16470589
30.421936 -39.384075 2.026366 0.18039216
11.44198 -14.772112 -0.97759163 0.023529412
32.111134 -37.620541 6.0692101 0.019607844
30.426689 -39.390228 4.0608582 0.20392157
29.879248 -31.722246 -1.773924 0.035294119
9.3264284 -13.327742 -0.56700796 0.15686275
5.2120385 -6.6935244 1.5411563 0
32.081192 -37.585426 -1.1489899 0.019607844
3.0253546 -3.8859577 -2.2821281 0.050980393
33.620716 -35.951824 -0.8584758 0.054901961
30.306274 -39.518589 -1.4483556 0.023529412
5.2754726 -6.1749086 -2.2644153 0.13333334
7.0031447 -9.0814981 -2.2874856 0.023529412
