# .PCD v0.7 - Point Cloud Data file format
VERSION 0.7
FIELDS x y z intensity
SIZE 4 4 4 4
TYPE F F F F
COUNT 1 1 1 1
WIDTH 1132
HEIGHT 1
VIEWPOINT 0 0 0 1 0 0 0
POINTS 1132
DATA ascii
-7.3965883 8.8990717 -2.2988875 0.039215688
-2.6433201 2.7868664 0.00068201101 0
-109.50655 148.18608 -2.1501436 0.082352944
-10.202851 11.173565 -2.3413522 0.023529412
-12.337203 14.950171 -2.4575934 0.035294119
-8.4449615 8.3622866 0.068913311 0
-2.4405987 2.8290007 -0.020577969 0
-14.935851 16.424364 -2.3827579 0.031372551
-16.454651 22.116871 -2.5669079 0.0078431377
-109.36665 147.9962 2.1356928 0.062745102
-23.614544 26.052517 -2.453784 0.011764706
-19.732222 24.007322 -2.5311193 0.011764706
-10.065279 9.9921656 0.41052788 0
-26.096125 26.117964 -2.3615329 0.019607844
-28.33831 38.21719 -2.767611 0.031372551
-44.791412 49.546204 -3.1094055 0.039215688
-33.796665 41.232964 -2.7913492 0.047058824
-41.523964 41.637035 -2.3939481 0.074509807
-78.418556 86.85218 -2.7249503 0.10196079
-3.0182602 3.5619943 -2.141171 0.031372551
-5.343358 5.8232117 -2.189512 0.027450981
-7.3432307 8.8969736 -2.2918241 0.039215688
-10.166404 11.211616 -2.3419654 0.019607844
-12.29742 15.008114 -2.4601166 0.039215688
-14.896977 16.496698 -2.3857546 0.031372551
-16.391457 22.19301 -2.5691352 0.0078431377
-23.555374 26.170021 -2.4571292 0.011764706
-19.673389 24.106581 -2.5343707 0.011764706
-11.21009 11.221856 0.45933074 0
-26.105742 26.310722 -2.3707438 0.019607844
-28.28969 38.431393 -2.7759807 0.031372551
-44.905979 50.023338 -3.1295145 0.039215688
-3.9670477 4.7322249 -0.31906739 0
-41.535595 41.940556 -2.4030681 0.074509807
-56.002628 62.420647 -1.9520952 0.10196079
-3.0051634 3.572572 -2.1411703 0.035294119
-74.852539 76.246262 -1.8672433 0.24705882
-5.3219581 5.8422966 -2.1895108 0.027450981
-7.3007164 8.9111443 -2.2886839 0.047058824
-10.122597 11.245385 -2.3413477 0.019607844
-12.23236 15.040259 -2.4580925 0.047058824
-14.844317 16.559649 -2.3870366 0.031372551
-16.314667 22.258921 -2.5698743 0.0078431377
-23.459278 26.25572 -2.4571238 0.011764706
-19.612373 24.212231 -2.5379474 0.011764706
-26.037048 26.434271 -2.3732984 0.019607844
-28.324745 38.776592 -2.7934253 0.031372551
-6.6877279 7.3792863 0.57578057 0
-35.35664 39.646095 -2.4721036 0.023529412
-33.873821 41.936543 -2.8225474 0.047058824
-41.591377 42.306133 -2.4152844 0.074509807
-5.4865265 6.6561813 1.5595822 0
-55.587528 62.415775 -1.9455574 0.10196079
-2.9949164 3.5854344 -2.1428602 0.027450981
-86.604919 88.85704 -2.1687636 0.24705882
-5.3015108 5.8604007 -2.1895096 0.027450981
-7.2695441 8.9361372 -2.288682 0.047058824
-10.091103 11.289108 -2.3431909 0.019607844
-12.204529 15.113433 -2.4631419 0.035294119
-10.514603 10.669106 0.086781621 0
-73.182129 91.441002 -0.68388867 0.16862746
-14.807448 16.634787 -2.3904619 0.031372551
-16.232182 22.30884 -2.5691261 0.0078431377
-5.9542203 6.6000543 0.20547593 0
-23.362177 26.33103 -2.4565601 0.011764706
-19.540154 24.295685 -2.5395708 0.011764706
-73.182373 91.441124 2.0394325 0.10980392
-25.997486 26.578924 -2.3781571 0.019607844
-28.285006 39.007549 -2.8029585 0.031372551
-73.215424 91.4823 4.7671132 0.24705882
-3.4804423 3.7962124 -0.23556088 0
-2.0157452 2.3596342 -0.15796328 0
-41.646893 42.659721 -2.4271748 0.078431375
-32.25547 44.5084 -1.9182324 0.047058824
-4.7986784 5.2902155 1.8930361 0
-55.289917 62.519047 -1.942749 0.10196079
-2.9823632 3.595427 -2.1428595 0.023529412
-86.499886 89.371155 -2.1739247 0.24705882
-5.2759261 5.8726354 -2.1873515 0.027450981
-7.2358503 8.9579439 -2.2878954 0.050980393
-5.1788287 5.7616649 0.00052804698 0
-10.054223 11.326795 -2.3438036 0.019607844
-12.141817 15.143065 -2.461118 0.035294119
-4.3203611 4.3343248 0.035661917 0
-14.788587 16.730801 -2.3968871 0.039215688
-16.140276 22.345497 -2.5668902 0.0078431377
-23.285887 26.429985 -2.4582303 0.011764706
-19.479986 24.394533 -2.5428221 0.011764706
-6.7887721 6.8885427 0.27946857 0
-25.901762 26.666197 -2.3778961 0.019607844
-28.153309 39.112091 -2.8034163 0.031372551
-4.2711592 5.2200828 0.27234372 0
-33.932682 42.615528 -2.8522794 0.047058824
-41.633808 42.94521 -2.4351535 0.078431375
-31.976501 44.448048 -1.9108173 0.047058824
-4.6451073 5.6914568 1.3264537 0
-47.829948 54.445572 -1.6865891 0.054901961
-2.9569454 3.5877938 -2.1327152 0.019607844
-2.7820289 2.7608161 -0.066273376 0
-5.2589335 5.8925872 -2.1884291 0.027450981
-7.3541484 9.1694174 -2.3357556 0.023529412
-10.024374 11.3686 -2.3456471 0.019607844
-12.118527 15.217114 -2.4666727 0.031372551
-82.776039 104.90643 -0.78044295 0.16862746
-14.748672 16.797333 -2.3994551 0.047058824
-16.144575 22.508814 -2.5795312 0.0078431377
-2.4333975 2.6455963 0.08248771 0
-23.198101 26.506636 -2.4582255 0.011764706
-19.423641 24.489899 -2.5460737 0.011764706
-4.447166 5.4792519 0.12245867 0
-25.824236 26.763037 -2.3789153 0.019607844
-28.127617 39.351234 -2.8138802 0.031372551
-34.105099 43.125893 -2.8788774 0.047058824
-41.754108 43.35651 -2.4506302 0.14509805
-31.740854 44.429638 -1.905499 0.047058824
-47.517876 54.452625 -1.6819185 0.054901961
-2.935874 3.5888522 -2.1276672 0.019607844
-86.160324 90.221741 -2.1808422 0.24705882
-5.2342634 5.9070415 -2.1873813 0.027450981
-7.335443 9.2123652 -2.3405042 0.027450981
-78.44133 110.86044 -1.5845909 0.082352944
-9.9863243 11.404991 -2.3463094 0.019607844
-12.096697 15.298175 -2.4733 0.031372551
-3.9192584 4.845665 -0.035226822 0
-14.723523 16.885736 -2.4050903 0.039215688
-16.082443 22.585543 -2.582216 0.0078431377
-4.8227644 5.4308109 0.16773443 0
-78.469208 110.89966 1.5764737 0.062745102
-23.103762 26.581331 -2.4580395 0.011764706
-19.38295 24.611416 -2.552022 0.011764706
-7.2231498 7.4394345 0.29976854 0
-25.750912 26.869822 -2.3808014 0.019607844
-27.962618 39.403084 -2.8109875 0.031372551
-33.996681 43.290611 -2.8823733 0.047058824
-41.837162 43.739628 -2.4644673 0.14509805
-31.558687 44.493595 -1.9038299 0.047058824
-7.0876698 8.8953629 2.0609579 0
-47.433804 54.730133 -1.6857322 0.054901961
-2.9166381 3.5900578 -2.1225946 0.023529412
-85.908104 90.58828 -2.1824353 0.24705882
-5.2085757 5.9189978 -2.1852233 0.031372551
-7.3056283 9.2405787 -2.3412869 0.023529412
-85.407173 99.362617 -0.0046748337 0.24705882
-9.9541569 11.448343 -2.3481524 0.019607844
-12.069981 15.374344 -2.4788547 0.023529412
-14.674833 16.948666 -2.4068012 0.039215688
-23.008221 26.65835 -2.4577553 0.011764706
-19.365381 24.766649 -2.5611348 0.011764706
-25.670668 26.973602 -2.3820765 0.019607844
-27.78363 39.441162 -2.8067913 0.031372551
-34.019321 43.632557 -2.8972397 0.047058824
-41.89856 44.111324 -2.4771733 0.14509805
-31.366455 44.550686 -1.9015857 0.047058824
-7.3414063 9.2863321 2.1456032 0
-47.16433 54.80389 -1.6829255 0.054901961
-2.902483 3.596431 -2.1209035 0.027450981
-5.6561127 5.8757367 -0.14047737 0
-3.9896238 5.0055342 -0.18363167 0
-5.1863995 5.932899 -2.1841438 0.031372551
-7.2557592 9.2395029 -2.3350084 0.019607844
-85.077164 99.644905 -0.0046573426 0.24705882
-9.9238071 11.489907 -2.3499959 0.023529412
-11.992248 15.37932 -2.4732943 0.019607844
-14.618525 16.99683 -2.4067981 0.039215688
-15.978363 22.765556 -2.5903902 0.019607844
-22.961082 26.782684 -2.4622178 0.011764706
-19.348869 24.915554 -2.569922 0.011764706
-3.2247186 3.2908943 0.1323455 0
-25.608406 27.087255 -2.3846319 0.019607844
-27.627552 39.496632 -2.8042245 0.031372551
-6.7588654 8.5951986 0.44295868 0
-34.02195 39.757122 -2.4353147 0.023529412
-38.180794 49.327019 -3.2670047 0.082352944
-5.9808087 6.8645391 1.1089675 0
-31.243641 44.690136 -1.9031149 0.047058824
-6.2724848 7.2065868 2.5399575 0
-47.065315 55.056984 -1.685899 0.054901961
-2.889262 3.6065915 -2.1209028 0.031372551
-85.393654 91.313591 -2.1854811 0.24705882
-42.192032 54.941841 -2.0159192 0.070588239
-5.1621118 5.9484735 -2.1830642 0.031372551
-7.2265944 9.2718077 -2.3365757 0.019607844
-84.969757 100.26093 -0.0046546189 0.24705882
-9.8867159 11.531781 -2.3512235 0.023529412
-11.943017 15.432166 -2.474807 0.019607844
-5.681685 5.946475 0.047798607 0
-14.574096 17.071091 -2.409795 0.031372551
-15.903856 22.836618 -2.5918734 0.019607844
-22.891102 26.899706 -2.4652836 0.011764706
-19.305872 25.049156 -2.5764296 0.011764706
-7.1447954 7.5133691 0.29977265 0
-25.538908 27.212566 -2.3874426 0.019607844
-27.434931 39.528175 -2.79933 0.031372551
-33.850182 39.850582 -2.433444 0.023529412
-38.096863 49.593033 -3.2753751 0.082352944
-2.3654306 2.9222207 0.30172393 0
-31.143242 44.895985 -1.907019 0.047058824
-2.9320927 3.6623275 0.84295458 0
-35.313919 41.580284 -1.2691048 0.035294119
-2.8656662 3.6017935 -2.1124489 0.035294119
-85.180397 91.725075 -2.1881938 0.24705882
-42.278198 55.454426 -2.0293086 0.070588239
-5.141295 5.9660263 -2.183063 0.031372551
-7.1775503 9.2746887 -2.3310816 0.019607844
-84.400497 100.29619 -0.0046218885 0.24705882
-9.8438377 11.562767 -2.3506064 0.023529412
-11.905861 15.495445 -2.4783404 0.019607844
-87.144814 93.84346 0.73911124 0.10980392
-14.534863 17.14579 -2.4132202 0.031372551
-15.880326 22.973682 -2.601167 0.0078431377
-22.832977 27.021795 -2.4691873 0.011764706
-19.230354 25.131838 -2.5780528 0.011764706
-25.484444 27.34503 -2.3912778 0.019607844
-27.28998 39.613396 -2.7986243 0.031372551
-4.2954321 4.9591608 0.37822324 0
-4.9724936 6.373497 -0.41943878 0
-30.984047 45.000698 -1.9068707 0.047058824
-35.065636 41.58041 -1.2653683 0.035294119
-2.8536882 3.6108665 -2.1124482 0.035294119
-84.973297 92.112511 -2.190697 0.24705882
-42.428905 56.037479 -2.0454948 0.070588239
-5.116528 5.9767175 -2.1809051 0.031372551
-7.1301956 9.2761154 -2.3255877 0.023529412
-9.8104887 11.601005 -2.3518345 0.023529412
-11.875911 15.562935 -2.4828849 0.019607844
-86.562134 93.837296 0.73682016 0.10980392
-14.493197 17.211802 -2.4157887 0.031372551
-15.828695 23.062019 -2.6052542 0.019607844
-4.8536835 5.6616273 0.17229092 0
-22.786699 27.149027 -2.4739287 0.011764706
-19.170916 25.226877 -2.5813046 0.011764706
-25.423363 27.461275 -2.394089 0.019607844
-27.165199 39.713161 -2.7993155 0.031372551
-33.701004 40.226482 -2.4423716 0.023529412
-37.922028 50.067162 -3.289603 0.082352944
-53.798664 58.267376 -3.2303758 0.16470589
-30.931374 45.244869 -1.9128718 0.047058824
-34.960857 41.735954 -1.2665728 0.035294119
-2.8410459 3.6203756 -2.1124477 0.035294119
-84.734879 92.499634 -2.1928496 0.24705882
-42.319328 56.300003 -2.0496793 0.070588239
-5.0931559 5.9911456 -2.1798253 0.031372551
-7.1165686 9.3256283 -2.3318627 0.023529412
-9.7749538 11.640837 -2.3530626 0.023529412
-11.840527 15.629268 -2.4869237 0.019607844
-86.976418 94.950142 0.74318302 0.10980392
-14.463457 17.298609 -2.420928 0.031372551
-15.745842 23.113405 -2.6048779 0.019607844
-22.793606 27.350876 -2.4850914 0.011764706
-19.106625 25.325119 -2.5845561 0.011764706
-25.362347 27.587715 -2.3974116 0.019607844
-27.06662 39.866875 -2.8034966 0.031372551
-4.9627662 6.4514136 0.3292571 0
-33.769409 40.595734 -2.4576397 0.023529412
-37.921871 50.432152 -3.3048873 0.086274512
-16.072943 21.276649 2.170908 0.0039215689
-2.3840821 2.4654746 -0.13577397 0
-30.842602 45.454823 -1.9171953 0.047058824
-34.766449 41.798817 -1.264794 0.035294119
-2.8283715 3.6298387 -2.112447 0.043137256
-84.494827 92.886185 -2.1950021 0.24705882
-42.361187 56.767735 -2.0613203 0.070588239
-5.0672984 6.0025058 -2.1776671 0.031372551
-7.0956593 9.365715 -2.3357842 0.023529412
-6.6266179 9.690588 -0.1355308 0
-9.7317324 11.6714 -2.3524454 0.023529412
-11.792985 15.67962 -2.4884365 0.019607844
-87.515778 96.212044 0.75067693 0.10980392
-14.418128 17.366982 -2.4234958 0.023529412
-15.676142 23.18433 -2.6067331 0.019607844
-22.794321 27.546926 -2.4956954 0.011764706
-19.034746 25.413616 -2.5868306 0.011764706
-25.311499 27.725876 -2.4017587 0.019607844
-26.998459 40.066803 -2.8109355 0.031372551
-6.6544499 7.9312582 0.59899825 0
-33.807739 40.931992 -2.4708588 0.023529412
-37.986397 50.887466 -3.3260374 0.086274512
-4.9425068 6.4713469 0.65955848 0
-53.726418 59.01049 -3.2507293 0.16862746
-6.6342134 9.7019377 -0.40779451 0
-34.549179 41.833015 -1.262176 0.035294119
-2.8150272 3.6397288 -2.1124463 0.054901961
-84.303749 93.361153 -2.1989031 0.24705882
-42.449661 57.324257 -2.0758739 0.074509807
-5.0476789 6.0235705 -2.1787448 0.031372551
-7.0566025 9.3848963 -2.334213 0.019607844
-9.6913652 11.709602 -2.3530581 0.023529412
-11.740128 15.728674 -2.489444 0.015686275
-86.455406 95.747444 0.74460351 0.10980392
-109.41614 148.02928 -1.0758014 0.16862746
-14.349324 17.413101 -2.4226356 0.023529412
-15.608685 23.267708 -2.609704 0.019607844
-22.723461 27.666925 -2.4990404 0.011764706
-18.955654 25.502005 -2.588779 0.011764706
-6.0754156 6.5954199 0.25911292 0
-109.47758 148.11221 3.2073429 0.10980392
-25.239088 27.850628 -2.4045696 0.019607844
-26.891212 40.224888 -2.8151164 0.031372551
-4.0842509 4.8437247 0.36521298 0
-33.788879 41.21611 -2.4805379 0.023529412
-37.754528 50.964855 -3.322047 0.086274512
-34.48159 42.064228 -1.2653372 0.035294119
-2.8007805 3.64571 -2.110755 0.043137256
-83.945663 93.586151 -2.1976271 0.24705882
-8.5446224 11.479769 -0.41421252 0
-5.0276585 6.0398655 -2.1787438 0.031372551
-7.0254254 9.407835 -2.3342113 0.019607844
-9.6524668 11.741263 -2.353056 0.023529412
-11.694927 15.776708 -2.4909568 0.019607844
-85.953308 95.827606 0.74302804 0.10980392
-14.293991 17.463263 -2.4230609 0.031372551
-15.546793 23.34219 -2.6123033 0.019607844
-6.5235076 9.6823559 0.13557278 0.86666667
-22.659231 27.775799 -2.5021064 0.011764706
-18.882753 25.580385 -2.5904026 0.011764706
-5.0730958 6.7448163 0.14660861 0
-25.191854 27.984306 -2.4089167 0.019607844
-26.839094 40.436699 -2.8237188 0.031372551
-33.835762 41.554039 -2.4941294 0.023529412
-37.592388 51.099014 -3.3226662 0.086274512
-4.4087873 5.2767982 -0.15773861 0
-2.7858846 3.6521015 -2.1090636 0.035294119
-83.785919 94.066422 -2.2020185 0.24705882
-42.543159 58.276962 -2.0998554 0.074509807
-4.9992781 6.0479465 -2.1755073 0.031372551
-6.9971414 9.4382124 -2.335779 0.019607844
-6.4720941 9.6778736 -0.13440424 0.89411765
-9.6163626 11.78061 -2.3542838 0.023529412
-11.637432 15.813793 -2.4904487 0.019607844
-14.257875 17.543594 -2.4273431 0.031372551
-15.489221 23.43252 -2.6163898 0.019607844
-6.4852662 9.6979446 0.13548177 0.83137256
-22.574635 27.869829 -2.5034974 0.011764706
-18.812098 25.671497 -2.5930028 0.011764706
-6.0303473 6.6357765 0.25911531 0
-25.165628 28.15217 -2.4158235 0.019607844
-26.776585 40.649933 -2.8320885 0.031372551
-33.870945 41.895515 -2.5075345 0.023529412
-32.148403 43.995049 -2.8533809 0.047058824
-2.1694005 2.8049009 0.28448665 0
-6.4949412 9.7127476 -0.40541336 0.87058824
-5.0399022 6.7487602 1.5236993 0
-34.31987 42.452827 -1.2699827 0.035294119
-2.7752221 3.6643119 -2.1107538 0.039215688
-83.637032 94.56176 -2.2067597 0.24705882
-42.42841 58.547836 -2.1042721 0.074509807
-4.9781146 6.0649304 -2.1755061 0.031372551
-6.961834 9.4589701 -2.3349926 0.019607844
-6.433888 9.6932716 -0.13430899 0.88627452
-9.5850334 11.826024 -2.3567421 0.023529412
-11.60305 15.882835 -2.4949927 0.019607844
-14.231297 17.636312 -2.4333396 0.031372551
-15.409478 23.489355 -2.6167572 0.019607844
-73.239449 91.427315 2.7202806 0.074509807
-6.4535336 9.7234468 0.13553002 0.41176471
-22.492142 27.966736 -2.5051675 0.011764706
-18.750364 25.775358 -2.5969052 0.011764706
-8.7834587 9.8001661 0.38100204 0
-25.112101 28.290287 -2.4201703 0.019607844
-26.745562 40.913433 -2.8439486 0.031372551
-33.901634 42.234627 -2.5207527 0.023529412
-31.901026 43.977062 -2.8449926 0.047058824
-4.8322845 5.8823595 0.9262355 0
-2.6130991 2.8131094 -0.15256058 0
-6.4544353 9.7248764 -0.40499228 0.87058824
-34.28133 42.709358 -1.2740763 0.035294119
-2.7584834 3.6703842 -2.109087 0.039215688
-83.545082 95.10434 -2.2131498 0.24705882
-46.374783 64.469772 -2.3117626 0.082352944
-4.9505949 6.0753255 -2.1733804 0.031372551
-6.9230847 9.475688 -2.3334651 0.019607844
-6.390245 9.7011509 -0.13416447 0.88235295
-9.5453224 11.861038 -2.3574061 0.023529412
-11.558766 15.937653 -2.4975801 0.019607844
-14.189309 17.708769 -2.4368346 0.031372551
-15.373347 23.611094 -2.6246524 0.019607844
-6.3924303 9.7045135 0.13493067 0.88235295
-22.397985 28.045177 -2.5055444 0.011764706
-18.672756 25.854279 -2.5986247 0.011764706
-8.6162939 9.6791105 0.37515017 0
-25.082796 28.452459 -2.4269257 0.019607844
-25.994358 40.057045 -2.7784615 0.031372551
-33.963104 42.608028 -2.5363567 0.023529412
-31.673555 43.976883 -2.8382256 0.047058824
-5.5825462 7.6068087 0.76525134 0
-34.882919 39.625412 -2.1492703 0.062745102
-6.4063535 9.7261162 -0.40419623 0.87058824
-34.415974 43.178196 -1.2847536 0.035294119
-2.7456357 3.6795671 -2.1090863 0.031372551
-83.36232 95.566841 -2.2171226 0.24705882
-46.323402 64.875099 -2.3204904 0.082352944
-4.9341106 6.0981951 -2.1755364 0.035294119
-6.8853989 9.4929829 -2.3318939 0.019607844
-6.3455338 9.7061348 -0.1339291 0.89019608
-9.5062923 11.896963 -2.3580189 0.023529412
-11.505349 15.980713 -2.4980824 0.023529412
-2.2768626 3.0211256 -0.020939879 0
-14.137242 17.770258 -2.4385459 0.023529412
-15.301566 23.680952 -2.6265075 0.019607844
-6.3477077 9.7095051 0.13470039 0.88627452
-22.346888 28.182297 -2.5108442 0.011764706
-18.635571 25.99357 -2.6061094 0.011764706
-4.5331092 5.0595036 0.19599697 0
-25.043612 28.608644 -2.4328089 0.019607844
-25.843594 40.130302 -2.7772903 0.031372551
-33.979916 42.936111 -2.5488312 0.023529412
-31.454967 43.995647 -2.8323517 0.047058824
-34.623634 39.607864 -2.1417654 0.062745102
-6.3572474 9.7244339 -0.40321615 0.87058824
-34.492821 43.58654 -1.2933224 0.035294119
-2.6950905 3.6354203 -2.0786543 0.023529412
-83.158997 96.008102 -2.2206051 0.24705882
-32.203194 45.380783 -1.6190004 0.039215688
-4.9080238 6.1088924 -2.1733782 0.035294119
-6.8454056 9.5069284 -2.3295383 0.019607844
-6.3137398 9.7311792 -0.13397406 0.4509804
-9.4622469 11.92654 -2.3574018 0.023529412
-11.44489 16.013872 -2.4970691 0.019607844
-78.51741 110.90187 -0.79408556 0.16862746
-14.094714 17.844131 -2.4419711 0.023529412
-15.225199 23.743887 -2.6276193 0.019607844
-6.3051691 9.7176809 0.13451652 0.88627452
-22.292624 28.316271 -2.5158651 0.011764706
-18.586117 26.11664 -2.6119657 0.011764706
-7.5022807 8.5285034 0.32867995 0
-78.488518 110.86076 2.365118 0.10980392
-24.980124 28.73774 -2.4363878 0.023529412
-26.65691 41.719292 -2.8808391 0.031372551
-34.039162 43.321484 -2.5646589 0.023529412
-31.234303 44.010162 -2.826268 0.047058824
-5.3911929 7.4494166 0.74573642 0
-34.43285 39.667614 -2.1384981 0.062745102
-6.3103719 9.7259054 -0.40237591 0.87058824
-4.7165456 6.4949355 1.4519379 0
-34.525311 43.942417 -1.3003064 0.035294119
-2.6344757 3.576128 -2.0397694 0.031372551
-82.758179 96.22155 -2.2188387 0.24705882
-31.874626 45.250294 -1.6103694 0.039215688
-4.8890128 6.1286077 -2.1744556 0.039215688
-6.807652 9.5239229 -2.3279674 0.019607844
-6.2604995 9.7222939 -0.13355182 0.81960785
-9.4253855 11.965319 -2.3586297 0.023529412
-11.3889 16.053305 -2.4970663 0.023529412
-5.4662204 6.2180653 0.048125252 0
-78.152748 111.20762 -0.7942996 0.16862746
-14.027434 17.886522 -2.4411108 0.015686275
-15.178329 23.85372 -2.6339374 0.019607844
-6.2605147 9.7222958 0.13428624 0.89019608
-22.247488 28.462809 -2.522002 0.011764706
-18.520002 26.216843 -2.6155431 0.011764706
-24.905643 28.854631 -2.4389429 0.023529412
-4.7951279 6.6553993 0.33199936 0
-34.064236 43.666771 -2.5780642 0.023529412
-31.023104 44.036766 -2.8210225 0.047058824
-4.0342264 5.0286078 0.7834264 0
-6.2720938 9.7406893 -0.4020946 0.87058824
-5.4440846 6.842658 -0.20139098 0
-2.5867386 3.5343058 -2.0110283 0.043137256
-4.4524417 5.0733323 -0.11599914 0
-31.773592 45.442871 -1.6132742 0.039215688
-4.8675723 6.1452112 -2.1744547 0.043137256
-6.7721062 9.5439835 -2.3271811 0.019607844
-6.2371202 9.7606125 -0.13378362 0.21176471
-9.3859606 12.00085 -2.3592427 0.023529412
-11.344114 16.108816 -2.4995894 0.023529412
-85.059608 99.602623 0.75583673 0.10980392
-13.996482 17.975883 -2.4466789 0.023529412
-6.2532797 9.7864971 -1.078156 0.011764706
-6.2095394 9.7165461 0.13391672 0.89019608
-22.18211 28.584091 -2.5259058 0.011764706
-18.505825 26.39213 -2.6266091 0.011764706
-8.5191603 9.8424101 0.37689978 0
-24.812523 28.950071 -2.4397056 0.023529412
-3.1219697 3.8828268 0.28664467 0
-34.075142 43.996929 -2.590538 0.023529412
-30.901144 44.190243 -2.8239477 0.047058824
-34.123924 39.86969 -2.136528 0.062745102
-6.2295499 9.7485456 -0.40153384 0.86666667
-2.5626149 3.5245714 -2.0008841 0.05882353
-81.928108 96.577293 -2.2141163 0.24705882
-31.581778 45.488392 -1.6111691 0.039215688
-4.842463 6.1548009 -2.1722965 0.043137256
-6.7337108 9.5563068 -2.3248258 0.019607844
-6.1730299 9.7298832 -0.13308118 0.87058824
-9.3388824 12.022093 -2.3573956 0.023529412
-11.331241 16.204687 -2.5086808 0.031372551
-84.519447 99.636505 0.75398463 0.10980392
-13.973064 18.069143 -2.453104 0.023529412
-6.2207761 9.806777 -1.0781543 0.023529412
-4.3854723 5.5583291 0.16363382 0
-6.1709337 9.72649 0.13377918 0.89019608
-22.135729 28.72043 -2.5314848 0.011764706
-18.191437 26.125042 -2.5940428 0.011764706
-5.530128 6.379899 0.24398513 0
-24.770554 29.095757 -2.4450774 0.023529412
-42.185307 54.882736 -3.2233689 0.039215688
-30.777145 44.324921 -2.826035 0.047058824
-3.7291088 5.2112188 0.51835728 0
-33.986347 39.97612 -2.1361954 0.062745102
-6.1908412 9.7585621 -0.40111291 0.86274511
-2.5652575 3.5535681 -2.012718 0.050980393
-81.576447 96.811348 -2.2132604 0.24705882
-31.399042 45.546329 -1.60953 0.039215688
-4.8220062 6.170424 -2.1722956 0.047058824
-6.6953015 9.5684834 -2.3224702 0.015686275
-3.4015348 4.3039489 0.00058074074 0
-6.1260071 9.7260742 -0.13275248 0.89803922
-9.3061256 12.062033 -2.3592386 0.023529412
-11.281912 16.248318 -2.5096886 0.031372551
-83.931007 99.609779 0.75169408 0.10980392
-13.922681 18.127644 -2.4548154 0.015686275
-14.963224 24.048979 -2.6387599 0.019607844
-6.1344237 9.7396908 0.13368803 0.86666667
-22.071758 28.834558 -2.5351093 0.011764706
-4.100903 4.7242441 0.18043242 0
-24.699602 29.20789 -2.4476323 0.023529412
-26.472254 42.701973 -2.9236276 0.043137256
-5.1010299 6.5368505 0.47929561 0
-42.232937 55.323986 -3.2410572 0.039215688
-30.772406 44.633801 -2.839226 0.047058824
-6.3106508 8.1260958 1.2551453 0
-6.1479297 9.7616262 -0.40041241 0.86274511
-42.877602 56.170895 -1.6449136 0.054901961
-2.5446529 3.5500941 -2.0059545 0.054901961
-4.0444012 4.690279 -0.10626861 0
-31.239859 45.655224 -1.6095217 0.039215688
-4.8004208 6.1867943 -2.1722944 0.047058824
-6.6618438 9.5913715 -2.3224683 0.019607844
-6.0794725 9.7265062 -0.13247041 0.91764706
-9.2591829 12.087711 -2.3580065 0.023529412
-11.234049 16.300289 -2.5117066 0.031372551
-13.856905 18.172529 -2.4543834 0.0078431377
-14.931158 24.185556 -2.6480536 0.019607844
-7.1777668 9.3329058 0.27268249 0
-6.1108131 9.7776747 0.13392189 0.27058825
-21.995016 28.942835 -2.5378964 0.011764706
-18.116432 26.398981 -2.6090121 0.011764706
-9.2316294 10.899623 0.41373596 0
-2.0110836 2.7670186 0.059245102 0
-24.674263 29.385405 -2.4553075 0.023529412
-26.116615 42.456524 -2.9005816 0.031372551
-6.0139837 8.640542 0.42667776 0
-41.671009 54.982887 -3.2125447 0.039215688
-30.857111 45.093708 -2.861635 0.047058824
-6.6302462 9.5447607 0.94384992 0
-33.82616 40.340664 -2.1433539 0.062745102
-6.1054521 9.7689648 -0.39985165 0.86666667
-42.681267 56.319786 -1.6449035 0.054901961
-2.5295739 3.5559492 -2.0042634 0.050980393
-4.5734615 5.3634653 -0.12124445 0
-4.7730718 6.1977382 -2.1701362 0.047058824
-6.626626 9.6152773 -2.3224666 0.019607844
-6.0375361 9.738019 -0.13232839 0.91764706
-9.2313957 12.143254 -2.3623097 0.023529412
-11.18977 16.363918 -2.51524 0.031372551
-13.785419 18.216385 -2.4535229 0.015686275
-14.877537 24.297544 -2.654372 0.0078431377
-5.4065599 7.0423789 0.20543522 0
-6.0437789 9.7482767 0.13322757 0.86274511
-21.907925 29.048347 -2.5401244 0.011764706
-18.106628 26.593559 -2.6217062 0.027450981
-4.1384153 4.8387771 0.18368737 0
-24.706514 29.644197 -2.4693823 0.023529412
-25.991903 42.602711 -2.9040642 0.031372551
-2.0153122 2.7952216 0.13842776 0
-41.488369 55.160362 -3.2140245 0.039215688
-3.0703421 4.3555818 -0.27531576 0
-33.92551 40.762352 -2.1591578 0.062745102
-6.0612888 9.7771616 -0.3992908 0.86666667
-2.5171258 3.5643346 -2.0042627 0.054901961
-81.044434 98.284386 -2.2270651 0.24705882
-4.7513871 6.2139397 -2.170135 0.047058824
-6.584259 9.6249018 -2.3193264 0.019607844
-5.9972935 9.7483339 -0.13218646 0.88627452
-9.1865683 12.171813 -2.3616922 0.023529412
-11.139192 16.412342 -2.516753 0.023529412
-9.146842 10.956639 0.082718492 0
-6.6298018 9.6925917 -0.067537032 0
-13.733597 18.279926 -2.4556625 0.015686275
-14.784386 24.335262 -2.6528797 0.0078431377
-6.0035 9.7586136 0.13309011 0.90196079
-21.837341 29.165836 -2.5437486 0.011764706
-18.071421 26.742249 -2.630167 0.027450981
-24.709419 29.859276 -2.480129 0.023529412
-24.443903 40.370216 -2.7460494 0.027450981
-18.05052 24.078636 1.748147 0.0078431377
-4.5466552 6.5884099 0.3240357 0
-41.319397 55.336491 -3.2158778 0.039215688
-30.912001 45.876358 -2.8972332 0.047058824
-6.0188503 9.7841406 -0.39872998 0.86666667
-2.5046482 3.5726767 -2.0042622 0.062745102
-4.9459271 5.8960419 -0.13257989 0
-4.7273574 6.2269673 -2.1690557 0.047058824
-6.5462508 9.6408768 -2.3177552 0.019607844
-5.9591026 9.76192 -0.13209124 0.85490197
-9.1346064 12.190671 -2.3592298 0.031372551
-11.07961 16.447403 -2.5162446 0.023529412
-13.690952 18.356119 -2.459516 0.023529412
-14.725885 24.430744 -2.6577101 0.0078431377
-109.47261 147.96304 4.2745171 0.074509807
-5.9673262 9.7756557 0.13304548 0.85882354
-21.733002 29.23826 -2.5434642 0.011764706
-18.057497 26.924206 -2.6418843 0.011764706
-24.675756 30.031467 -2.4872923 0.023529412
-24.409334 40.633129 -2.7581425 0.031372551
-41.102203 55.447834 -3.2140048 0.039215688
-31.303001 46.811398 -2.9493911 0.050980393
-6.0051465 9.8389845 -0.40012568 0.7764706
-6.5500317 9.6462078 2.1147513 0
-42.630562 57.515835 -1.6664995 0.054901961
-2.4961405 3.5870225 -2.0076427 0.050980393
-80.875473 99.486626 -2.2414467 0.24705882
-4.7055736 6.2430067 -2.1690545 0.047058824
-6.5147018 9.6665144 -2.3185382 0.019607844
-4.5151958 5.9833546 0.00050140044 0
-9.0966568 12.228431 -2.3604579 0.031372551
-11.030865 16.498795 -2.5182624 0.023529412
-13.640893 18.422611 -2.4620843 0.023529412
-14.644566 24.488426 -2.6584496 0.0078431377
-21.652037 29.34247 -2.5459716 0.011764706
-18.049124 27.116354 -2.6545787 0.011764706
-6.5213819 9.6764231 0.20294008 0.91764706
-24.641201 30.203773 -2.4944549 0.023529412
-25.544287 42.871296 -2.9040406 0.031372551
-4.8244815 7.109261 0.34795088 0
-32.231972 43.763805 -2.5301251 0.023529412
-31.1416 46.923286 -2.9495921 0.050980393
-3.8667638 5.6603107 1.2389044 0
-42.70628 58.041103 -1.6773956 0.054901961
-2.4698484 3.5769224 -1.9975226 0.06666667
-80.78849 100.06968 -2.2487621 0.24705882
-6.5022707 9.7221537 -0.33830479 0.93333334
-4.6845188 6.2616358 -2.1701648 0.043137256
-6.4755287 9.68155 -2.3170114 0.019607844
-6.4357862 8.6655579 0.00032565906 0.0039215689
-9.0671024 12.277879 -2.3641984 0.035294119
-10.999068 16.575377 -2.5243886 0.019607844
-6.4807425 9.6893234 -0.067084298 0.96862745
-13.592867 18.490669 -2.465153 0.023529412
-14.575856 24.564791 -2.6615124 0.0078431377
-5.4239831 7.2765822 0.21004841 0
-21.57192 29.443991 -2.5485868 0.011764706
-17.992567 27.233379 -2.6602097 0.011764706
-9.3933973 11.499578 0.43019477 0
-6.4755087 9.6813259 0.20254955 0.92156863
-24.55205 30.304979 -2.4960957 0.023529412
-25.701157 43.473076 -2.9390912 0.043137256
-31.936182 43.671627 -2.5187204 0.023529412
-31.125673 47.248077 -2.9635754 0.050980393
-4.3830585 5.8475976 0.88963729 0
-6.1536083 9.1907024 0.89827394 0
-46.367298 63.482018 -1.8303856 0.05882353
-2.4559755 3.5816615 -1.9958315 0.070588239
-73.252335 91.338936 -2.0470293 0.24705882
-6.4830685 9.7633686 -0.33900234 0.69411767
-4.6546779 6.2642589 -2.1658502 0.050980393
-6.439085 9.6960039 -2.3154404 0.019607844
-9.0402136 12.326701 -2.367887 0.023529412
-10.939688 16.604717 -2.5233753 0.011764706
-73.267387 91.35759 0.67568612 0.10980392
-6.4420047 9.7003126 -0.067012444 0.96470588
-13.536112 18.541695 -2.466007 0.023529412
-14.520399 24.65731 -2.6663437 0.0078431377
-21.488165 29.534374 -2.550257 0.011764706
-17.965239 27.389378 -2.6696482 0.011764706
-73.265305 91.354828 3.4014959 0.24705882
-6.4433479 9.7023535 0.20255116 0.89019608
-24.47884 30.420124 -2.4989073 0.023529412
-25.15411 42.868004 -2.8925412 0.031372551
-31.788818 43.773666 -2.5185273 0.023529412
-34.89558 53.378536 -3.3408959 0.086274512
-26.205336 44.668175 -1.8077911 0.043137256
-46.465881 64.062737 -1.8426812 0.05882353
-2.444778 3.5932484 -1.9975214 0.06666667
-6.4081554 9.7261848 -0.33690307 0.87450981
-4.6316648 6.2808418 -2.165849 0.050980393
-6.3949671 9.7059288 -2.3123 0.019607844
-73.040024 125.93237 -1.6991426 0.082352944
-8.9949493 12.359318 -2.3678849 0.023529412
-10.876576 16.64094 -2.5228672 0.011764706
-6.3998728 9.7133455 -0.066940419 0.96078432
-13.470357 18.593985 -2.4664326 0.031372551
-14.453849 24.751295 -2.6708021 0.019607844
-21.396032 29.635193 -2.552206 0.011764706
-17.860376 27.447916 -2.6689918 0.011764706
-6.3968668 9.7086754 0.20220472 0.89411765
-24.409367 30.562336 -2.5032539 0.023529412
-25.080826 43.104622 -2.902307 0.031372551
-31.539591 43.766113 -2.51144 0.023529412
-6.0206137 8.2155437 1.2429351 0
-26.00535 44.701218 -1.8052671 0.043137256
-2.0008557 2.9061048 0.63274771 0
-2.4302449 3.5982928 -1.9958302 0.070588239
-80.340492 101.67509 -2.2657893 0.24705882
-6.3633566 9.7312469 -0.3363187 0.94509804
-4.6052256 6.2902818 -2.163691 0.047058824
-6.3589125 9.724472 -2.3115137 0.019607844
-7.0851007 9.7704086 0.00027473317 0
-8.954031 12.393443 -2.3684978 0.023529412
-10.829117 16.695084 -2.5253901 0.015686275
-6.3572741 9.7217417 -0.066845074 0.97647059
-13.409971 18.64695 -2.4672863 0.031372551
-14.383219 24.828804 -2.6737731 0.019607844
-21.334126 29.767776 -2.5572269 0.011764706
-17.785963 27.54323 -2.6722434 0.011764706
-8.0985289 10.108185 0.37513086 0
-6.3564444 9.7204275 0.2019975 0.89411765
-24.322302 30.672005 -2.5052967 0.023529412
-23.852243 41.314701 -2.7761688 0.031372551
-31.31706 43.777897 -2.5058436 0.023529412
-25.823267 44.746239 -1.8034424 0.043137256
-74.586456 104.50253 -2.9908323 0.10196079
-2.4195974 3.6093962 -1.9975201 0.070588239
-80.226799 102.26303 -2.2726314 0.24705882
-6.3207455 9.7394905 -0.33585092 0.94117647
-4.5832224 6.305902 -2.1636899 0.043137256
-6.3080654 9.7197208 -2.3052349 0.015686275
-2.6160703 3.524544 0.00060879154 0
-8.9198275 12.437112 -2.3709559 0.023529412
-10.768627 16.729019 -2.5248821 0.011764706
-6.3168397 9.7333317 -0.066773131 0.50196081
-13.365453 18.72245 -2.4711401 0.031372551
-14.312221 24.906126 -2.6767442 0.019607844
-3.9616675 5.426971 0.15534741 0
-21.271547 29.900282 -2.562247 0.011764706
-17.696119 27.614822 -2.6732156 0.011764706
-6.3397536 7.9357867 0.29392171 0
-6.3095746 9.7218943 0.20158131 0.89411765
-24.237232 30.784584 -2.5075955 0.023529412
-23.658451 41.310555 -2.7703438 0.031372551
-31.085596 43.775608 -2.4995017 0.023529412
-25.311584 39.581665 -2.4603026 0.12156863
-34.137226 43.423279 -2.2492278 0.06666667
-25.633263 44.776642 -1.8010585 0.043137256
-17.071653 23.961647 7.8655543 0.011764706
-2.4011571 3.6082096 -1.9924475 0.074509807
-80.053429 102.77883 -2.2778633 0.24705882
-6.2802844 9.7509384 -0.33549961 0.92941177
-4.5567355 6.3151422 -2.1615317 0.050980393
-6.2405701 9.6882038 -2.2926791 0.011764706
-78.141022 111.12437 -0.0050614569 0.24705882
-8.8672533 12.454821 -2.3684936 0.023529412
-10.714382 16.772804 -2.5258899 0.015686275
-6.2678542 9.7312336 -0.066607542 0.4509804
-13.318276 18.794617 -2.4745655 0.031372551
-14.240844 24.983259 -2.6797152 0.019607844
-21.185364 30.000067 -2.5644755 0.011764706
-17.637907 27.736685 -2.6790719 0.011764706
-6.2649012 9.7265358 0.2012348 0.89803922
-24.176159 30.928457 -2.5124547 0.023529412
-23.498358 41.364658 -2.7684748 0.031372551
-30.944052 43.899796 -2.5004258 0.023529412
-25.139112 39.61533 -2.4569435 0.039215688
-6.0482674 8.4393568 1.2673047 0
-3.3143032 5.0540414 0.48906225 0
-34.223404 43.847794 -2.2650323 0.06666667
-52.536198 74.654427 -2.1258543 0.10196079
-2.393645 3.6215036 -1.9958284 0.078431375
-79.86953 103.20982 -2.281837 0.24705882
-6.2411084 9.7566957 -0.33503199 0.94901961
-4.5346541 6.3258924 -2.1604526 0.050980393
-6.1767464 9.6542177 -2.2801235 0.011764706
-8.8348494 12.491966 -2.3703368 0.023529412
-10.659513 16.802643 -2.5253816 0.0039215689
-6.2499876 9.770833 -0.066746473 0.082352944
-13.300099 18.894707 -2.4822767 0.039215688
-14.173965 25.048338 -2.6819427 0.031372551
-21.145781 30.144648 -2.5711718 0.011764706
-4.8201694 6.078526 0.22421481 0
-6.2194247 9.7220764 0.20074882 0.92941177
-24.125237 31.063896 -2.5173142 0.023529412
-23.35656 41.417007 -2.767072 0.031372551
-30.847116 44.055405 -2.5037723 0.023529412
-3.8505571 4.8236542 -0.24811842 0
-25.310268 44.899551 -1.7992266 0.090196081
-52.180168 74.644882 -2.1209018 0.10196079
-2.3777859 3.6271329 -1.994137 0.086274512
-79.567474 103.63908 -2.2845471 0.24705882
-6.1930194 9.763155 -0.33444744 0.94509804
-4.5103078 6.3428016 -2.1604512 0.050980393
-8.804781 12.551348 -2.3752549 0.023529412
-13.245523 18.971346 -2.4857016 0.031372551
-14.120229 25.178705 -2.6901202 0.031372551
-21.091135 30.313774 -2.5787041 0.011764706
-6.2196164 9.8059797 -0.9428528 0.043137256
-6.1714673 9.7284489 0.20040247 0.9254902
-24.008183 31.159019 -2.5175645 0.023529412
-23.203146 41.516399 -2.7677617 0.031372551
-30.764071 44.297951 -2.5108433 0.023529412
-6.2378683 9.8353071 -0.60698354 0.023529412
-4.9082489 7.6967316 0.74084246 0
-42.382748 55.129639 -2.8326118 0.15294118
-25.164839 45.044865 -1.8011743 0.043137256
-51.91132 74.87056 -2.1216335 0.10196079
-2.3650918 3.6349943 -1.9941363 0.090196081
-79.670265 104.52682 -2.2979674 0.24705882
-6.1504865 9.7706833 -0.33397964 0.94901961
-4.488122 6.3580904 -2.1604502 0.050980393
-6.0831194 9.6616449 -2.2714891 0.015686275
-3.5853381 5.0429907 0.0005343557 0
-8.763135 12.584846 -2.3758678 0.023529412
-6.2067666 9.8620005 -1.4754986 0.019607844
-6.1361527 9.7474279 -0.066274658 0.98823529
-13.19046 19.033442 -2.4878409 0.031372551
-14.06493 25.286711 -2.6964386 0.019607844
-21.041641 30.469028 -2.5856791 0.011764706
-10.097616 13.106287 0.47958851 0.0039215689
-6.1311536 9.7393026 0.20019525 0.90196079
-23.947603 31.305742 -2.5226793 0.023529412
-23.03108 41.54776 -2.7644966 0.031372551
-30.767553 44.635227 -2.5238764 0.023529412
-24.63475 39.732368 -2.448123 0.16078432
-42.344955 55.480385 -2.843035 0.15686275
-25.185022 45.454071 -1.8140235 0.043137256
-5.1009517 7.2503767 2.3587792 0
-51.452736 74.764061 -2.1135101 0.10196079
-2.3574307 3.6482143 -1.997517 0.074509807
-79.341499 104.77621 -2.2979512 0.24705882
-6.111392 9.7759447 -0.33351201 0.92941177
-4.4702792 6.3749661 -2.1615274 0.050980393
-6.050673 9.6769876 -2.2707028 0.019607844
-8.7235403 12.611938 -2.3758659 0.019607844
-10.505724 16.949314 -2.5309303 0.019607844
-6.0929484 9.7458162 -0.06613265 0.99215686
-13.141789 19.090837 -2.4899807 0.023529412
-14.000705 25.358347 -2.69941 0.019607844
-21.010998 30.630207 -2.5937707 0.011764706
-17.360676 28.139174 -2.695008 0.011764706
-9.0918312 11.861835 0.43311688 0
-6.0858874 9.7342682 0.19970925 0.90980393
-23.865978 31.402733 -2.5244665 0.023529412
-22.902351 41.623039 -2.7647223 0.031372551
-5.95297 8.548975 0.60337293 0
-5.4826703 8.7495728 0.41868782 0
-30.823019 45.018486 -2.540077 0.023529412
-24.499365 39.79216 -2.4470696 0.28235295
-42.310246 55.797665 -2.8524809 0.15686275
-25.299269 46.002495 -1.8327429 0.043137256
-3.6528313 5.762526 1.233862 0
-51.449669 75.265251 -2.1231005 0.10196079
-2.3527927 3.6722753 -2.0059695 0.047058824
-6.0820889 9.8125534 -0.33397618 0.81176472
-4.4457459 6.3916278 -2.1615262 0.050980393
-6.0032687 9.6829309 -2.2667778 0.019607844
-8.6860981 12.661256 -2.3789389 0.011764706
-10.446722 16.999252 -2.532443 0.019607844
-6.0430017 9.7481709 -0.065990306 0.99607843
-13.075048 19.150589 -2.4912627 0.015686275
-13.912698 25.428968 -2.7012646 0.0078431377
-20.97368 30.829193 -2.603816 0.011764706
-17.266966 28.229029 -2.6972818 0.011764706
-7.0093598 9.1806202 0.33447832 0
-6.0422153 9.7468548 0.1995022 0.89411765
-23.814657 31.586298 -2.5318849 0.023529412
-22.353981 40.994122 -2.7172415 0.027450981
-5.0945702 7.3507552 0.51762396 0
-30.869272 45.460407 -2.5583251 0.023529412
-7.7722716 12.595367 1.2037443 0
-42.385818 56.346134 -2.8721941 0.15686275
-51.532143 76.011665 -2.138561 0.10196079
-2.375489 3.7390459 -2.0380905 0.031372551
-6.0230203 9.7922106 -0.33257616 0.86274511
-4.4148026 6.393898 -2.1572113 0.050980393
-5.9633422 9.6933327 -2.2644222 0.019607844
-6.675662 9.7618265 0.0002985138 0.0039215689
-8.6352234 12.681237 -2.3770916 0.019607844
-10.383208 17.0284 -2.5314295 0.031372551
-6.002727 9.7585096 -0.065918356 0.99607843
-13.855905 25.536591 -2.707583 0.019607844
-4.3040891 7.7757673 0.10332032 0
-20.943764 31.017756 -2.6135824 0.011764706
-17.178595 28.305782 -2.6989052 0.011764706
-6.0019455 9.7571926 0.19929497 0.89803922
-23.866356 31.886528 -2.5492878 0.023529412
-22.596582 41.788929 -2.7647066 0.031372551
-3.5103061 5.6221533 0.26822278 0
-30.919718 45.879311 -2.5758288 0.023529412
-24.239964 40.024544 -2.4504066 0.082352944
-4.6877408 6.1298857 -0.31119752 0
-25.491503 47.171631 -1.8718556 0.047058824
-5.4790721 7.9790301 2.5771918 0
-6.6226106 9.6828146 -0.27122483 0
-2.3736362 3.7685125 -2.0499494 0.023529412
-78.658134 106.21938 -2.3113382 0.24705882
-5.9774632 9.7950039 -0.33203632 0.92941177
-4.3909678 6.408443 -2.1572437 0.054901961
-5.9183135 9.6962452 -2.2605417 0.019607844
-8.5879831 12.706681 -2.3765283 0.023529412
-10.333679 17.080025 -2.5340204 0.031372551
-109.55043 148.00012 1.0619974 0.10980392
-5.9654903 9.7749605 -0.065937616 0.89803922
-12.945489 19.245747 -2.4921882 0.023529412
-13.812491 25.667175 -2.7165999 0.0078431377
-20.883312 31.157597 -2.6195536 0.011764706
-17.091068 28.380327 -2.7006326 0.011764706
-5.9626608 9.7702074 0.19911301 0.80000001
-23.986692 32.277824 -2.5742321 0.043137256
-22.51726 41.984337 -2.7727594 0.031372551
-30.968719 46.292194 -2.5933082 0.023529412
-25.676331 47.905952 -1.8977284 0.047058824
-2.3229048 3.7101228 -2.0144455 0.054901961
-78.399811 106.56876 -2.3135626 0.24705882
-5.956852 9.8305559 -0.33261746 0.81176472
-4.3707976 6.4218378 -2.1572428 0.050980393
-5.8757915 9.6941862 -2.2558322 0.015686275
-8.5632772 12.756301 -2.3808317 0.019607844
-10.290084 17.129095 -2.5365441 0.019607844
-5.9612832 9.8379974 -0.066240557 0.074509807
-12.904702 19.315796 -2.4960425 0.031372551
-13.737364 25.720631 -2.7177119 0.0078431377
-6.5262742 9.6783876 0.27048865 0.93725491
-4.3914518 8.068079 0.10676508 0
-20.794123 31.235991 -2.6206658 0.011764706
-17.02013 28.464361 -2.7035589 0.011764706
-4.2094254 5.5659804 0.20165117 0
-23.911152 32.388042 -2.5770433 0.043137256
-22.452505 42.181549 -2.7811308 0.031372551
-31.120838 46.838696 -2.6184521 0.027450981
-4.5914326 6.7549696 0.99584961 0
-32.401108 43.946228 -2.223561 0.06666667
-25.697777 48.311039 -1.9105788 0.047058824
-77.96624 106.79679 -2.3122845 0.24705882
-4.3472099 6.4373879 -2.1572416 0.050980393
-5.8202996 9.6814318 -2.2479842 0.015686275
-6.4968367 9.7111273 0.00026522123 0.95686275
-23.424892 44.410904 -0.58520883 0.035294119
-8.5207815 12.793782 -2.3820596 0.019607844
-10.215133 17.145754 -2.5335097 0.031372551
-12.849076 19.385813 -2.4990392 0.031372551
-13.596709 25.682222 -2.7084088 0.0078431377
-6.4819565 9.6884441 0.27011886 0.9137255
-20.721083 31.374947 -2.6259651 0.011764706
-16.937912 28.563919 -2.7071354 0.011764706
-23.874554 32.58794 -2.5859983 0.043137256
-22.349676 42.362144 -2.7876391 0.031372551
-6.1945834 9.2507458 0.64516789 0
-31.155075 47.265991 -2.6359565 0.027450981
-24.402641 41.242199 -2.5098209 0.039215688
-6.813273 10.192952 1.4982578 0
-31.978474 43.705765 -2.2054589 0.06666667
-48.184238 91.593346 -3.6157777 0.24705882
-6.4863153 9.6951237 -0.26977247 1
-2.2706625 3.6819897 -1.9907755 0.074509807
-77.7313 107.25904 -2.316397 0.24705882
-4.3246951 6.4521141 -2.1572406 0.050980393
-5.7706261 9.6741838 -2.2417054 0.015686275
-6.4519629 9.7165785 0.00026773207 0.95686275
-23.716492 45.350643 -0.59650868 0.035294119
-8.4674225 12.809792 -2.3795972 0.019607844
-10.181218 17.225437 -2.5400748 0.023529412
-12.816051 19.48345 -2.505893 0.023529412
-6.4415317 9.700552 0.26984185 0.91764706
-20.665882 31.530252 -2.6329398 0.011764706
-16.840097 28.6259 -2.7074566 0.011764706
-23.793404 32.71595 -2.5895774 0.043137256
-22.157421 42.354465 -2.7820466 0.031372551
-38.044441 58.200405 -3.2384491 0.039215688
-24.54258 41.813057 -2.5393553 0.039215688
-5.403439 8.1073694 1.1893106 0
-31.755424 43.719574 -2.2005613 0.062745102
-48.29969 92.597473 -3.6487451 0.24705882
-6.4480491 9.7105942 -0.26958439 0.85882354
-2.2602396 3.6922491 -1.9924653 0.070588239
-6.0072489 8.1921225 -0.17588267 0
-26.183344 44.963844 -1.5141213 0.039215688
-4.3011642 6.4628 -2.1561611 0.050980393
-5.7109566 9.6453743 -2.2307189 0.015686275
-6.4066505 9.7173853 0.00027033949 0.95686275
-23.571442 45.439316 -0.59664136 0.035294119
-8.4227304 12.834099 -2.3789802 0.023529412
-10.124021 17.258724 -2.540072 0.023529412
-12.740548 19.508762 -2.503747 0.031372551
-13.523832 25.971571 -2.7292285 0.019607844
-6.3984485 9.7046862 0.26937902 0.94117647
-23.872356 46.022236 0.60171205 0.023529412
-20.604534 31.665237 -2.6385188 0.011764706
-5.1370845 8.655138 0.17509352 0
-23.69873 32.81374 -2.5911083 0.043137256
-22.042458 42.477013 -2.7852976 0.031372551
-24.660173 42.336189 -2.5661662 0.039215688
-31.528616 43.710663 -2.1948493 0.062745102
-48.33699 93.424606 -3.6750042 0.24705882
-6.4244809 9.7449694 -0.26995575 0.6156863
-2.2538981 3.7126517 -1.9992272 0.054901961
-77.38456 108.36489 -2.3285408 0.24705882
-25.976513 44.986279 -1.5116662 0.039215688
-4.2732692 6.4716086 -2.1540029 0.047058824
-5.6677303 9.6522093 -2.2275786 0.015686275
-6.3623323 9.7269049 0.00027275592 0.82745099
-23.490337 45.692341 -0.59882903 0.035294119
-8.3628092 12.844494 -2.3752873 0.019607844
-10.070565 17.312483 -2.5425951 0.023529412
-3.5095437 4.7527246 0.034478787 0
-5.2096195 8.8549824 -0.059044991 0
-12.679683 19.571632 -2.5058863 0.031372551
-13.414029 25.992165 -2.726248 0.0078431377
-6.3628182 9.7276421 0.26938075 0.91764706
-23.678007 46.059139 0.60107082 0.023529412
-20.524958 31.797199 -2.6432598 0.011764706
-16.719271 28.880213 -2.7204716 0.011764706
-8.1412802 11.248856 0.40241048 0
-5.5019102 9.3635025 0.1889537 0
-3.4029832 4.6032963 -0.36224481 0
-21.886614 42.557083 -2.7852898 0.031372551
-24.747667 42.848366 -2.5917189 0.039215688
-31.351946 43.802708 -2.1937006 0.062745102
-40.039272 78.047714 -3.0642457 0.23921569
-4.845479 7.3629675 2.3463323 0
-6.3563075 9.7175369 -0.26855564 0.96470588
-2.2409072 3.7200885 -1.9992267 0.047058824
-3.6634214 5.0054631 -0.10665659 0
-25.78763 45.020691 -1.5097938 0.078431375
-4.2506351 6.4860773 -2.154002 0.043137256
-5.6301017 9.66471 -2.2260077 0.015686275
-6.3347688 9.7587681 0.00027386099 0.16862746
-23.3741 45.859257 -0.59994239 0.035294119
-8.2924299 12.833191 -2.3679042 0.023529412
-10.010057 17.347122 -2.5425923 0.031372551
-12.658267 19.689163 -2.5153115 0.031372551
-13.346619 26.084597 -2.7310789 0.0078431377
-6.3202143 9.7358913 0.26901087 0.90196079
-23.480894 46.069748 0.60015076 0.023529412
-20.433115 31.898529 -2.645767 0.011764706
-16.634144 28.965696 -2.7230718 0.011764706
-78.590675 110.87283 3.9478333 0.24705882
-3.6784828 6.241395 0.12599908 0
-23.495579 33.027256 -2.5946817 0.043137256
-21.559124 42.28022 -2.7622435 0.031372551
-24.904593 43.471951 -2.6241858 0.043137256
-31.159594 43.85601 -2.1909223 0.062745102
-51.505463 101.33652 -3.9716752 0.24705882
-6.3137398 9.7257643 -0.26818109 1
-2.2220488 3.714124 -1.9924634 0.05882353
-3.9558825 5.4549956 -0.11603488 0
-25.616495 45.048923 -1.508039 0.078431375
-4.2281594 6.4957767 -2.1529224 0.047058824
-5.588099 9.6615038 -2.2212982 0.015686275
-6.2848191 9.7478294 0.00027691666 0.93725491
-23.213709 45.899948 -0.59951466 0.035294119
-8.2351522 12.832089 -2.3629816 0.019607844
-9.9554882 17.37812 -2.5425897 0.031372551
-78.206787 111.06906 0.78370696 0.10980392
-12.604829 19.741915 -2.5170226 0.015686275
-13.278902 26.154497 -2.73405 0.0078431377
-6.2767534 9.735054 0.26845506 0.94117647
-22.990862 45.456917 0.59124815 0.023529412
-20.341309 31.975697 -2.6468794 0.011764706
-16.564636 29.055616 -2.726649 0.011764706
-23.442184 33.172382 -2.6003091 0.043137256
-21.322071 42.140484 -2.7487397 0.027450981
-23.274799 46.021484 -1.80054 0.043137256
-6.2788591 9.7384262 -0.26799315 1
-2.207278 3.7182887 -1.9907724 0.062745102
-2.8519404 3.9137571 -0.082857661 0
-25.445379 45.113247 -1.5072155 0.039215688
-4.2115836 6.519876 -2.1561568 0.050980393
-5.5428038 9.6600208 -2.216589 0.015686275
-6.2422333 9.7557449 0.00027925742 0.92941177
-23.092609 46.059032 -0.60053456 0.035294119
-8.1734877 12.833567 -2.3580587 0.019607844
-4.2394795 5.9020929 0.042323165 0
-12.55485 19.815701 -2.5208764 0.0078431377
-13.208841 26.24305 -2.7385089 0.0078431377
-6.2342138 9.7429457 0.26808518 0.94901961
-23.099819 46.073364 0.59821707 0.023529412
-16.478712 29.140659 -2.7292492 0.011764706
-6.9972897 9.8540154 0.35013506 0
-23.415329 33.381268 -2.6102879 0.043137256
-21.274639 42.414364 -2.7617643 0.031372551
-3.7382927 6.4453478 0.30187151 0
-25.298119 44.851028 -2.6972907 0.39215687
-30.98694 44.231358 -2.1993849 0.12941177
-23.137196 46.148548 -1.8023487 0.043137256
-6.2341833 9.742938 -0.26752537 1
-2.1912007 3.7231209 -1.9890809 0.062745102
-78.588455 113.36953 -2.4122488 0.24705882
-25.299152 45.259098 -1.5088384 0.039215688
-4.1824274 6.5290108 -2.1539986 0.047058824
-5.4827662 9.6396551 -2.2071717 0.015686275
-6.2194977 9.802969 0.00027984788 0.11764706
-22.84647 46.007061 -0.5987035 0.035294119
-6.2303724 9.8205862 -1.800177 0.015686275
-9.8470879 17.484451 -2.5476353 0.035294119
-13.111482 26.300272 -2.7392478 0.0078431377
-6.1840611 9.7459917 0.26752973 0.90588236
-16.374424 29.217211 -2.7305462 0.011764706
-2.8294303 3.9134965 -0.3048951 0
-21.184107 42.642082 -2.7712972 0.031372551
-2.5850501 3.9614034 0.27267018 0
-6.2381859 9.8330469 -0.53948265 0.031372551
-3.7510791 6.5267363 0.61070645 0
-6.1861429 9.7493792 -0.26705742 1
-2.1816761 3.7366867 -1.9924614 0.062745102
-3.5274367 4.9588952 -0.10462353 0
-4.1575704 6.539885 -2.1529191 0.047058824
-5.4282241 9.6205492 -2.198539 0.015686275
-6.1474018 9.7629433 0.00028462993 0.87058824
-22.726183 46.168739 -0.59977007 0.035294119
-6.1939611 9.8385029 -1.7995602 0.043137256
-9.8032312 17.549572 -2.5521798 0.035294119
-6.1941218 9.8387203 -1.2459006 0.011764706
-13.030091 26.366926 -2.7414744 0.0078431377
-6.1373825 9.7466936 0.26697409 0.9254902
-22.618956 45.949627 0.59447503 0.023529412
-16.276176 29.280756 -2.7311924 0.027450981
-5.9739399 8.52005 0.30134255 0
-23.264896 33.689335 -2.6210287 0.043137256
-21.108871 42.865978 -2.7810638 0.031372551
-24.640821 39.719673 -2.1759229 0.11372549
-25.094065 45.261745 -2.7108927 0.047058824
-3.5038946 5.4807973 0.79216647 0
-30.933413 44.851765 -2.218931 0.06666667
-4.2081647 7.4090538 1.54444 0
-6.1499562 9.7671022 -0.26696256 0.87843138
-2.1651206 3.7375109 -1.9890796 0.070588239
-25.360674 46.124763 -1.5317785 0.039215688
-4.1367111 6.5572338 -2.1539965 0.047058824
-5.3795295 9.6115046 -2.1922603 0.015686275
-6.1049118 9.7702894 0.0002869739 0.95686275
-22.643461 46.409294 -0.60186428 0.035294119
-8.0629902 12.967179 -2.3666632 0.031372551
-9.7399921 17.579794 -2.5516715 0.031372551
-12.354186 19.972868 -2.5238659 0.0078431377
-12.960566 26.45842 -2.746305 0.0078431377
-6.0928631 9.7505989 0.26651132 0.95294118
-19.946173 32.367332 -2.6555123 0.011764706
-16.221703 29.424416 -2.7393277 0.027450981
-7.0140872 10.109576 0.35653007 0
-5.0184546 8.9514647 0.17858633 0
-23.135904 33.753445 -2.6197431 0.043137256
-21.063717 43.154545 -2.7950189 0.031372551
-4.8600259 7.7378831 0.52922273 0
