# .PCD v0.7 - Point Cloud Data file format
VERSION 0.7
FIELDS x y z intensity
SIZE 4 4 4 4
TYPE F F F F
COUNT 1 1 1 1
WIDTH 1070
HEIGHT 1
VIEWPOINT 0 0 0 1 0 0 0
POINTS 1070
DATA ascii
-24.071198 -9.3286152 -1.8368379 0.0039215689
-20.963448 -6.9679699 -1.8332678 0.050980393
-23.08136 -10.27386 0.7144348 0.0078431377
-26.077803 -11.602121 -1.862197 0.027450981
-29.837093 -8.3023005 -1.8398489 0.011764706
-21.976118 -8.5195284 1.3558635 0.0039215689
-33.53046 -11.121041 1.4095119 0.023529412
-26.419546 -10.234186 -1.3513428 0.047058824
-28.980803 -9.6180067 -1.6349984 0.074509807
-24.098867 -9.3376598 3.160588 0.0039215689
-24.014381 -7.9753799 2.0493746 0.0039215689
-11.581809 -5.1805954 -0.53316641 0
-35.209415 -9.7911539 -1.3152031 0.015686275
-26.396994 -10.225272 -0.6879037 0.094117649
-4.4456172 -1.4914676 -2.2399983 0.047058824
-26.859337 -11.840987 -0.54146087 0.0078431377
-31.11582 -10.20882 -0.98745686 0.043137256
-7.0332661 -2.7302232 -2.1481855 0.054901961
-10.083249 -3.3342173 -2.155477 0.039215688
-35.346535 -9.7024889 -0.46342292 0.011764706
-12.204488 -4.704999 -2.0635812 0.039215688
-15.938519 -5.2481337 -2.1655829 0.027450981
-24.380785 -8.007123 -0.17453863 0.0039215689
-17.991327 -6.9149084 -2.1056716 0.011764706
-19.9893 -5.501256 -1.9655644 0.023529412
-24.064716 -9.2341471 -1.8340368 0.011764706
-20.933386 -6.8807139 -1.8286783 0.05882353
-6.5740681 -2.9356651 0.20503998 0
-24.073927 -7.9066596 0.41956067 0.0078431377
-29.960741 -8.2292986 -1.8457789 0.011764706
-33.315708 -12.765695 2.0497944 0.0078431377
-26.681017 -10.233116 -1.3629495 0.043137256
-29.012529 -9.5214939 -1.6350245 0.074509807
-23.999859 -9.2077761 3.1436281 0.0039215689
-41.526581 -13.610573 3.5338168 0.031372551
-35.395912 -9.7161837 -1.3209639 0.015686275
-7.1819382 -2.7856367 2.0823212 0
-26.568968 -10.190111 -0.69151139 0.062745102
-4.4425287 -1.4723917 -2.2366724 0.043137256
-31.159376 -10.095522 -0.98809004 0.031372551
-7.0452509 -2.7051363 -2.1493602 0.050980393
-10.108774 -3.301281 -2.1587615 0.039215688
-24.071911 -9.134429 -0.024830014 0.015686275
-35.69339 -9.6553926 -0.46795478 0.011764706
-12.36064 -4.7124324 -2.0872443 0.050980393
-15.986378 -5.1984153 -2.1698577 0.031372551
-24.748615 -10.805198 0.13196233 0.0039215689
-24.701733 -8.0109463 -0.17692947 0.0039215689
-18.037462 -6.8562498 -2.1084919 0.015686275
-20.011705 -5.4278097 -1.9661971 0.023529412
-23.493568 -8.9158287 0.56281555 0.0039215689
-24.029903 -9.1191578 -1.8292496 0.011764706
-20.907738 -6.7868023 -1.8246647 0.050980393
-43.155388 -18.803902 1.3288797 0.043137256
-24.143276 -7.8305292 0.41998154 0.0078431377
-30.124285 -8.1542234 -1.8544346 0.011764706
-24.473326 -9.2855186 1.5049896 0.0039215689
-26.668488 -10.115447 -1.3608159 0.023529412
-29.083948 -9.4258099 -1.6375223 0.090196081
-34.06916 -12.908343 4.4504838 0.011764706
-23.536945 -7.6343856 2.0040123 0.0039215689
-26.134687 -11.408063 -1.1928065 0.0078431377
-35.35281 -9.5637589 -1.3185457 0.015686275
-25.776508 -8.356451 4.9320049 0.0039215689
-4.4476318 -1.4564877 -2.2366767 0.047058824
-26.758503 -11.567583 -0.53815597 0.0078431377
-31.232508 -9.9984655 -0.98932135 0.031372551
-7.0618548 -2.6828368 -2.1515319 0.047058824
-10.120227 -3.265588 -2.1587713 0.047058824
-24.275999 -9.1143761 -0.02502946 0.015686275
-35.688213 -9.5200891 -0.46747842 0.011764706
-12.380704 -4.6702547 -2.087877 0.047058824
-15.985518 -5.1361685 -2.1673293 0.035294119
-22.570715 -9.7647648 0.12012472 0.0039215689
-24.641886 -7.8963447 -0.17633127 0.0039215689
-18.072449 -6.7970381 -2.1098087 0.015686275
-20.053616 -5.3636794 -1.9684662 0.023529412
-23.266056 -8.7368116 0.55662566 0.0039215689
-27.641109 -7.3804531 0.3060261 0.0039215689
-24.005514 -9.0138912 -1.8250358 0.011764706
-20.881916 -6.697649 -1.8204046 0.050980393
-43.334602 -18.701786 1.3323151 0.043137256
-24.212366 -7.7591987 0.42068464 0.0078431377
-30.268322 -8.0794201 -1.8615494 0.011764706
-39.704666 -14.878648 2.4346845 0.019607844
-41.571877 -13.295189 1.7401509 0.043137256
-29.147108 -9.33356 -1.6392553 0.090196081
-32.907917 -10.531766 2.7953219 0.015686275
-26.174337 -11.316388 -1.1928415 0.0078431377
-35.324162 -9.4234858 -1.3162781 0.015686275
-10.668408 -4.0287638 3.0705557 0
-27.849848 -10.450006 -0.72313708 0.0039215689
-4.4452662 -1.4399753 -2.2332928 0.039215688
-31.301882 -9.9119692 -0.99054933 0.031372551
-7.0666289 -2.6589491 -2.1504576 0.047058824
-10.126688 -3.2322457 -2.1579919 0.047058824
-24.432053 -9.084918 -0.025181374 0.015686275
-35.973259 -9.4745951 -0.47082952 0.011764706
-12.298947 -4.5953174 -2.071806 0.047058824
-16.043186 -5.0986991 -2.17294 0.047058824
-22.255444 -9.5458908 0.11825798 0.0039215689
-36.259125 -11.475609 -0.25853106 0.011764706
-18.071331 -6.7315912 -2.1072345 0.015686275
-20.097321 -5.3073745 -1.9711092 0.023529412
-23.255877 -8.6494484 0.55570877 0.0039215689
-27.389469 -7.2211242 0.30297363 0.0039215689
-23.992546 -8.922842 -1.8219501 0.011764706
-20.86483 -6.6196647 -1.81713 0.050980393
-3.737534 -1.6440209 0.11715294 0
-24.309086 -7.7056069 0.42191836 0.0078431377
-28.84601 -12.359001 -2.0473835 0.015686275
-30.363066 -8.0021801 -1.8658252 0.011764706
-33.22773 -10.518868 1.3902313 0.019607844
-27.705469 -10.296801 -1.4100472 0.0039215689
-29.225798 -9.2572098 -1.6420507 0.078431375
-23.764429 -8.8368368 3.1007035 0.0039215689
-27.377991 -8.6732292 2.324681 0.0039215689
-26.448683 -11.335706 -1.2036954 0.0078431377
-35.249191 -9.2847004 -1.3124295 0.015686275
-24.51482 -9.1157455 -0.63624734 0.0039215689
-4.4502563 -1.4240619 -2.2332969 0.050980393
-22.992336 -9.7653742 -0.4615733 0.0078431377
-31.378273 -9.8153543 -0.99190038 0.031372551
-7.0505457 -2.624609 -2.1428921 0.050980393
-10.149131 -3.1999919 -2.1603658 0.054901961
-24.290819 -8.9359436 -0.025036553 0.0078431377
-36.188095 -9.3956881 -0.47322553 0.011764706
-12.377991 -4.5750732 -2.0823362 0.098039217
-16.076029 -5.0470042 -2.1749904 0.035294119
-36.887043 -11.531868 -0.26272979 0.011764706
-18.079771 -6.6626158 -2.1055264 0.023529412
-20.138845 -5.2427936 -1.9733778 0.023529412
-33.35062 -8.6612291 0.36844665 0.0078431377
-23.971081 -8.8194485 -1.8180183 0.011764706
-20.834517 -6.5298038 -1.8125401 0.050980393
-28.89632 -12.260962 -2.0479403 0.015686275
-30.437189 -7.9077702 -1.8686846 0.011764706
-39.9487 -14.667821 2.4435234 0.019607844
-35.107292 -10.976785 1.4670141 0.023529412
-27.790007 -10.217505 -1.4125465 0.0039215689
-29.29987 -9.1678314 -1.6444225 0.078431375
-32.980831 -10.313762 2.7955849 0.015686275
-26.587475 -11.28494 -1.208226 0.0078431377
-35.436165 -9.2012844 -1.3181934 0.015686275
-24.452602 -8.995368 -0.63385493 0.0039215689
-4.4690428 -1.4123951 -2.2400768 0.062745102
-31.477295 -9.7253742 -0.99397194 0.031372551
-7.0343099 -2.5904117 -2.1353269 0.06666667
-10.171473 -3.1676173 -2.1627398 0.050980393
-24.679142 -8.980114 -0.025419481 0.0078431377
-36.720612 -9.3964462 -0.47975495 0.011764706
-12.486764 -4.5650949 -2.0978153 0.031372551
-16.097326 -4.9916348 -2.175514 0.039215688
-36.441555 -11.253209 -0.25932851 0.011764706
-18.102907 -6.5990763 -2.1055465 0.023529412
-20.191742 -5.1809335 -1.9767731 0.023529412
-23.274313 -8.4711494 0.55467457 0.0078431377
-23.945435 -8.7149506 -1.8138033 0.011764706
-20.796215 -6.4378853 -1.8072914 0.05882353
-26.12825 -8.0785284 0.45236957 0.023529412
-28.949976 -12.164251 -2.0487564 0.015686275
-30.50716 -7.811944 -1.8713076 0.011764706
-24.590767 -7.6051326 1.0275784 0.0078431377
-27.896868 -10.145902 -1.4161847 0.0039215689
-29.381308 -9.0803862 -1.6472203 0.078431375
-35.825054 -11.062591 3.032625 0.015686275
-26.656187 -11.20402 -1.2095927 0.0078431377
-35.460312 -9.0751696 -1.3179326 0.015686275
-11.634769 -3.6168861 2.2275651 0
-24.438725 -8.8932323 -0.63272041 0.0039215689
-4.4707127 -1.3945439 -2.2383873 0.05882353
-28.301001 -11.769934 -0.56585675 0.019607844
-31.623657 -9.6432381 -0.99748659 0.0078431377
-7.0654998 -2.5719941 -2.1418264 0.050980393
-10.183005 -3.1299074 -2.1627495 0.050980393
-24.851221 -8.9390869 -0.025586639 0.0078431377
-36.560837 -9.212676 -0.47726226 0.011764706
-12.522006 -4.5255518 -2.1009228 0.023529412
-16.115505 -4.9321938 -2.1755292 0.035294119
-2.1947303 -0.70253521 -0.017003642 0
-18.089525 -6.5188675 -2.1012461 0.039215688
-20.268522 -5.1210365 -1.9824226 0.023529412
-21.893326 -7.8799148 0.52115977 0.0039215689
-23.932131 -8.6105814 -1.8104376 0.011764706
-20.800589 -6.3554182 -1.8056649 0.05882353
-24.995876 -10.400512 0.76500791 0.0078431377
-25.866838 -7.8939571 0.44732824 0.0078431377
-29.009111 -12.063766 -2.0498335 0.015686275
-30.535582 -7.6996694 -1.8713309 0.011764706
-22.09972 -7.9535518 1.3508643 0.027450981
-24.434906 -7.4587917 1.0199215 0.0078431377
-28.118179 -10.109175 -1.4255204 0.0078431377
-29.47171 -8.9896479 -1.6504455 0.078431375
-25.550583 -9.1884413 3.3197632 0.019607844
-33.248322 -10.135831 2.811928 0.015686275
-26.697065 -11.105841 -1.2096287 0.0078431377
-36.078762 -9.091774 -1.3396196 0.019607844
-9.7649832 -3.001879 1.8706878 0
-28.337593 -10.187517 -0.73216563 0.011764706
-4.4894261 -1.3827068 -2.245167 0.050980393
-27.057919 -11.144115 -0.54038686 0.0078431377
-35.601589 -10.715734 -1.1212883 0.011764706
-7.0962052 -2.5546405 -2.1483257 0.031372551
-10.197615 -3.0950813 -2.163547 0.050980393
-36.557823 -9.0759687 -0.47683451 0.011764706
-12.560069 -4.4893413 -2.1046484 0.023529412
-16.109816 -4.86868 -2.1724906 0.035294119
-36.555611 -11.001713 -0.25963914 0.011764706
-18.164639 -6.4738789 -2.1073153 0.023529412
-20.324921 -5.059433 -1.9861932 0.015686275
-27.473236 -6.8278275 0.30272162 0.0039215689
-23.928183 -8.5146151 -1.8079185 0.0039215689
-20.921913 -6.3121672 -1.814244 0.050980393
-3.479198 -1.4741786 0.10857004 0
-25.859749 -7.7928934 0.44671115 0.0078431377
-29.032566 -11.954468 -2.048573 0.015686275
-30.539003 -7.5868897 -1.8699341 0.011764706
-33.667843 -10.134995 1.4023532 0.023529412
-29.564117 -8.9046946 -1.6538821 0.078431375
-25.047245 -8.9093199 3.2505593 0.0039215689
-26.8281 -11.050108 -1.2138257 0.0078431377
-35.974449 -8.9317856 -1.3346246 0.019607844
-6.9147172 -2.4891124 1.9882983 0
-4.4698963 -1.3594322 -2.2333136 0.047058824
-7.6019359 -3.13362 -0.15369037 0
-35.523754 -10.556948 -1.1177144 0.011764706
-7.1414142 -2.5421956 -2.1591525 0.035294119
-10.212108 -3.0601914 -2.1643441 0.050980393
-24.950754 -8.777832 -0.025677582 0.027450981
-38.435078 -9.3978376 -0.5008083 0.011764706
-12.579383 -4.4463887 -2.1052804 0.027450981
-16.126703 -4.8120279 -2.1725047 0.031372551
-23.431955 -9.560998 0.12344938 0.011764706
-18.209637 -6.4179301 -2.1099277 0.015686275
-20.427568 -5.0088153 -1.9944708 0.015686275
-24.986095 -8.79002 0.59299397 0.043137256
-23.942684 -8.425375 -1.8068129 0.0039215689
-21.012611 -6.2590899 -1.8201891 0.050980393
-22.648687 -9.2427654 0.69137508 0.0039215689
-26.063183 -7.7544465 0.44972438 0.0078431377
-28.578537 -11.651433 -2.0138335 0.015686275
-30.545893 -7.4751253 -1.8687733 0.011764706
-25.053102 -8.8132029 1.5267657 0.078431375
-43.337368 -12.870522 1.8021026 0.043137256
-24.93371 -8.7722368 -1.261714 0.054901961
-29.679266 -8.8260126 -1.6585972 0.062745102
-23.523968 -7.001977 1.9877784 0.0039215689
-26.866501 -10.956006 -1.2138594 0.0078431377
-35.399544 -8.6580877 -1.3122717 0.015686275
-24.966013 -8.7833614 -0.64393431 0.062745102
-4.4678836 -1.340598 -2.2299299 0.05882353
-4.6111579 -1.8991262 -0.094227783 0
-35.16692 -10.310762 -1.1053687 0.011764706
-7.1252003 -2.5067782 -2.1515868 0.031372551
-10.215717 -3.0201325 -2.1627769 0.054901961
-25.001648 -8.6924629 -0.025723964 0.039215688
-59.152828 -14.217916 -0.76897037 0.047058824
-12.565708 -4.389504 -2.1003449 0.047058824
-16.12899 -4.7480278 -2.1704841 0.039215688
-22.14921 -8.9452782 0.11648101 0.011764706
-36.579628 -10.723355 -0.25932565 0.011764706
-18.191692 -6.336431 -2.1051946 0.015686275
-20.546463 -4.9576559 -2.0042517 0.0078431377
-24.938774 -8.6705208 0.59109133 0.011764706
-23.965855 -8.3345461 -1.8062738 0.011764706
-21.123409 -6.2073431 -1.8277812 0.050980393
-26.122133 -7.6674423 0.45022863 0.0078431377
-28.661783 -11.562571 -2.0167258 0.015686275
-30.565313 -7.3608489 -1.8683226 0.011764706
-24.777609 -7.2744212 1.0308282 0.0078431377
-29.205879 -10.14781 -1.4749819 0.023529412
-29.803423 -8.7436533 -1.6637398 0.031372551
-35.466835 -10.397396 2.989393 0.015686275
-36.258991 -8.7264881 -1.3428524 0.019607844
-13.29089 -3.9175665 2.5308545 0
-31.626286 -10.985217 -0.81377673 0.05882353
-4.4931836 -1.3314369 -2.240097 0.050980393
-35.174019 -10.185967 -1.104556 0.011764706
-7.1152482 -2.4765306 -2.1461844 0.035294119
-10.199293 -2.9782593 -2.1572678 0.05882353
-59.187969 -14.01857 -0.76885682 0.047058824
-12.561493 -4.3410439 -2.0972645 0.039215688
-16.148449 -4.6952505 -2.171006 0.054901961
-22.424036 -8.9690294 0.11774466 0.0078431377
-36.192242 -10.479631 -0.25637805 0.011764706
-18.178734 -6.264112 -2.1013231 0.015686275
-21.159611 -5.0302119 -2.0621102 0.0078431377
-21.197487 -6.1523738 -1.832408 0.043137256
-33.950829 -13.555472 1.0320992 0.019607844
-26.304958 -7.6258903 0.45291317 0.0078431377
-28.781551 -11.499568 -2.0224688 0.015686275
-30.58177 -7.2572513 -1.8678693 0.011764706
-23.549824 -8.1018696 1.4319924 0.0039215689
-24.839987 -7.2029448 1.0323982 0.0078431377
-29.978077 -8.6865034 -1.6718639 0.015686275
-33.377449 -11.465519 4.3113165 0.011764706
-35.512608 -10.282701 2.9903293 0.015686275
-26.686092 -10.665454 -1.2024351 0.0078431377
-38.123901 -9.0398655 -1.4105859 0.019607844
-31.58308 -10.852723 -0.81177467 0.047058824
-4.4873395 -1.3123757 -2.235019 0.06666667
-26.70849 -10.565838 -0.53059542 0.0078431377
-35.547733 -10.159117 -1.1151614 0.011764706
-7.1384306 -2.4562275 -2.1505196 0.054901961
-59.150829 -13.791537 -0.7677865 0.047058824
-12.625222 -4.3132496 -2.1053197 0.031372551
-16.157097 -4.6362863 -2.1700017 0.062745102
-22.518469 -8.9152327 0.11804944 0.0039215689
-36.340145 -10.384618 -0.25719342 0.011764706
-18.208014 -6.2027745 -2.102206 0.015686275
-21.312788 -4.9875159 -2.0752707 0.0078431377
-24.546427 -8.3472662 0.58041662 0.0039215689
-21.055208 -7.1662726 -1.5843333 0.039215688
-21.303171 -6.1019769 -1.8396696 0.035294119
-34.745708 -13.731019 1.0547006 0.023529412
-26.708355 -7.6410022 0.45935798 0.0078431377
-30.610798 -7.1509657 -1.8681257 0.011764706
-26.797024 -9.1086874 1.626669 0.0039215689
-27.344318 -7.8219848 1.1349396 0.0078431377
-29.100168 -9.8890982 -1.4663057 0.05882353
-30.461504 -8.7105331 -1.6970419 0.015686275
-34.504215 -11.716409 4.4510818 0.011764706
-24.903549 -7.1265454 2.0974007 0.0039215689
-26.615316 -10.529368 -1.1976379 0.035294119
-41.966873 -9.7932692 -1.5510551 0.031372551
-31.552582 -10.718941 -0.81006414 0.047058824
-4.4986339 -1.2990823 -2.2384109 0.074509807
-35.631252 -10.054894 -1.1167517 0.011764706
-7.1611347 -2.4370651 -2.1548543 0.062745102
-10.230634 -2.9111936 -2.1596491 0.082352944
-23.260052 -7.8257899 -0.023978643 0.0078431377
-59.227413 -13.602103 -0.76822627 0.047058824
-12.714396 -4.2960858 -2.1177046 0.023529412
-16.138002 -4.5726476 -2.1654348 0.05882353
-24.001234 -9.4070349 0.12564038 0.0039215689
-35.881512 -10.125077 -0.25375679 0.011764706
-18.262413 -6.153357 -2.106113 0.011764706
-21.449532 -4.9440284 -2.0869281 0.0078431377
-24.422279 -8.2146873 0.57682186 0.0039215689
-21.022093 -7.0770478 -1.5801116 0.047058824
-21.465269 -6.0708723 -1.8518695 0.043137256
-26.620502 -10.429381 -1.8662935 0.015686275
-30.661575 -7.0552983 -1.8697995 0.011764706
-26.838428 -9.0232258 1.6273296 0.015686275
-26.996885 -7.6259489 1.1194943 0.0078431377
-29.087324 -9.7769623 -1.4640549 0.05882353
-30.636328 -8.6502066 -1.7051661 0.031372551
-41.463505 -13.918105 5.3401437 0.019607844
-24.892496 -7.0338583 2.0944862 0.0039215689
-9.9653282 -2.8356259 1.8970448 0
-31.531067 -10.59485 -0.80864209 0.047058824
-4.4982333 -1.2810643 -2.2367799 0.05882353
-26.463184 -10.25494 -0.52470845 0.10588235
-35.003899 -9.7386694 -1.096526 0.011764706
-7.1867056 -2.4161875 -2.1603599 0.062745102
-10.232103 -2.8707952 -2.1582081 0.054901961
-24.396181 -8.1058359 -0.025390986 0.0078431377
-59.22892 -13.3716 -0.76837862 0.047058824
-12.736043 -4.2510509 -2.119107 0.023529412
-16.172262 -4.5177417 -2.168189 0.039215688
-35.716686 -9.9360895 -0.25280413 0.011764706
-18.290949 -6.0877643 -2.1072111 0.015686275
-21.578678 -4.8895202 -2.0981016 0.0078431377
-24.234478 -8.0521936 0.57142514 0.0039215689
-20.985884 -6.9786811 -1.5758544 0.047058824
-21.528187 -6.0026293 -1.8557683 0.0039215689
-26.778957 -7.457881 0.45932409 0.0078431377
-30.709196 -6.9465179 -1.8716139 0.011764706
-24.170437 -8.030757 1.4641263 0.0039215689
-26.957838 -7.507318 1.116446 0.0078431377
-29.083744 -9.656188 -1.4625242 0.070588239
-30.781958 -8.5682583 -1.711954 0.031372551
-35.123127 -11.651343 4.5197783 0.011764706
-25.289438 -7.0445037 2.1253619 0.0039215689
-26.39607 -10.229279 -1.1850092 0.078431375
-41.958813 -9.480916 -1.5488936 0.031372551
-10.876813 -3.0485308 2.0667651 0
-31.500095 -10.454958 -0.80729741 0.035294119
-4.5166492 -1.2687852 -2.2435598 0.050980393
-26.480129 -10.154981 -0.52437264 0.094117649
-38.61655 -10.594883 -1.2081344 0.019607844
-7.1841059 -2.3871026 -2.1571217 0.05882353
-10.20801 -2.8253536 -2.1511221 0.039215688
-24.671457 -8.1009998 -0.025664629 0.0078431377
-59.263512 -13.161782 -0.76826578 0.047058824
-12.720743 -4.1963511 -2.1141703 0.035294119
-16.142002 -4.4483066 -2.1620953 0.023529412
-35.635395 -9.7793102 -0.25202024 0.011764706
-18.308298 -6.0222497 -2.1067977 0.015686275
-21.727797 -4.8430705 -2.1108885 0.0078431377
-20.9608 -6.8888788 -1.5721989 0.047058824
-22.268049 -6.1237259 -1.9173691 0.0078431377
-26.762384 -7.3523679 0.45857647 0.0078431377
-26.558929 -10.185524 -1.8573152 0.015686275
-30.780029 -6.8492546 -1.8744715 0.011764706
-26.836487 -8.808012 1.623073 0.0039215689
-33.526245 -9.2020683 1.386173 0.019607844
-29.109665 -9.551733 -1.4621738 0.070588239
-30.923403 -8.4909239 -1.7181629 0.031372551
-35.235283 -11.551728 4.5289321 0.011764706
-26.398005 -10.123855 -1.183542 0.094117649
-5.5758648 -1.860476 1.5961618 0
-16.293505 -4.488503 3.0830112 0.0039215689
-31.494579 -10.330886 -0.80626392 0.047058824
-4.5243216 -1.2543699 -2.2452574 0.043137256
-26.622139 -10.107754 -0.5265367 0.050980393
-35.320263 -9.5671473 -1.1043981 0.011764706
-7.1809807 -2.3593378 -2.1538823 0.05882353
-10.18324 -2.7819121 -2.1440356 0.054901961
-59.283375 -12.959699 -0.76799887 0.047058824
-12.73834 -4.1549845 -2.1148014 0.050980393
-16.325193 -4.4398766 -2.1845007 0.027450981
-22.839945 -8.6778822 0.11873772 0.0039215689
-36.069237 -9.7691259 -0.25486919 0.011764706
-18.320595 -5.9586835 -2.1059508 0.023529412
-21.876017 -4.7994781 -2.1236751 0.0078431377
-20.945555 -6.8066902 -1.5693907 0.062745102
-22.299774 -6.0525904 -1.9183745 0.0078431377
-26.975809 -7.3142843 0.46178618 0.0078431377
-26.633617 -10.112547 -1.860201 0.0078431377
-30.818169 -6.750176 -1.8754362 0.011764706
-26.869341 -8.7198343 1.6232761 0.0039215689
-24.696913 -6.6989894 1.0211893 0.0078431377
-29.163982 -9.4621449 -1.4633415 0.078431375
-31.074783 -8.4212685 -1.72501 0.015686275
-34.959785 -11.333148 4.4887533 0.011764706
-26.63703 -10.11361 -1.192735 0.035294119
-37.835594 -8.2809496 -1.3951004 0.078431375
-7.9562035 -2.1798959 1.5143753 0
-31.528658 -10.226016 -0.80629408 0.05882353
-4.5321641 -1.2391082 -2.2469549 0.039215688
-35.55048 -9.4958696 -1.1105591 0.011764706
-7.1744885 -2.3291781 -2.1495616 0.070588239
-10.1853 -2.7439392 -2.1424675 0.070588239
-12.748992 -4.1089005 -2.1141953 0.047058824
-16.225563 -4.3518519 -2.169246 0.074509807
-36.40847 -9.7240696 -0.25704157 0.011764706
-18.345058 -5.895515 -2.1064014 0.023529412
-22.021116 -4.7502608 -2.1360862 0.0078431377
-20.934963 -6.7222242 -1.5668657 0.062745102
-22.274527 -5.962018 -1.9144406 0.0078431377
-34.879211 -13.088959 1.051175 0.023529412
-27.074598 -7.2392449 0.46301699 0.0078431377
-26.971573 -10.132396 -1.8812602 0.0078431377
-30.907902 -6.6564088 -1.8794755 0.011764706
-33.880482 -10.854232 2.0429661 0.0078431377
-27.149548 -7.2590461 1.1211492 0.0078431377
-29.22727 -9.3696232 -1.46489 0.070588239
-31.266094 -8.3555174 -1.7339906 0.015686275
-34.836464 -11.15876 4.4679208 0.011764706
-25.537838 -6.8297782 2.1400938 0.0039215689
-37.836899 -8.1425753 -1.3941195 0.078431375
-31.583193 -10.121596 -0.8068099 0.082352944
-4.5222201 -1.2200131 -2.2401824 0.050980393
-35.202793 -9.2780161 -1.0988019 0.011764706
-7.1931815 -2.3084767 -2.1528144 0.074509807
-10.262605 -2.7277083 -2.1566641 0.035294119
-38.147354 -8.0763922 -0.49428141 0.050980393
-12.796455 -4.0769315 -2.1197755 0.023529412
-16.205359 -4.2885756 -2.1646783 0.039215688
-24.380152 -9.0700407 0.12637444 0.0039215689
-36.591377 -9.642539 -0.25812727 0.011764706
-18.356915 -5.8318791 -2.1055543 0.023529412
-22.10298 -4.6908145 -2.1424854 0.0078431377
-38.132607 -8.073122 0.41597345 0.062745102
-20.903866 -6.6355777 -1.5629253 0.047058824
-22.317299 -5.8938222 -1.9164336 0.0078431377
-34.821178 -12.935375 1.0480965 0.023529412
-27.144865 -7.1612477 0.46378762 0.0078431377
-27.109825 -10.081332 -1.8885591 0.0078431377
-31.047009 -6.5782399 -1.8865877 0.011764706
-33.795467 -8.9078207 1.393406 0.023529412
-29.311518 -9.289113 -1.4675767 0.078431375
-31.513828 -8.3092556 -1.7461679 0.015686275
-34.824047 -11.027287 4.4616008 0.011764706
-25.490923 -6.7264619 2.1342857 0.0039215689
-28.088203 -10.443352 -1.2542741 0.015686275
-37.891056 -8.0224638 -1.3951463 0.078431375
-31.628016 -10.020045 -0.80712998 0.05882353
-4.5229344 -1.2029167 -2.2384923 0.050980393
-24.524147 -9.025897 -0.48350263 0.0078431377
-35.618149 -9.2539053 -1.1107342 0.011764706
-7.2085385 -2.2852519 -2.1549854 0.047058824
-10.310019 -2.7013047 -2.1645551 0.023529412
-59.942356 -12.457063 -0.77492255 0.047058824
-12.837009 -4.0400786 -2.124119 0.027450981
-16.250946 -4.239543 -2.1687622 0.035294119
-24.464239 -9.0037546 0.12661865 0.0039215689
-36.357624 -9.4451828 -0.25628358 0.011764706
-18.403725 -5.7756562 -2.1085975 0.023529412
-22.173801 -4.6245594 -2.1477585 0.0078431377
-23.818832 -7.4632397 0.55846006 0.0039215689
-20.873562 -6.5455484 -1.5589857 0.047058824
-22.438063 -5.8414712 -1.9250138 0.0078431377
-27.204533 -7.0750856 0.46435964 0.0078431377
-26.815018 -9.8654318 -1.8657451 0.0078431377
-31.257446 -6.5083542 -1.8979573 0.011764706
-25.097187 -7.8615413 1.5115823 0.0039215689
-36.314278 -9.4335718 1.4955808 0.023529412
-29.397158 -9.2029982 -1.4702647 0.078431375
-31.824907 -8.2718973 -1.7617581 0.015686275
-25.935163 -8.1223078 3.3225365 0.0039215689
-25.051065 -6.5171432 2.0956757 0.0039215689
-28.143244 -10.351723 -1.2551398 0.015686275
-37.997112 -7.9059916 -1.3980395 0.05882353
-4.5237918 -1.1850197 -2.2368019 0.05882353
-35.628563 -9.1169481 -1.1100414 0.011764706
-7.2205367 -2.2595332 -2.1560748 0.047058824
-10.331241 -2.6659892 -2.1669285 0.023529412
-35.500732 -10.96251 -0.036539029 0.023529412
-65.819511 -13.424058 -0.85009098 0.047058824
-12.85172 -3.9925852 -2.1241319 0.027450981
-16.404764 -4.2148309 -2.1870971 0.023529412
-23.030293 -8.3824692 0.11900066 0.0039215689
-36.597412 -9.3638334 -0.25775132 0.011764706
-18.443764 -5.7135963 -2.1107769 0.015686275
-22.210106 -4.5468102 -2.1496508 0.0078431377
-26.292162 -8.1282921 0.61552972 0.0039215689
-20.870708 -6.4603667 -1.5570265 0.047058824
-22.664043 -5.8109856 -1.9424866 0.0078431377
-26.933552 -9.7965641 -1.8714888 0.0078431377
-31.500193 -6.4379315 -1.9112192 0.011764706
-36.003914 -9.2121019 1.4814056 0.023529412
-29.480324 -9.1100512 -1.4727637 0.070588239
-32.226562 -8.2495337 -1.7822539 0.015686275
-41.683762 -12.863957 5.3258348 0.019607844
-24.931826 -6.3884268 2.0837569 0.0039215689
-28.120861 -10.226313 -1.2525079 0.015686275
-38.217762 -7.8053255 -1.4050957 0.019607844
-35.922104 -11.09243 -0.91426283 0.011764706
-4.5312018 -1.1705207 -2.2384994 0.047058824
-32.229195 -11.592652 -0.63297236 0.023529412
-35.759403 -9.0237312 -1.1131935 0.011764706
-7.2390342 -2.2385635 -2.1593273 0.039215688
-10.340014 -2.6313393 -2.1669359 0.019607844
-36.654339 -11.184213 -0.037694473 0.023529412
-65.836205 -13.19985 -0.84977365 0.047058824
-12.89891 -3.9599204 -2.1297119 0.023529412
-16.41864 -4.1600323 -2.1871088 0.031372551
-38.0868 -9.6088552 -0.26798269 0.011764706
-18.466408 -5.6531839 -2.1112258 0.023529412
-22.275816 -4.4829173 -2.1545467 0.0078431377
-20.86529 -6.3826194 -1.5550653 0.039215688
-22.814623 -5.7684803 -1.9537005 0.0078431377
-21.957546 -7.9111524 0.65927333 0.011764706
-27.462694 -6.9368849 0.46787751 0.0078431377
-24.996937 -9.0011578 -1.7354788 0.0078431377
-31.889402 -6.4067168 -1.9334656 0.011764706
-34.152962 -10.4229 2.050385 0.019607844
-27.289644 -6.8932257 1.1228139 0.0078431377
-29.563877 -9.028142 -1.4754496 0.070588239
-33.675377 -8.4997864 -1.8605331 0.015686275
-35.507416 -10.834174 4.5340495 0.011764706
-24.856195 -6.281044 2.0756996 0.0039215689
-55.748825 -11.181395 -2.0460997 0.047058824
-35.568459 -10.854188 -0.90441114 0.011764706
-4.542284 -1.1560464 -2.2418907 0.050980393
-24.930153 -8.8783178 -0.48969537 0.019607844
-35.693653 -8.8744278 -1.1102139 0.011764706
-7.2504811 -2.2139959 -2.1604159 0.054901961
-10.352933 -2.5957808 -2.167732 0.023529412
-36.566719 -11.017849 -0.037601359 0.023529412
-65.854393 -12.964184 -0.84945732 0.047058824
-12.920212 -3.9167521 -2.1309614 0.035294119
-16.440754 -4.1042123 -2.1881392 0.035294119
-24.990715 -8.8995857 0.12877218 0.0039215689
-38.193859 -9.4937449 -0.26852676 0.011764706
-18.482206 -5.5871553 -2.1108108 0.015686275
-22.30304 -4.4070458 -2.1556864 0.0078431377
-35.469959 -10.688236 0.82796025 0.0078431377
-20.929464 -6.3219833 -1.5581961 0.027450981
-22.892647 -5.7028008 -1.9586575 0.0078431377
-23.722385 -8.4498558 0.71114147 0.031372551
-27.148987 -6.756917 0.46212256 0.0078431377
-32.272022 -6.3658061 -1.9552398 0.015686275
-25.243114 -7.6166749 1.5153993 0.023529412
-27.391121 -6.8167725 1.1259725 0.0078431377
-29.683212 -8.9509363 -1.4798464 0.050980393
-33.918068 -8.4346371 -1.8722861 0.015686275
-25.798191 -7.7829103 3.2944112 0.0039215689
-24.978579 -6.2187958 2.0840418 0.0039215689
-55.775734 -10.984032 -2.0457008 0.047058824
-4.5427623 -1.1389292 -2.2401998 0.06666667
-37.344105 -9.1447268 -1.1603882 0.011764706
-7.2766156 -2.193754 -2.1658328 0.062745102
-10.37335 -2.5620215 -2.1701045 0.023529412
-36.578102 -10.881793 -0.037607808 0.023529412
-65.90316 -12.734595 -0.84954417 0.047058824
-12.926219 -3.8689866 -2.1297359 0.039215688
-16.481953 -4.0529895 -2.1917138 0.039215688
-59.346279 -14.514777 -0.41609806 0.047058824
-18.509214 -5.5244727 -2.1116922 0.015686275
-22.376934 -4.340085 -2.1613345 0.0078431377
-35.043125 -10.426414 0.81713474 0.0078431377
-21.039375 -6.2745852 -1.5647213 0.027450981
-22.993732 -5.642312 -1.9655906 0.015686275
-24.957439 -8.7899952 -1.7285244 0.035294119
-32.756691 -6.3419557 -1.9831629 0.015686275
-25.315485 -7.5417552 1.5181206 0.023529412
-27.480751 -6.736845 1.1286542 0.0078431377
-29.817698 -8.8775454 -1.4850028 0.023529412
-34.12191 -8.3584166 -1.8819066 0.015686275
-34.177429 -10.168797 4.3555174 0.011764706
-25.011749 -6.1340232 2.0849886 0.0039215689
-24.958494 -8.7901707 -1.1083008 0.05882353
-55.809803 -10.788117 -2.045588 0.047058824
-34.773056 -10.346772 -0.88247883 0.011764706
-4.5504198 -1.1227037 -2.2418976 0.054901961
-38.329823 -9.236167 -1.1898807 0.011764706
-7.2919879 -2.1688175 -2.1680038 0.05882353
-10.409353 -2.5299823 -2.1756303 0.023529412
-24.912327 -7.322938 -0.025876353 0.0078431377
-65.929733 -12.488837 -0.84932899 0.047058824
-12.932715 -3.8189497 -2.1285107 0.039215688
-16.496687 -3.9921389 -2.1917264 0.047058824
-59.39518 -14.295823 -0.41611564 0.047058824
-18.517876 -5.4528322 -2.1104128 0.015686275
-22.400503 -4.2591057 -2.1620984 0.0078431377
-25.992353 -7.6387286 0.60588884 0.0039215689
-21.112007 -6.2115827 -1.5684187 0.035294119
-23.126659 -5.5845866 -1.9751592 0.0078431377
-25.04413 -8.716218 0.7486822 0.015686275
-35.728764 -8.6110373 0.60668421 0.015686275
-25.046055 -8.7176495 -1.7324476 0.015686275
-33.434925 -6.3453264 -2.0226746 0.015686275
-25.36211 -7.4541235 1.5192403 0.0039215689
-30.39072 -8.9259701 -1.5118182 0.015686275
-34.296009 -8.2674026 -1.8898222 0.015686275
-34.648911 -10.170154 4.4106207 0.011764706
-25.037928 -6.0428414 2.0852911 0.0039215689
-29.507051 -10.262831 -1.3076217 0.082352944
-55.829319 -10.579365 -2.0449018 0.047058824
-34.948902 -10.259265 -0.88600051 0.011764706
-4.5576344 -1.1080685 -2.2435949 0.047058824
-31.948992 -10.98959 -0.62457412 0.098039217
-38.850456 -9.2246809 -1.2050599 0.019607844
-7.2991309 -2.1442513 -2.16801 0.050980393
-10.452019 -2.5032074 -2.1827321 0.023529412
-36.730019 -10.647608 -0.037750527 0.023529412
-65.856728 -12.24861 -0.84789747 0.047058824
-12.96808 -3.7822533 -2.1322341 0.035294119
-16.459633 -3.9251592 -2.1851211 0.062745102
-25.184673 -8.671258 0.12921512 0.039215688
-59.415005 -14.091978 -0.41596532 0.047058824
-18.528208 -5.3888159 -2.1095643 0.023529412
-35.257187 -10.221826 0.82037205 0.0078431377
-21.220642 -6.1666451 -1.5749427 0.039215688
-23.234262 -5.5286155 -1.9827496 0.0078431377
-24.444992 -8.4175892 0.72997266 0.0078431377
-21.083614 -7.2663279 -1.4580414 0.023529412
-34.182072 -6.3688822 -2.0664415 0.015686275
-35.50745 -10.293809 2.1225302 0.011764706
-30.585197 -8.8724689 -1.520013 0.023529412
-34.447613 -8.1827021 -1.896669 0.015686275
-24.906502 -5.9236112 2.0727332 0.0039215689
-29.42749 -10.12569 -1.3026527 0.06666667
-55.860161 -10.393078 -2.0447865 0.047058824
-35.013462 -10.151833 -0.8868053 0.011764706
-4.5492411 -1.0891429 -2.2385767 0.039215688
-31.932901 -10.858365 -0.62394601 0.070588239
-38.737038 -9.0534954 -1.2011069 0.011764706
-7.3123741 -2.1202166 -2.1702721 0.050980393
-10.451466 -2.4641435 -2.181294 0.035294119
-24.910208 -7.1371922 -0.026165899 0.0078431377
-13.002467 -3.7425778 -2.1361156 0.035294119
-16.479431 -3.8684504 -2.1863537 0.06666667
-59.443253 -13.877159 -0.41658857 0.047058824
-18.56073 -5.3273535 -2.111532 0.023529412
-22.541063 -4.1255665 -2.1732993 0.027450981
-32.807056 -9.3885546 0.76233679 0.0078431377
-21.32118 -6.1142826 -1.5811568 0.039215688
-23.356781 -5.4705925 -1.9919441 0.0078431377
-33.160381 -11.273677 0.98775208 0.019607844
-21.06966 -7.1786585 -1.4557129 0.031372551
-34.952991 -6.3843246 -2.1120639 0.015686275
-30.749144 -8.8023863 -1.5270542 0.035294119
-34.58353 -8.0860138 -1.9030842 0.015686275
-35.155251 -10.057121 4.4657631 0.011764706
-24.851856 -5.8180609 2.0663023 0.0039215689
-29.362974 -9.9880009 -1.2986907 0.082352944
-55.886951 -10.193949 -2.0452199 0.047058824
-7.7762289 -1.8401589 1.4678293 0
-4.5528183 -1.0736713 -2.2385798 0.06666667
-31.892881 -10.72663 -0.62250561 0.094117649
-38.626545 -8.8924255 -1.1968017 0.011764706
-7.319356 -2.095577 -2.1702783 0.054901961
-10.444283 -2.4255843 -2.1781478 0.043137256
-66.146057 -11.833899 -0.85145891 0.047058824
-13.014797 -3.6990616 -2.1361265 0.043137256
-16.453489 -3.8045294 -2.1812751 0.074509807
-23.235437 -7.8256249 0.11861441 0.0039215689
-59.473335 -13.67602 -0.41651988 0.047058824
-18.578283 -5.265398 -2.1115477 0.039215688
-22.531088 -4.0462184 -2.1710563 0.0078431377
-35.163017 -9.933917 0.81614929 0.0078431377
-21.429667 -6.0680423 -1.5876824 0.035294119
-23.475803 -5.4159169 -2.0005245 0.015686275
-23.579115 -7.9405994 0.70229924 0.0078431377
-21.093338 -7.1083741 -1.4557347 0.023529412
-35.382771 -6.3410072 -2.1366813 0.015686275
-33.442013 -9.4490862 1.9951476 0.0078431377
-30.88199 -8.7292337 -1.5322112 0.035294119
-34.676319 -7.9861031 -1.9067335 0.015686275
-36.101883 -10.197288 4.5813117 0.011764706
-24.925404 -5.7477388 2.0707865 0.0039215689
-29.342871 -9.8724251 -1.2963874 0.082352944
-55.912567 -10.006789 -2.044961 0.047058824
-4.5637817 -1.0581521 -2.2419713 0.054901961
-31.886412 -10.594171 -0.62165737 0.070588239
-59.099567 -13.362267 -1.8274273 0.062745102
-7.3195558 -2.0662551 -2.1681209 0.05882353
-10.456918 -2.3877306 -2.1789439 0.05882353
-35.350483 -9.8467741 -0.036771141 0.023529412
-74.707169 -13.079792 -0.96079826 0.050980393
-13.05872 -3.6593716 -2.141089 0.043137256
-16.540846 -3.7603703 -2.190958 0.050980393
-23.355089 -7.7701631 0.11905341 0.0039215689
-59.472328 -13.446088 -0.41620979 0.047058824
-18.60128 -5.1979132 -2.1119974 0.023529412
-22.588909 -3.9707327 -2.1752017 0.0078431377
-35.237713 -9.815258 0.81700808 0.0078431377
-21.50942 -6.0050488 -1.5919462 0.011764706
-23.623812 -5.3583713 -2.0114119 0.015686275
-9.3561478 -2.1389163 0.15909071 0
-21.153343 -7.0418873 -1.4580957 0.015686275
-35.567028 -6.2390471 -2.146399 0.015686275
-25.641941 -7.1514063 1.5295948 0.0039215689
-31.044662 -8.6519051 -1.5387012 0.023529412
-34.794964 -7.8787532 -1.9116648 0.015686275
-35.404404 -9.860611 4.4884291 0.011764706
-9.0273399 -2.0646143 0.75482285 0
-29.356081 -9.7568598 -1.2954203 0.06666667
-55.929165 -9.7979298 -2.0442734 0.047058824
-0.8780123 -0.22610101 0.18337493 0.0078431377
-35.255257 -9.8205538 -0.89080423 0.011764706
-4.5603633 -1.0402433 -2.2385864 0.050980393
-31.900385 -10.474944 -0.62124896 0.094117649
-38.025631 -8.4677 -1.1764016 0.011764706
-7.3155718 -2.03724 -2.1648812 0.054901961
-10.453693 -2.3482642 -2.1765862 0.027450981
-13.075215 -3.6144092 -2.1417193 0.05882353
-16.519005 -3.6944704 -2.1863885 0.062745102
-59.51889 -13.238013 -0.41625053 0.047058824
-18.496567 -5.0989394 -2.0981803 0.039215688
-22.516268 -3.8766737 -2.1669464 0.0078431377
-33.451237 -9.1933002 0.77490675 0.0078431377
-25.378532 -6.9833865 -1.8749019 0.0039215689
-23.774681 -5.3048463 -2.0226281 0.015686275
-34.914497 -11.460428 1.0361304 0.043137256
-179.81993 -39.938332 3.0338063 0.10980392
-21.215725 -6.9800172 -1.4607149 0.0078431377
-35.624004 -6.1205206 -2.148546 0.015686275
-25.963316 -7.1426768 1.547178 0.0039215689
-31.228811 -8.5852995 -1.5463299 0.015686275
-34.896336 -7.773293 -1.9157414 0.015686275
-33.791824 -9.2857018 4.2804565 0.011764706
-29.386154 -9.652688 -1.2952846 0.082352944
-55.939384 -9.5981922 -2.0434401 0.047058824
-4.570858 -1.0262815 -2.2419772 0.047058824
-31.912104 -10.361341 -0.62083858 0.070588239
-37.979275 -8.3249626 -1.1741397 0.011764706
-7.3297133 -2.0145986 -2.1670516 0.06666667
-10.469077 -2.3148792 -2.1781695 0.023529412
-35.4939 -9.62603 -0.036909115 0.023529412
-87.054115 -14.627068 -1.1180128 0.082352944
-13.060416 -3.5634313 -2.1373982 0.082352944
-16.554413 -3.6443715 -2.1894529 0.035294119
-34.95808 -11.346337 0.17780687 0.078431375
-59.585903 -13.045315 -0.41645178 0.047058824
-18.50185 -5.034081 -2.0968986 0.035294119
-22.576122 -3.8095119 -2.1714664 0.0078431377
-35.199451 -9.5462437 0.81454223 0.0078431377
-25.463169 -6.9154673 -1.8794495 0.0039215689
-24.045277 -5.2809062 -2.0440547 0.015686275
-41.427338 -13.438534 1.2275546 0.043137256
-21.288116 -6.9252167 -1.4641122 0.0078431377
-35.616528 -5.9973454 -2.1469066 0.015686275
-31.492382 -8.5449076 -1.557948 0.0078431377
-35.054585 -7.6861367 -1.923016 0.015686275
-34.822876 -9.4435949 4.4066439 0.011764706
-29.444611 -9.5634193 -1.2964808 0.082352944
-55.974838 -9.4129171 -2.0436099 0.047058824
-5.8090167 -1.2961516 1.0981762 0
-35.317406 -9.578537 -0.89076662 0.011764706
-4.5744028 -1.0099189 -2.2419803 0.06666667
-31.944254 -10.248269 -0.62079781 0.023529412
-7.3739004 -1.9985205 -2.1778784 0.090196081
-10.473249 -2.2770965 -2.1773882 0.023529412
-36.203663 -9.6819582 -0.037626263 0.023529412
-87.203293 -14.338906 -1.1193186 0.082352944
-13.068946 -3.5164015 -2.1367905 0.05882353
-16.644602 -3.6028297 -2.1996443 0.047058824
-25.346497 -8.13939 0.12870526 0.0039215689
-18.611517 -4.9936466 -2.1072893 0.027450981
-22.648216 -3.7399611 -2.1771135 0.0078431377
-35.224823 -9.420866 0.81433433 0.0078431377
-25.548828 -6.8425832 -1.8839982 0.0039215689
-24.519558 -5.2945051 -2.082612 0.0078431377
-35.422058 -11.359296 1.0487708 0.023529412
-21.346369 -6.8614039 -1.4664713 0.0078431377
-36.094303 -5.9476314 -2.1743634 0.015686275
-35.735405 -9.5566387 2.123297 0.011764706
-38.143856 -8.2205982 1.5545598 0.023529412
-31.892633 -8.5333138 -1.576219 0.0078431377
-35.202259 -7.5893331 -1.9296514 0.015686275
-35.058964 -9.3757963 4.4322448 0.011764706
-38.132118 -8.2177773 3.153543 0.015686275
-29.500643 -9.4674816 -1.2975112 0.06666667
-55.995506 -9.215127 -2.0432062 0.047058824
-35.555405 -9.5093842 -0.89593625 0.011764706
-4.5743451 -0.99279654 -2.2402892 0.094117649
-36.068115 -11.427255 -0.699826 0.023529412
-38.067738 -8.0654383 -1.1751519 0.050980393
-7.3919945 -1.9753064 -2.1811309 0.06666667
-10.484961 -2.2409363 -2.1781833 0.023529412
-36.144379 -9.5307388 -0.037561983 0.023529412
-87.221207 -14.028973 -1.1189549 0.082352944
-13.073487 -3.468354 -2.1355641 0.05882353
-16.757996 -3.5656264 -2.2128892 0.047058824
-25.142069 -7.9770088 0.12749809 0.011764706
-38.131138 -8.078661 -0.26669756 0.10588235
-18.640364 -4.9312859 -2.1086018 0.035294119
-22.751551 -3.6750112 -2.1857665 0.0078431377
-27.131464 -7.1620483 0.62705684 0.0039215689
-25.622715 -6.766149 -1.8876976 0.0039215689
-25.025427 -5.3114529 -2.1238046 0.015686275
-38.138615 -8.0800734 0.64286053 0.14117648
-26.383068 -8.3694239 -1.8085222 0.0078431377
-35.838863 -5.7768855 -2.1578219 0.015686275
-27.198015 -7.1793056 1.6159316 0.0039215689
-32.930786 -8.6866007 -1.6258487 0.0078431377
-35.34967 -7.4916015 -1.9362869 0.015686275
-35.02618 -9.235837 4.4239945 0.011764706
-29.586853 -9.3809032 -1.2998753 0.06666667
-56.019428 -9.0179548 -2.0429451 0.047058824
-8.2864418 -2.2093039 2.3170059 0
-38.134972 -8.078125 7.0864444 0.015686275
-35.340855 -9.3197784 -0.88975894 0.011764706
-4.5813212 -0.97715765 -2.2419865 0.06666667
-35.989429 -11.263961 -0.69757771 0.023529412
-38.256157 -7.9654117 -1.1801099 0.023529412
-7.3988357 -1.9490891 -2.1811371 0.10196079
-10.48887 -2.2031229 -2.1774015 0.035294119
-37.091255 -9.6408529 -0.038519762 0.023529412
-63.277569 -9.9566078 -0.81195813 0.047058824
-13.058726 -3.4153559 -2.1312432 0.05882353
-16.781982 -3.5091214 -2.214427 0.035294119
-35.151318 -11.002285 0.17808731 0.019607844
-18.703646 -4.8777518 -2.1138043 0.039215688
-22.811441 -3.6025782 -2.1902859 0.0078431377
-27.063383 -7.0428319 0.62489575 0.0039215689
-25.704105 -6.6912732 -1.891963 0.0039215689
-25.223358 -5.2609224 -2.138974 0.015686275
-27.783882 -8.7047873 -1.9020432 0.0078431377
-35.898251 -5.6575341 -2.1602037 0.015686275
-27.25383 -7.0919404 1.6177385 0.0039215689
-33.212303 -8.6363239 -1.638229 0.0078431377
-35.520302 -7.3977847 -1.9442017 0.015686275
-36.388153 -9.4576349 4.5912824 0.011764706
-29.691902 -9.299777 -1.3030725 0.06666667
-56.022915 -8.8176003 -2.0419655 0.047058824
-35.624771 -9.2611389 -0.89609176 0.011764706
-4.5846944 -0.9607591 -2.2419894 0.05882353
-35.673069 -11.028356 -0.69075948 0.023529412
-67.877174 -13.865359 -2.0891454 0.070588239
-7.4093151 -1.9238027 -2.1822252 0.098039217
-10.477275 -2.1621778 -2.1734662 0.039215688
-38.023819 -9.7405195 -0.039462809 0.027450981
-63.157745 -9.7116079 -0.81001407 0.047058824
-13.062902 -3.3673954 -2.1300161 0.050980393
-16.755247 -3.4421921 -2.2093472 0.054901961
-36.98996 -11.43384 0.18717064 0.011764706
-66.087898 -13.500259 -0.4605414 0.054901961
-18.724403 -4.8130178 -2.1142519 0.047058824
-22.737274 -3.5092387 -2.1820295 0.0078431377
-35.329262 -9.05229 0.81442618 0.0078431377
-6.2328224 -0.97634202 0.067581654 0
-25.765959 -6.61098 -1.8948131 0.0039215689
-25.307962 -5.1859832 -2.1445897 0.0078431377
-25.978451 -8.0410433 0.76725131 0.0078431377
-27.75687 -8.5897198 -1.8981751 0.0078431377
-35.795418 -5.5130138 -2.1528864 0.015686275
-27.301628 -7.0023036 1.6190883 0.0039215689
-34.523628 -8.8471479 -1.7011645 0.0078431377
-35.690716 -7.3028774 -1.9521165 0.015686275
-35.936184 -9.2064171 4.5303235 0.011764706
-29.873129 -9.2415714 -1.3096038 0.015686275
-56.088902 -8.6270447 -2.0432827 0.047058824
-35.776985 -9.1670017 -0.89912701 0.011764706
-4.5773516 -0.94221467 -2.2369099 0.06666667
-35.477943 -10.83236 -0.68629849 0.023529412
-67.913383 -13.625598 -2.0888257 0.070588239
-7.4085069 -1.8956491 -2.1800671 0.054901961
-10.469367 -2.1221135 -2.1703193 0.050980393
-37.910168 -9.5702562 -0.039343156 0.027450981
-13.051572 -3.3155925 -2.1263139 0.047058824
-16.751587 -3.3801713 -2.2073214 0.078431375
-37.006676 -11.297281 0.18701839 0.011764706
-66.103233 -13.262826 -0.46036381 0.054901961
-18.798925 -4.7617884 -2.1207514 0.035294119
-22.899035 -3.4518864 -2.1963184 0.015686275
-35.469223 -8.9558516 0.81689346 0.0078431377
-25.81595 -6.5274215 -1.8968141 0.0039215689
-25.384529 -5.1089587 -2.1495464 0.0078431377
-26.473028 -8.0919256 0.78094745 0.0078431377
-27.660656 -8.4540377 -1.8896316 0.0078431377
-35.885513 -5.3982921 -2.1571598 0.015686275
-27.337509 -6.909502 1.6197525 0.0039215689
-34.720901 -8.7681208 -1.7093643 0.0078431377
-35.806057 -7.1958971 -1.9570445 0.015686275
-30.256948 -9.2438841 -1.3249711 0.031372551
-56.11076 -8.4296331 -2.0430198 0.047058824
-36.378815 -9.1851196 -0.91341305 0.011764706
-4.591269 -0.92792827 -2.2419949 0.054901961
-35.752998 -10.77941 -0.69090235 0.023529412
-67.925209 -13.381107 -2.0877829 0.070588239
-7.3963804 -1.8647417 -2.1746624 0.05882353
-10.453614 -2.0806143 -2.1655953 0.039215688
-13.147442 -3.2905369 -2.1399376 0.035294119
-16.720455 -3.3128545 -2.2017324 0.050980393
-37.229752 -11.22289 0.18791161 0.011764706
-66.121635 -13.026202 -0.46021253 0.054901961
-18.85788 -4.706265 -2.1255212 0.039215688
-22.977919 -3.3813329 -2.2027159 0.0078431377
-35.41098 -8.8094616 0.8148163 0.0078431377
-25.904404 -6.4531903 -1.9016446 0.0039215689
-25.453051 -5.0299163 -2.1538441 0.0078431377
-26.298151 -7.9380984 0.77496111 0.0078431377
-7.2377048 -1.4478928 0.12257229 0
-27.743505 -8.3731136 -1.8932943 0.0078431377
-36.085869 -5.2991858 -2.1680567 0.015686275
-36.660278 -9.1188908 2.168191 0.011764706
-34.879261 -8.678196 -1.7156633 0.0078431377
-35.921089 -7.088191 -1.9619721 0.015686275
-30.56077 -9.21947 -1.3368374 0.035294119
-56.143787 -8.2338953 -2.0431867 0.047058824
-35.805157 -8.9075642 -0.89831018 0.011764706
-4.5944705 -0.91149521 -2.2419977 0.054901961
-35.732883 -10.637084 -0.68983072 0.023529412
-65.769157 -12.718448 -2.0203106 0.06666667
-7.3953533 -1.836684 -2.1725039 0.06666667
-10.51856 -2.0548604 -2.1774271 0.023529412
-63.057968 -9.0202627 -0.80756456 0.047058824
-13.112769 -3.2329705 -2.1325221 0.039215688
-16.731907 -3.2540679 -2.2017422 0.031372551
-25.453794 -7.5873713 0.12826487 0.0039215689
-66.147057 -12.791128 -0.46011487 0.054901961
-18.885773 -4.6428404 -2.1268325 0.039215688
-22.946207 -3.2945123 -2.1985917 0.0078431377
-35.324959 -8.65695 0.81211609 0.0078431377
-6.8207765 -0.99236643 0.073786885 0
-25.965521 -6.3717937 -1.9044939 0.0039215689
-25.53307 -4.9527245 -2.1591296 0.0078431377
-27.753424 -8.2701454 -1.8920223 0.0078431377
-36.036942 -5.1631961 -2.1640496 0.015686275
-5.9200144 -1.4758332 0.35477117 0
-35.07235 -8.5958052 -1.7236726 0.0078431377
-36.09856 -6.9918818 -1.9703126 0.015686275
-11.628006 -2.268471 0.96341741 0
-30.80732 -9.1759958 -1.3462032 0.035294119
-56.184052 -8.0391598 -2.0436404 0.047058824
-10.213512 -1.9953127 1.9058981 0
-37.172344 -9.1084909 -0.93170452 0.011764706
-4.5995321 -0.89557695 -2.2437572 0.050980393
-34.770649 -10.218235 -0.67110878 0.023529412
-65.796265 -12.482761 -2.0206761 0.06666667
-7.4075933 -1.8119949 -2.1747682 0.06666667
-10.547182 -2.0217175 -2.1822987 0.031372551
-9.2780428 -2.2613189 -0.010380746 0.0039215689
-63.285839 -8.8247089 -0.81091589 0.047058824
-13.145472 -3.1918254 -2.1364076 0.027450981
-16.749403 -3.1960726 -2.2029805 0.031372551
-36.484478 -10.719863 0.18327209 0.011764706
-6.1503515 -1.1888424 -0.044217315 0
-18.931293 -4.5831919 -2.1305373 0.039215688
-23.030951 -3.2235231 -2.2060349 0.0078431377
-35.65694 -8.6047039 0.81860876 0.0078431377
-26.024973 -6.2890234 -1.9076595 0.0039215689
-25.568296 -4.8658695 -2.1611099 0.0078431377
-26.574148 -7.8176446 0.78111953 0.0078431377
-27.784603 -8.1728382 -1.8926367 0.0078431377
-36.254959 -5.0636029 -2.1765881 0.015686275
-7.908824 -1.5217363 0.32369551 0
-35.287281 -8.5163727 -1.7332492 0.0078431377
-36.631538 -6.9605989 -1.9985188 0.019607844
-31.06415 -9.1330452 -1.3564358 0.035294119
-56.194569 -7.8381262 -2.043797 0.047058824
-10.280735 -1.9705729 1.9171771 0
-37.054867 -8.9412622 -0.9284941 0.011764706
-4.6024671 -0.87993288 -2.2437599 0.054901961
-34.773594 -10.0936 -0.67055029 0.023529412
-65.817635 -12.260462 -2.0201111 0.06666667
-7.4135518 -1.7870343 -2.1747737 0.050980393
-10.580806 -1.9913626 -2.1878235 0.031372551
-13.171356 -3.151475 -2.1388929 0.027450981
-16.779402 -3.1437519 -2.2055354 0.035294119
-24.904062 -7.23878 0.12490567 0.0039215689
-18.957987 -4.5227528 -2.1318481 0.039215688
-23.053341 -3.1483524 -2.2071714 0.0078431377
-26.115562 -6.2188621 -1.912773 0.0039215689
-25.580359 -4.7799392 -2.1607947 0.0078431377
-33.110401 -9.6121025 0.97163451 0.019607844
-27.807709 -8.0791597 -1.8924022 0.0078431377
-36.271542 -4.9429617 -2.1766021 0.015686275
-35.451385 -8.4311695 -1.7399291 0.0078431377
-37.451588 -6.9869094 -2.0418534 0.019607844
-31.328444 -9.0973349 -1.3666375 0.035294119
-56.220242 -7.6513472 -2.0438187 0.047058824
-4.60535 -0.86428154 -2.2437625 0.078431375
-34.656887 -9.9350271 -0.6677047 0.023529412
-67.517746 -12.344679 -2.0709543 0.070588239
-7.4269271 -1.7638091 -2.1769435 0.050980393
-10.622063 -1.9622197 -2.1949253 0.023529412
-63.287441 -8.3967047 -0.81025529 0.047058824
-13.204813 -3.1127915 -2.1426156 0.023529412
-25.666372 -7.366724 0.12858754 0.0039215689
-18.988356 -4.4631004 -2.1335912 0.039215688
-23.047852 -3.0694206 -2.2056766 0.0078431377
-26.194309 -6.1454601 -1.9170368 0.0039215689
-25.619591 -4.6990051 -2.1627858 0.0078431377
-26.090982 -7.4878407 0.76544654 0.0078431377
-6.464272 -1.2031206 0.10924025 0
-27.872713 -7.9974947 -1.8950249 0.0078431377
-36.248142 -4.8170438 -2.1742499 0.015686275
-35.642551 -8.3513479 -1.7479395 0.0078431377
-38.008945 -6.9598327 -2.070893 0.019607844
-31.608204 -9.0643778 -1.3775063 0.015686275
-56.245293 -7.4645119 -2.0438399 0.047058824
-4.6084766 -0.84696823 -2.2437651 0.078431375
-34.827793 -9.8454599 -0.67032045 0.023529412
-68.026955 -12.179683 -2.0852013 0.070588239
-7.4408379 -1.7378715 -2.1791134 0.050980393
-10.640753 -1.9249153 -2.1972966 0.023529412
-63.246376 -8.1550627 -0.80936944 0.047058824
-13.219975 -3.0648267 -2.143245 0.023529412
-16.668129 -3.0019922 -2.1882458 0.031372551
-25.774046 -7.2949529 0.12896751 0.0039215689
-19.027832 -4.3983831 -2.1362004 0.035294119
-22.754808 -2.945359 -2.1767476 0.0078431377
-6.8079243 -1.5920546 0.15741964 0
-26.282757 -6.0641603 -1.9218686 0.0039215689
-25.675877 -4.6116533 -2.1660957 0.015686275
-26.079756 -7.380899 0.76429695 0.0078431377
-27.913359 -7.898097 -1.8958316 0.0078431377
-36.324944 -4.6913629 -2.1778133 0.015686275
-35.809212 -8.2515192 -1.7546216 0.0078431377
-38.521751 -6.9071717 -2.097374 0.019607844
-31.964336 -9.0390615 -1.3915471 0.015686275
-56.240551 -7.2537904 -2.0427129 0.047058824
-38.929943 -8.9679146 -0.97302806 0.015686275
-4.61482 -0.83192074 -2.2454617 0.06666667
-35.669388 -9.954565 -0.68584263 0.023529412
-62.880424 -11.04453 -1.9266686 0.06666667
-7.4540634 -1.7145001 -2.181283 0.050980393
-10.647069 -1.889232 -2.1973023 0.035294119
-63.400059 -7.960813 -0.81101185 0.047058824
-13.222347 -3.018841 -2.1420164 0.023529412
-16.693617 -2.9490554 -2.1902907 0.031372551
-26.010036 -7.2680087 0.13000572 0.0039215689
-19.073334 -4.3418908 -2.1396725 0.039215688
-22.859278 -2.8813808 -2.1857753 0.0078431377
-26.372765 -5.992425 -1.9269813 0.0039215689
-25.844156 -4.5529389 -2.1789589 0.023529412
-33.477249 -9.3444767 0.9794116 0.019607844
-27.962458 -7.8115201 -1.8974144 0.0078431377
-36.253132 -4.5595694 -2.1726208 0.015686275
-35.988354 -8.1667089 -1.7620616 0.0078431377
-39.122787 -6.8803792 -2.1287611 0.019607844
-56.284122 -7.0693464 -2.0434513 0.047058824
-59.280258 -13.433516 -1.4787244 0.050980393
