# .PCD v0.7 - Point Cloud Data file format
VERSION 0.7
FIELDS x y z intensity
SIZE 4 4 4 4
TYPE F F F F
COUNT 1 1 1 1
WIDTH 1121
HEIGHT 1
VIEWPOINT 0 0 0 1 0 0 0
POINTS 1121
DATA ascii
22.926882 23.102104 0.75569159 0.027450981
24.24748 20.070782 0.36522162 0.0078431377
19.71455 18.015966 -2.1829672 0.015686275
25.433958 28.261854 1.1042392 0.14117648
25.259659 23.077528 0.59564537 0.015686275
22.437866 24.935163 -2.1531453 0.019607844
24.245163 20.068356 -1.8353631 0.011764706
22.933582 23.109123 1.8949242 0.031372551
24.262424 22.167547 1.3378179 0.019607844
22.860527 23.034763 -1.5144769 0.0078431377
24.267195 22.171177 -1.7253057 0.015686275
22.952013 23.128189 4.000639 0.011764706
25.297293 23.112396 2.7967544 0.011764706
25.429174 28.255875 -1.5520326 0.078431375
18.171846 18.317591 6.9161258 0.031372551
24.233894 22.142612 5.9862752 0.011764706
22.910086 23.084827 -0.75920248 0.035294119
3.5838954 3.2708158 -2.2704661 0.031372551
25.330347 22.979946 -0.9976607 0.011764706
5.7166238 5.738771 -2.2723961 0.062745102
8.3959513 7.6319861 -2.2731383 0.023529412
22.999533 23.013813 -0.0020151287 0.047058824
10.09322 10.113246 -2.2261784 0.023529412
13.15117 11.941646 -2.2641284 0.027450981
25.340597 22.989422 -0.20078775 0.011764706
14.243095 14.261112 -2.1739893 0.015686275
18.285309 15.032989 -2.2123544 0.027450981
23.035671 23.050119 0.75663906 0.019607844
21.907856 21.92214 -2.1702242 0.011764706
19.786182 17.954983 -2.183928 0.023529412
25.559322 28.202421 1.1054223 0.023529412
25.375622 23.021357 0.59650129 0.015686275
22.524775 24.8566 -2.1531255 0.019607844
24.231735 19.915104 -1.8290594 0.011764706
23.045174 23.059895 1.897499 0.019607844
24.250813 22.002115 1.33296 0.019607844
22.963406 22.977335 -1.5159485 0.0078431377
24.270443 22.019182 -1.7200462 0.015686275
23.057873 23.073103 4.0050435 0.011764706
25.395538 23.039927 2.7987268 0.011764706
25.541084 28.181648 -1.5528257 0.019607844
24.291965 19.96472 -1.1000409 0.035294119
18.137297 18.155624 6.878881 0.015686275
24.246891 21.999657 5.9705153 0.011764706
23.021641 23.035727 -0.7602095 0.023529412
3.595854 3.2575722 -2.270463 0.031372551
25.450064 22.918957 -0.9990378 0.011764706
5.734879 5.7149825 -2.2713125 0.054901961
8.4238615 7.6010761 -2.2731309 0.023529412
23.126307 22.97154 -0.0019984487 0.047058824
24.371923 19.881304 -0.36775294 0.0078431377
10.118988 10.064966 -2.2237089 0.023529412
13.180092 11.880011 -2.2615905 0.019607844
25.475227 22.941784 -0.20116478 0.011764706
14.303731 14.217134 -2.1752627 0.015686275
18.321749 14.95069 -2.2101071 0.027450981
23.193792 23.038683 0.7590723 0.019607844
24.381166 19.889006 0.36512259 0.0078431377
21.976717 21.830374 -2.1690876 0.011764706
19.845921 17.876926 -2.1832595 0.031372551
26.334133 28.843386 1.1343471 0.023529412
25.525232 22.986959 0.59805423 0.015686275
22.599558 24.756113 -2.1515677 0.019607844
23.431595 19.114727 -1.7634044 0.011764706
23.208895 23.053944 1.9040238 0.019607844
24.245113 21.835476 1.3282655 0.019607844
23.09 22.935144 -1.5187236 0.0078431377
24.273764 21.860533 -1.7145762 0.015686275
23.22682 23.072247 4.0196805 0.011764706
25.462017 22.930609 2.7967973 0.011764706
26.415312 28.931528 -1.5994551 0.019607844
24.380463 19.888094 -1.1007193 0.015686275
18.093998 17.98008 6.8374963 0.0039215689
24.298092 21.884232 5.9633636 0.011764706
23.171194 23.015892 -0.76233506 0.011764706
3.6071994 3.2449174 -2.2704599 0.031372551
26.490719 28.811655 -0.68616295 0.027450981
25.649183 22.936443 -1.0036801 0.011764706
5.7547898 5.6948447 -2.2713075 0.043137256
8.4415646 7.5637021 -2.2707698 0.023529412
23.314625 22.997263 -0.0019885579 0.023529412
24.484705 19.831242 -0.36838788 0.0078431377
10.154058 10.029498 -2.2237003 0.027450981
13.227397 11.839131 -2.2625902 0.019607844
25.674475 22.959225 -0.20208259 0.011764706
14.34477 14.158657 -2.1739645 0.015686275
18.376921 14.889062 -2.2104642 0.035294119
24.524559 24.189623 0.79982924 0.0078431377
24.475319 19.823814 0.36551318 0.0078431377
22.030048 21.731033 -2.1668346 0.011764706
19.926041 17.823391 -2.1851971 0.023529412
26.551086 28.877703 1.1393613 0.023529412
36.604996 32.724262 0.85471094 0.031372551
22.720984 24.71517 -2.1548777 0.019607844
21.610704 17.505623 -1.6218771 0.0078431377
24.481049 24.147039 2.0013771 0.0078431377
24.252636 21.689383 1.3245457 0.019607844
23.289459 22.972099 -1.5265319 0.0078431377
25.57427 22.869331 -1.8006881 0.015686275
22.778376 22.469851 3.9285903 0.011764706
25.535955 22.836187 2.7961679 0.011764706
26.52968 28.85376 -1.6002475 0.019607844
24.468384 19.817865 -1.1015385 0.015686275
18.010784 17.772987 6.7826552 0.0039215689
24.386072 21.809681 5.9662528 0.011764706
24.499044 24.164091 -0.80318493 0.011764706
3.6179366 3.2328577 -2.270457 0.035294119
26.637754 28.779305 -0.6874727 0.027450981
35.366745 31.407129 -1.3795226 0.023529412
5.7598753 5.662178 -2.2659099 0.031372551
8.4724655 7.5407925 -2.2723327 0.019607844
32.966976 32.292885 -0.002823187 0.043137256
10.190084 9.9984522 -2.2243073 0.027450981
13.263616 11.792487 -2.2620745 0.023529412
26.665762 28.809761 0.2255324 0.011764706
36.721371 32.609482 -0.28812072 0.023529412
14.40301 14.122054 -2.1756675 0.015686275
18.419983 14.822965 -2.2097065 0.035294119
22.03355 21.590788 -2.1601143 0.011764706
19.996964 17.767714 -2.1864841 0.023529412
24.983696 26.994392 1.0683459 0.019607844
24.182426 21.482561 0.56323117 0.011764706
22.819092 24.657173 -2.1563952 0.019607844
32.999435 32.325306 2.688313 0.019607844
24.222788 21.518555 1.3190359 0.019607844
32.959965 32.2855 -2.1527467 0.015686275
33.31356 29.5849 -2.3382006 0.039215688
24.22496 21.520798 2.6449521 0.011764706
26.698555 28.844698 -1.6046296 0.019607844
17.970217 17.615774 6.7454081 0.0039215689
33.006714 32.33152 -1.0783283 0.019607844
3.6305926 3.2198181 -2.2704556 0.035294119
5.7839227 5.6441884 -2.2669733 0.031372551
8.4945288 7.5052705 -2.2707419 0.023529412
33.177498 32.267239 -0.0026825299 0.043137256
21.65756 17.29756 -0.32399249 0.082352944
10.218265 9.9537249 -2.222425 0.043137256
13.315593 11.752949 -2.2635496 0.023529412
14.454337 14.070579 -2.1756098 0.015686275
18.508024 14.784515 -2.2137508 0.027450981
33.125423 32.216873 1.0729165 0.015686275
21.663767 17.30265 0.32185453 0.05882353
22.094229 21.495436 -2.1583436 0.011764706
20.055241 17.691042 -2.1857648 0.015686275
21.65366 17.29417 -1.6159848 0.070588239
33.347382 32.432953 2.7072792 0.019607844
32.413876 31.524626 -2.1095479 0.015686275
22.882242 22.26265 3.9199369 0.0078431377
24.2906 21.423748 2.6437361 0.011764706
21.661489 17.300554 -0.96978605 0.10196079
17.942553 17.462635 6.7113271 0.0039215689
24.326981 21.456524 5.9154325 0.011764706
33.317715 32.403259 -1.0845233 0.019607844
3.6499903 3.2142088 -2.2755246 0.047058824
24.415184 21.381672 -0.94654709 0.0078431377
5.806356 5.6265621 -2.2680473 0.031372551
8.5265741 7.4806623 -2.2723048 0.023529412
3.9953744 3.8793197 -0.00022906571 0
21.714663 17.219297 -0.32392946 0.10980392
10.198903 9.8657713 -2.2107289 0.047058824
13.353542 11.703709 -2.2630341 0.019607844
14.503357 14.019961 -2.1755984 0.015686275
18.525171 14.692546 -2.2096455 0.027450981
31.977343 30.884644 1.0322901 0.015686275
21.733427 17.234301 0.32201001 0.098039217
22.17486 21.423649 -2.1588848 0.011764706
20.125864 17.628731 -2.1867263 0.023529412
27.238913 29.014393 1.1560332 0.023529412
37.412922 32.753605 0.86576176 0.031372551
22.900541 24.396599 -2.1475489 0.019607844
21.717014 17.220882 -1.616201 0.10588235
35.224598 34.018948 2.8499491 0.019607844
24.254707 21.241774 1.3126347 0.019607844
32.627209 31.511106 -2.1162312 0.015686275
23.022648 22.243221 3.9306748 0.011764706
37.405281 32.747623 4.057302 0.031372551
21.724873 17.227245 -0.96990955 0.10980392
17.900526 17.300541 6.6730452 0.0039215689
24.241787 21.231474 5.8767185 0.011764706
35.231888 34.02507 -1.142897 0.019607844
3.6617429 3.200726 -2.2755218 0.039215688
27.366364 28.936335 -0.69800687 0.027450981
37.495544 32.583366 -1.4485763 0.023529412
5.8297162 5.6078238 -2.2691209 0.031372551
8.5628176 7.4569917 -2.274652 0.035294119
35.377415 33.91605 -0.0027893442 0.043137256
21.78706 17.146923 -0.32405251 0.11372549
10.280657 9.8719883 -2.2205627 0.090196081
13.402342 11.659804 -2.2640338 0.023529412
27.392006 28.963638 0.22921327 0.011764706
33.198067 28.851549 -0.25786197 0.023529412
14.566132 13.977632 -2.1773009 0.015686275
18.544455 14.597387 -2.2055395 0.027450981
32.488823 31.148914 1.0451256 0.015686275
21.793301 17.151968 0.32198074 0.094117649
22.235945 21.325583 -2.1571906 0.011764706
20.157232 17.526007 -2.1831279 0.015686275
27.427526 29.001383 1.1595393 0.023529412
33.181416 28.837313 0.76549006 0.031372551
23.03371 24.358795 -2.1516266 0.019607844
21.786266 17.146023 -1.6166495 0.11372549
35.334637 33.875713 2.8488171 0.019607844
24.275066 21.10285 1.3095645 0.019607844
32.580914 31.236431 -2.1057677 0.015686275
32.785286 28.492636 -2.2793522 0.039215688
25.497812 24.452034 4.3375421 0.011764706
37.56118 32.641582 4.0612359 0.031372551
27.411089 28.983366 -1.6284167 0.019607844
21.79101 17.149891 -0.97003216 0.10196079
17.871744 17.146523 6.6389036 0.0039215689
5.2332182 4.5662317 1.2689632 0
35.333263 33.873497 -1.1421212 0.019607844
3.6888027 3.202698 -2.2856631 0.039215688
27.542171 28.929321 -0.70001781 0.027450981
33.277054 28.726778 -1.2819796 0.023529412
5.8454862 5.5857329 -2.268038 0.027450981
8.5785828 7.4207964 -2.2722917 0.023529412
35.504169 33.812267 -0.0027638781 0.043137256
21.843792 17.074509 -0.32403699 0.12156863
10.270386 9.7968998 -2.211328 0.054901961
13.434916 11.610041 -2.2630136 0.019607844
27.587227 28.976822 0.23006189 0.015686275
33.27235 28.722946 -0.25767353 0.023529412
14.612397 13.92918 -2.17729 0.015686275
18.633562 14.567602 -2.2103615 0.027450981
7.8420625 7.4864354 0.2521067 0
21.85951 17.08692 0.32213548 0.098039217
22.34411 21.287416 -2.160804 0.011764706
20.212214 17.45639 -2.1827874 0.0078431377
27.631107 29.023088 1.1640884 0.043137256
37.670948 32.517578 0.86651564 0.031372551
23.086817 24.253309 -2.1490479 0.019607844
21.842999 17.073612 -1.616634 0.10588235
35.443874 33.755531 2.8486111 0.019607844
24.263195 20.951679 1.3051915 0.019607844
32.021484 30.497353 -2.0630672 0.015686275
32.698109 28.227144 -2.2667558 0.039215688
25.489592 24.282423 4.3224564 0.011764706
37.705425 32.548027 4.065166 0.031372551
27.606297 28.996401 -1.6342669 0.035294119
21.847754 17.077463 -0.9700166 0.12941177
17.833334 16.996519 6.6037245 0.0039215689
24.985329 21.575655 6.0202112 0.011764706
35.404835 33.71748 -1.1407887 0.019607844
3.7027092 3.1920807 -2.2873509 0.043137256
27.762056 28.957006 -0.70300847 0.047058824
37.816658 32.413071 -1.4523665 0.023529412
5.867744 5.5678587 -2.2691119 0.031372551
8.5686836 7.3601079 -2.2628689 0.023529412
35.598724 33.666058 -0.0027339375 0.043137256
21.919067 17.010323 -0.32425424 0.12156863
10.301645 9.7581921 -2.2107046 0.047058824
13.49344 11.578481 -2.2660346 0.019607844
27.790676 28.987047 0.2309348 0.015686275
37.834999 32.429031 -0.29209143 0.023529412
14.6696 13.886199 -2.1785641 0.015686275
18.722071 14.531666 -2.2148111 0.027450981
21.919022 17.010426 0.32215187 0.098039217
22.328379 21.124245 -2.1521294 0.011764706
20.257883 17.372679 -2.1811435 0.0078431377
27.84852 29.047546 1.1689872 0.043137256
37.796375 32.396206 0.86682302 0.031372551
23.132643 24.132164 -2.1454437 0.019607844
21.908775 17.002068 -1.6170831 0.086274512
35.555679 33.626026 2.8481746 0.019607844
24.26333 20.804371 1.3013068 0.019607844
7.1793389 6.8078084 -0.46205866 0
32.720592 28.047783 -2.2614918 0.039215688
25.568424 24.187756 4.3215022 0.011764706
37.888447 32.475773 4.0726757 0.047058824
27.818039 29.015125 -1.6407681 0.035294119
21.91671 17.008358 -0.97041947 0.10980392
17.797079 16.843843 6.5685472 0.0039215689
24.537483 21.040209 5.8947062 0.011764706
35.563007 33.632046 -1.1420666 0.019607844
3.7193472 3.1837556 -2.290729 0.039215688
37.972198 32.317062 -1.4539692 0.023529412
5.8871384 5.5472651 -2.2691073 0.031372551
8.5853529 7.322453 -2.2605083 0.015686275
24.329113 22.855167 -0.0018106351 0.023529412
21.98147 16.936073 -0.32428458 0.094117649
10.335639 9.7220984 -2.2106965 0.062745102
13.542836 11.538945 -2.2675402 0.019607844
37.984516 32.327793 -0.29234374 0.023529412
14.741175 13.856604 -2.1819813 0.015686275
18.775831 14.468581 -2.215169 0.035294119
21.990932 16.943497 0.32235381 0.086274512
22.399061 21.043373 -2.1518323 0.011764706
20.32143 17.304369 -2.1814537 0.0078431377
37.97319 32.318413 0.86831391 0.031372551
21.977476 16.932724 -1.6177647 0.10588235
24.271862 20.665096 1.2979102 0.019607844
32.976517 28.067898 -2.2723629 0.039215688
38.041042 32.376827 4.0769334 0.047058824
22.720154 23.537487 -1.3354406 0.015686275
21.979105 16.934116 -0.97054285 0.082352944
17.771236 16.702215 6.5375099 0.0039215689
25.36014 21.591761 6.0740457 0.011764706
3.7337577 3.1723573 -2.2924168 0.035294119
22.804937 23.452772 -0.57326561 0.023529412
38.093456 32.180161 -1.4540554 0.023529412
5.9074268 5.5255671 -2.2691023 0.031372551
8.5491915 7.2377205 -2.2440236 0.015686275
22.049751 16.860159 -0.32436082 0.054901961
10.394336 9.7056198 -2.2156088 0.031372551
13.597163 11.499383 -2.2695503 0.011764706
22.782866 23.430273 0.18801498 0.0078431377
38.157768 32.234711 -0.29273513 0.023529412
14.791862 13.802397 -2.1819692 0.015686275
18.819237 14.392326 -2.2140381 0.027450981
22.052885 16.86269 0.32237107 0.062745102
22.47896 20.963766 -2.1520934 0.011764706
20.335978 17.188536 -2.1762269 0.0078431377
22.748446 23.395086 0.94808859 0.019607844
38.167797 32.243423 0.87008482 0.031372551
22.686602 23.330851 -2.0885534 0.019607844
22.902575 17.511246 -1.6810467 0.15686275
24.283306 20.521767 1.2945145 0.019607844
33.442394 28.253389 -2.2972715 0.039215688
24.31744 22.677912 4.0827904 0.011764706
38.278259 32.337395 4.0896492 0.047058824
22.700336 23.345137 -1.3292239 0.015686275
22.047377 16.85821 -0.97080517 0.082352944
17.747519 16.557865 6.5064726 0.0039215689
25.288761 21.371643 6.0382018 0.011764706
3.7381458 3.1558824 -2.2890329 0.039215688
22.78614 23.286665 -0.5709368 0.047058824
38.30769 32.155331 -1.4583416 0.039215688
5.9332323 5.514761 -2.2723336 0.050980393
8.5778923 7.2157984 -2.2455871 0.019607844
10.459574 9.7050667 -2.2229829 0.023529412
13.618016 11.443789 -2.2670145 0.023529412
22.783577 23.284224 0.18743381 0.031372551
38.304806 32.153168 -0.29306051 0.039215688
14.82347 13.744985 -2.1802442 0.015686275
18.851662 14.323437 -2.212538 0.027450981
25.181702 23.334864 0.79740185 0.0078431377
22.953279 17.436394 0.33472955 0.039215688
22.530058 20.879421 -2.150681 0.011764706
20.389868 17.124496 -2.1762128 0.0078431377
22.768661 23.269171 0.94589931 0.039215688
38.308723 32.156704 0.87101609 0.039215688
22.701115 23.199512 -2.083159 0.019607844
25.180958 23.334444 1.9983884 0.0078431377
24.277222 20.386229 1.2907904 0.019607844
25.117401 23.274799 -1.5976532 0.0078431377
33.573826 28.184061 -2.3001819 0.039215688
25.224691 23.375427 4.2226496 0.011764706
38.370487 32.209225 4.0886998 0.047058824
17.70871 16.417959 6.4733634 0.0039215689
24.375961 20.470043 5.8051014 0.011764706
25.155403 23.310156 -0.80021566 0.011764706
3.7407789 3.1357756 -2.2839582 0.035294119
22.825159 23.164186 -0.56986737 0.047058824
38.431995 32.031567 -1.4587786 0.039215688
5.9524431 5.4939375 -2.2723291 0.047058824
8.636178 7.2133436 -2.2542117 0.027450981
25.240454 23.225826 -0.0018051934 0.023529412
23.007662 17.35116 -0.33671075 0.074509807
10.467197 9.6443424 -2.2174389 0.019607844
13.62739 11.370708 -2.2619517 0.023529412
22.831011 23.170292 0.18717632 0.043137256
38.496716 32.085735 -0.29364064 0.039215688
14.888925 13.709225 -2.1828043 0.023529412
18.901548 14.257463 -2.2125242 0.035294119
25.207064 23.195312 0.79565781 0.0078431377
23.029978 17.368113 0.33497867 0.023529412
22.576368 20.776262 -2.1481502 0.011764706
20.458712 17.060791 -2.1771741 0.0078431377
22.838516 23.178076 0.94545317 0.039215688
38.497566 32.086689 0.87278587 0.039215688
22.765144 23.102995 -2.0816045 0.019607844
25.194639 23.184155 1.9930644 0.0078431377
24.305243 20.265467 1.2885321 0.019607844
25.142605 23.135519 -1.5940928 0.0078431377
33.767151 28.145861 -2.3066521 0.039215688
25.224295 23.211916 4.2090259 0.011764706
38.510254 32.097965 4.0916567 0.047058824
22.798525 23.137011 -1.3259274 0.015686275
22.992046 17.339254 -1.00725 0.25490198
17.694796 16.290583 6.4475002 0.0039215689
24.314228 20.273928 5.7735591 0.011764706
25.189514 23.178822 -0.79870343 0.011764706
3.7489028 3.1203108 -2.2822645 0.039215688
22.897409 23.075783 -0.56963879 0.047058824
38.543556 31.89715 -1.4587493 0.039215688
5.9630442 5.4652586 -2.2690887 0.031372551
8.6945467 7.2105727 -2.2628362 0.047058824
25.312502 23.129416 -0.0017847652 0.023529412
10.492036 9.5996771 -2.215585 0.023529412
13.703683 11.353341 -2.2680047 0.023529412
22.920195 23.098896 0.1872637 0.043137256
24.235474 20.064032 -0.18433231 0.0078431377
14.954306 13.673182 -2.1853645 0.023529412
18.986275 14.217561 -2.2166014 0.035294119
25.237663 23.061274 0.79409939 0.0078431377
23.100063 17.294733 0.33513498 0.015686275
22.622221 20.673046 -2.1456194 0.011764706
20.508913 16.981577 -2.1761818 0.0078431377
22.933363 23.112324 0.94605219 0.039215688
22.851265 23.028978 -2.082098 0.019607844
25.275402 23.095993 1.9930841 0.0078431377
25.202545 23.028685 -1.5927688 0.0078431377
33.923668 28.076117 -2.3106074 0.039215688
25.311016 23.129002 4.2100205 0.011764706
22.881954 23.060049 -1.326072 0.015686275
23.07163 17.273184 -1.0080715 0.26274511
17.663088 16.147884 6.4154277 0.0039215689
25.240728 23.063719 -0.79775107 0.011764706
3.7519031 3.0995686 -2.2771897 0.035294119
23.010115 23.019901 -0.57032001 0.023529412
5.9830294 5.4432845 -2.269084 0.035294119
8.687561 7.1512032 -2.2541983 0.074509807
25.382273 23.022978 -0.0017629032 0.023529412
23.237206 17.264589 -0.33821744 0.0039215689
10.547645 9.5796556 -2.2198825 0.039215688
13.766666 11.320581 -2.2715304 0.023529412
23.032986 23.042931 0.18751307 0.031372551
15.001365 13.615528 -2.1849232 0.015686275
19.009466 14.126435 -2.213239 0.027450981
25.339781 22.98465 0.79467708 0.0078431377
23.169712 17.214638 0.33524576 0.011764706
22.677132 20.571157 -2.143646 0.011764706
20.534029 16.875862 -2.1722577 0.0078431377
23.063158 23.073257 0.94792932 0.039215688
24.305492 19.972403 0.54804802 0.027450981
22.963745 22.973209 -2.0846398 0.019607844
23.103333 17.164949 -1.6781868 0.0078431377
25.36875 23.011168 1.993802 0.0078431377
24.326046 19.989435 1.2820643 0.039215688
25.31934 22.965591 -1.5947977 0.0078431377
25.401491 23.041332 4.2110152 0.011764706
42.325733 34.765881 4.470335 0.047058824
23.008717 23.018328 -1.3284988 0.015686275
23.141199 17.193193 -1.0083331 0.26274511
17.64484 16.012903 6.3874955 0.0039215689
24.452566 20.094273 5.7721624 0.011764706
25.348789 22.992456 -0.79847646 0.011764706
3.753726 3.080164 -2.2721152 0.031372551
23.145916 23.002567 -0.57177371 0.023529412
24.337181 19.863262 -0.91605693 0.019607844
6.0039048 5.4259181 -2.2701578 0.035294119
8.6899433 7.1049328 -2.2486994 0.043137256
25.500092 22.976074 -0.0017471159 0.023529412
10.596974 9.5604172 -2.2235653 0.035294119
13.788748 11.262259 -2.2689941 0.027450981
23.183062 23.039621 0.18812864 0.019607844
15.067116 13.584258 -2.1879125 0.015686275
19.107494 14.101056 -2.2191765 0.015686275
25.499075 22.975336 0.79729539 0.0078431377
23.229877 17.140013 0.33530843 0.011764706
22.74225 20.493103 -2.1433499 0.011764706
20.583691 16.802567 -2.1715915 0.0078431377
23.224657 23.081091 0.95143044 0.019607844
24.374678 19.89415 0.54813516 0.011764706
23.079449 22.936237 -2.0882072 0.019607844
25.528008 23.001648 2.0003262 0.0078431377
24.392189 19.908587 1.2820818 0.019607844
25.413166 22.89747 -1.5958972 0.0078431377
24.338915 19.864517 -1.648661 0.015686275
25.522009 22.99674 4.2183433 0.011764706
42.561272 34.723515 4.4830508 0.047058824
23.144474 23.000965 -1.331906 0.015686275
23.201292 17.118662 -1.0084566 0.29411766
17.614553 15.879259 6.3574915 0.0039215689
24.409266 19.923477 5.7463574 0.011764706
25.469465 22.948326 -0.79985672 0.011764706
3.7602015 3.0620844 -2.268734 0.035294119
24.479168 24.152454 -0.60242039 0.023529412
24.477251 19.831741 -0.91855288 0.0078431377
6.0186038 5.3992467 -2.2679892 0.035294119
8.7224379 7.0787621 -2.2502525 0.039215688
25.663383 22.957014 -0.0016607213 0.023529412
26.662083 19.522507 -0.38598067 0.011764706
10.632096 9.5225115 -2.2235346 0.035294119
13.823736 11.207995 -2.2679508 0.027450981
24.513773 24.186737 0.19831121 0.0078431377
24.499596 19.849979 -0.18462564 0.0078431377
15.116526 13.530425 -2.1878633 0.023529412
19.123358 14.006978 -2.2150488 0.035294119
36.593006 32.725475 1.1402794 0.019607844
23.304808 17.06654 0.33554131 0.015686275
22.819166 20.414581 -2.1435485 0.011764706
20.622826 16.711529 -2.1692564 0.0078431377
22.267351 18.043228 0.49938765 0.0078431377
23.255894 22.94631 -2.0965552 0.019607844
36.615292 32.74575 2.8591952 0.023529412
24.51376 19.861742 1.2847524 0.019607844
25.570126 22.873331 -1.6004637 0.0078431377
24.506865 19.855562 -1.6550883 0.015686275
26.042973 23.297165 4.2905521 0.011764706
42.849979 34.70462 4.5004196 0.047058824
4.0345802 3.9996076 -0.23227331 0
23.276134 17.045298 -1.0089685 0.26274511
17.600128 15.751897 6.3316736 0.0039215689
24.410854 19.779348 5.7299275 0.011764706
25.668411 22.96134 -0.80340195 0.011764706
3.7742221 3.0504735 -2.270422 0.035294119
32.997295 32.311241 -0.80895174 0.050980393
6.0469947 5.3847399 -2.2712202 0.035294119
8.7636118 7.0589476 -2.2541692 0.035294119
36.800526 32.668716 -0.002383888 0.043137256
23.357538 16.973776 -0.3372494 0.0039215689
10.655097 9.4729061 -2.2210658 0.023529412
13.855441 11.149717 -2.2664244 0.039215688
33.013134 32.326973 0.26604465 0.019607844
15.136266 13.448456 -2.1835659 0.031372551
19.158457 13.925012 -2.2131751 0.062745102
36.739628 32.614933 1.1411431 0.019607844
23.373676 16.985622 0.33565113 0.011764706
22.837124 20.280409 -2.1382256 0.011764706
20.696371 16.645733 -2.1705437 0.0078431377
5.2825165 5.1916418 0.21562976 0
23.816313 23.327066 -2.1392989 0.019607844
23.267958 16.908478 -1.6769432 0.0078431377
24.207087 21.496634 1.8847249 0.0078431377
33.371304 29.625992 -2.0815363 0.015686275
26.25589 23.314768 4.3115244 0.011764706
43.110535 34.65461 4.5144386 0.047058824
33.066437 32.37867 -1.8886362 0.039215688
23.344925 16.964485 -1.009231 0.27450982
17.582596 15.620528 6.3047748 0.0039215689
24.483183 19.689659 5.7299457 0.011764706
35.333824 31.367281 -1.1020736 0.019607844
3.7814786 3.0356095 -2.2687287 0.031372551
33.216091 32.310299 -0.81165975 0.050980393
6.0474715 5.349308 -2.2647448 0.047058824
8.811492 7.0493479 -2.2604403 0.039215688
23.442888 16.91721 -0.33765435 0.0039215689
10.674585 9.4269981 -2.2185981 0.035294119
13.932653 11.135814 -2.2729831 0.023529412
33.295094 32.387325 0.26747227 0.019607844
21.6486 17.293236 -0.16220516 0.10980392
15.222543 13.43493 -2.1895554 0.023529412
19.217443 13.870652 -2.2146504 0.027450981
23.436354 16.91263 0.33575934 0.011764706
22.880293 20.183393 -2.1359761 0.011764706
20.742098 16.569481 -2.1695528 0.0078431377
31.845127 30.978085 1.2909086 0.043137256
21.676882 17.315937 0.48347145 0.14117648
23.733236 23.092087 -2.124943 0.019607844
30.003241 21.646303 -2.1567407 0.015686275
21.684025 17.321768 1.1302593 0.082352944
43.399708 34.650646 4.5326843 0.047058824
35.171104 34.210438 -2.0022643 0.039215688
23.410774 16.893923 -1.0096349 0.24313726
17.561819 15.498199 6.2789102 0.0039215689
24.523722 19.588655 5.7242236 0.011764706
3.7977321 3.0268183 -2.2721076 0.027450981
35.227821 34.027306 -0.85785913 0.054901961
21.709446 17.217842 -0.80791545 0.094117649
6.0892954 5.348382 -2.2733681 0.035294119
8.8514166 7.0306497 -2.2643573 0.06666667
24.364161 21.340734 -0.0015038663 0.023529412
23.456261 16.802608 -0.3369844 0.0039215689
10.7104 9.3922071 -2.2192054 0.047058824
13.965219 11.082107 -2.2719631 0.019607844
35.232521 34.032082 0.28209221 0.019607844
21.718237 17.224937 -0.16226009 0.15686275
15.290298 13.399968 -2.1925447 0.015686275
19.26898 13.805725 -2.215009 0.027450981
22.950607 20.103327 -2.1359596 0.011764706
20.83106 16.521654 -2.1727943 0.0078431377
32.188957 31.094357 1.3004555 0.043137256
21.730923 17.235119 0.48334751 0.16470589
23.91135 23.103279 -2.1336308 0.019607844
21.723333 17.228714 -1.454954 0.086274512
43.670391 34.617691 4.5483284 0.047058824
35.247173 34.045742 -1.9997922 0.039215688
23.479355 16.819002 -1.0100379 0.25490198
17.548933 15.378199 6.2551155 0.0039215689
24.511755 19.439314 5.7055912 0.011764706
3.8111186 3.0157106 -2.2737954 0.027450981
35.35215 33.909592 -0.85797298 0.054901961
21.781975 17.151773 -0.80836612 0.10588235
6.1195536 5.3371253 -2.2776778 0.043137256
8.8882303 7.009336 -2.2674897 0.047058824
37.524448 32.626266 -0.0023298494 0.043137256
10.778915 9.3857985 -2.2265787 0.035294119
14.00069 11.030766 -2.2714479 0.019607844
35.322216 33.881142 0.28188825 0.019607844
21.78451 17.153894 -0.16229156 0.15686275
15.327967 13.338615 -2.1912479 0.015686275
19.294319 13.722164 -2.2123923 0.062745102
37.477989 32.586136 1.1536649 0.019607844
23.54406 16.741503 0.33565238 0.047058824
23.032681 20.033487 -2.1370597 0.011764706
20.879196 16.441376 -2.1718028 0.0078431377
32.681179 31.349728 1.3159257 0.043137256
21.794086 17.16156 0.48343253 0.17647059
23.928444 22.958834 -2.12798 0.019607844
23.544994 16.74177 -1.6843418 0.054901961
37.505962 32.610809 2.8929949 0.023529412
21.807554 17.172283 1.1304526 0.12156863
32.971828 28.669935 -2.0380521 0.015686275
21.792751 17.160118 -1.4555674 0.094117649
25.565529 22.235661 4.1605229 0.011764706
43.916286 34.563564 4.5613713 0.047058824
35.354252 33.911373 -1.9991137 0.039215688
23.56724 16.757704 -1.0112793 0.22352941
17.529585 15.253413 6.2292514 0.011764706
24.570168 19.346262 5.7034559 0.011764706
37.517384 32.619892 -1.1595311 0.019607844
3.8192849 2.9994125 -2.2721019 0.027450981
35.432735 33.738346 -0.85689479 0.054901961
21.844694 17.071741 -0.80835003 0.12941177
6.1390705 5.3145809 -2.277673 0.043137256
8.9293175 6.9887004 -2.2714062 0.027450981
33.33659 28.773397 -0.0020277712 0.043137256
10.789297 9.3254976 -2.2216501 0.043137256
14.044152 10.981736 -2.2719429 0.015686275
35.440361 33.74585 0.28186983 0.019607844
21.869303 17.09108 -0.16243929 0.1882353
15.352656 13.261483 -2.1878073 0.023529412
19.357502 13.66045 -2.2138658 0.0078431377
33.282066 28.726585 1.0213677 0.015686275
23.631416 16.673449 0.33604085 0.015686275
23.051563 19.901939 -2.1320162 0.011764706
20.942459 16.367109 -2.1721129 0.0078431377
33.114475 31.532829 1.3287265 0.043137256
21.863144 17.086403 0.48358795 0.19215687
23.954596 22.815855 -2.1228402 0.019607844
37.679665 32.519981 2.8972058 0.023529412
21.879797 17.099535 1.1309568 0.13333334
33.007095 28.488787 -2.0337417 0.015686275
21.861797 17.084961 -1.4559702 0.10196079
25.66188 22.15469 4.1629786 0.011764706
44.209232 34.532314 4.5786448 0.047058824
35.446457 33.751171 -1.9972925 0.039215688
23.654642 16.689554 -1.0123801 0.23529412
17.518078 15.130934 6.2054577 0.0039215689
24.600582 19.22451 5.694149 0.011764706
33.294319 28.736729 -1.0257895 0.019607844
3.8211305 2.9793272 -2.2670274 0.027450981
35.553185 33.617138 -0.85693854 0.054901961
21.907305 16.997763 -0.80845112 0.10980392
6.1488028 5.2855301 -2.2744334 0.035294119
8.966053 6.9670267 -2.2745385 0.031372551
37.878468 32.460838 -0.0022817249 0.043137256
27.133905 19.000532 -0.38680255 0.011764706
10.878817 9.3365545 -2.2333291 0.027450981
14.069848 10.922852 -2.2699118 0.023529412
35.534672 33.599884 0.28171194 0.019607844
21.913015 17.002317 -0.16230685 0.16470589
15.40489 13.212914 -2.1886535 0.015686275
10.7116 7.5105829 -1.223101 0.0078431377
37.798279 32.392403 1.1564138 0.019607844
23.705851 16.602255 0.33628926 0.023529412
23.069365 19.777161 -2.1272531 0.011764706
21.021511 16.310932 -2.1743777 0.0078431377
24.241581 22.928759 0.96975738 0.019607844
21.928967 17.014811 0.48374265 0.2
23.976055 22.6772 -2.1177015 0.019607844
27.129175 18.996918 -1.9307209 0.015686275
37.820236 32.411564 2.8993242 0.023529412
21.948818 17.030331 1.1314602 0.15294118
33.097229 28.36553 -2.033159 0.015686275
21.918137 17.006031 -1.4557453 0.10196079
4.7097168 4.0536542 0.76464671 0
44.531155 34.534031 4.5994949 0.047058824
24.228985 22.916363 -1.3610468 0.015686275
23.722574 16.613688 -1.0127831 0.23529412
17.497414 15.006782 6.1795931 0.0039215689
24.58666 19.075768 5.6755161 0.011764706
37.822731 32.412857 -1.1617132 0.019607844
3.8396029 2.9732029 -2.2720966 0.031372551
21.966711 16.927393 -0.8085531 0.090196081
6.1516213 5.252562 -2.2690365 0.031372551
8.9891014 6.9371872 -2.2745326 0.031372551
38.046825 32.386826 -0.0022595371 0.043137256
10.885628 9.279871 -2.2284007 0.019607844
14.099698 10.871226 -2.268892 0.031372551
21.985115 16.94169 -0.16240925 0.12156863
15.448614 13.161691 -2.188643 0.023529412
10.759338 7.4908576 -1.2256973 0.0078431377
37.948116 32.303093 1.1577398 0.019607844
23.767338 16.528049 0.33639762 0.023529412
23.119616 19.687557 -2.1258409 0.011764706
21.103912 16.262955 -2.177294 0.0078431377
21.994768 16.949253 0.48396626 0.17647059
24.007456 22.556522 -2.1138437 0.019607844
37.973118 32.324718 2.9028358 0.023529412
22.011497 16.962259 1.1318002 0.090196081
33.437614 28.465269 -2.0482275 0.015686275
21.980732 16.938059 -1.4561497 0.078431375
6.3076706 5.3859944 1.0199902 0
44.74966 34.466354 4.6102595 0.047058824
23.790659 16.543985 -1.0133265 0.21568628
17.485273 14.896031 6.1578679 0.0039215689
24.65601 18.998865 5.6769671 0.011764706
37.997002 32.3442 -1.1637386 0.019607844
3.8528352 2.9619079 -2.2737844 0.027450981
24.37162 22.739016 -0.58378577 0.023529412
22.028841 16.852959 -0.80865425 0.078431375
6.1669741 5.2284961 -2.2679536 0.031372551
9.0226097 6.9128351 -2.27688 0.027450981
38.190208 32.279545 -0.0022340054 0.050980393
10.911914 9.236639 -2.2271628 0.019607844
14.147018 10.829094 -2.2703979 0.023529412
22.044117 16.864763 -0.16239382 0.086274512
15.494462 13.107606 -2.1886318 0.015686275
10.729677 7.4147439 -1.2193676 0.0039215689
38.11869 32.219376 1.1595316 0.019607844
23.818298 16.440363 0.33632094 0.015686275
23.163813 19.586056 -2.1235907 0.011764706
21.217567 16.232681 -2.1831403 0.0078431377
22.050619 16.869862 0.48391199 0.14901961
24.03933 22.428955 -2.1097293 0.019607844
38.152836 32.248573 2.9079754 0.035294119
22.073748 16.887667 1.1319783 0.05882353
33.57951 28.384392 -2.0508118 0.015686275
22.042896 16.863575 -1.4563438 0.070588239
24.448006 20.672077 3.9315701 0.011764706
24.619278 18.833334 2.5306263 0.011764706
23.861427 16.469837 -1.013869 0.20392157
17.525352 14.82485 6.1537399 0.0039215689
24.600239 18.819407 5.6490092 0.011764706
38.140228 32.237091 -1.1646436 0.019607844
3.8573694 2.9439855 -2.2704005 0.031372551
25.202208 23.349224 -0.60169387 0.023529412
6.1881328 5.2093391 -2.2690277 0.023529412
9.0435534 6.8788548 -2.276089 0.027450981
38.333286 32.17168 -0.0022084059 0.050980393
24.030712 16.463123 -0.34010857 0.0039215689
10.953169 9.2060413 -2.2290001 0.019607844
14.178403 10.774776 -2.2693772 0.019607844
25.196762 23.344353 0.19797108 0.0078431377
15.512692 13.030369 -2.1847634 0.015686275
10.545144 7.2332129 -1.1955589 0.0039215689
38.316704 32.158009 1.1621592 0.027450981
23.901939 16.375124 0.33670878 0.023529412
23.232033 19.505011 -2.1235743 0.011764706
21.232807 16.127125 -2.1788926 0.0078431377
25.145386 23.296963 0.99629229 0.019607844
22.963243 17.44058 0.50259548 0.05882353
24.070597 22.301451 -2.1056147 0.019607844
38.326347 32.166462 2.9126501 0.035294119
22.973114 17.448204 1.1749402 0.027450981
33.733482 28.313156 -2.0541415 0.015686275
24.322285 20.420698 3.8999131 0.0078431377
25.117729 23.270861 -1.3973523 0.015686275
23.928661 16.393148 -1.014272 0.19607843
17.556261 14.746131 6.1465068 0.0039215689
38.316856 32.157658 -1.1665742 0.031372551
3.8676188 2.9304276 -2.2703979 0.035294119
25.215832 23.198774 -0.60006475 0.023529412
22.973112 17.321655 -0.83880007 0.30588236
6.1973963 5.1802363 -2.2657876 0.027450981
9.0675077 6.8471684 -2.2760825 0.023529412
3.7161329 3.1142445 -0.00012995466 0
86.874535 59.029907 -1.2260059 0.082352944
10.994345 9.1752605 -2.2308376 0.015686275
14.209588 10.720367 -2.268357 0.015686275
25.207418 23.19121 0.19743681 0.0078431377
23.00478 17.345642 -0.16854006 0.1882353
15.606977 13.016781 -2.1916096 0.015686275
10.431956 7.1022911 -1.179932 0.0039215689
38.471741 32.059803 1.163487 0.027450981
23.972183 16.300497 0.33691084 0.015686275
23.238653 19.372644 -2.1179731 0.011764706
21.308077 16.067221 -2.1808312 0.0078431377
25.214779 23.198141 0.99584615 0.019607844
23.033564 17.367456 0.50282049 0.043137256
24.098335 22.171289 -2.1012444 0.019607844
30.486898 20.725471 -2.1488962 0.015686275
38.499763 32.083504 2.9173253 0.035294119
23.037073 17.370232 1.1751192 0.019607844
33.92115 28.269299 -2.0595198 0.015686275
22.992844 17.336382 -1.5109909 0.17254902
24.439177 20.373701 3.9072404 0.0078431377
25.163496 23.150501 -1.3953773 0.015686275
23.995661 16.316179 -1.0146748 0.18431373
17.684814 14.748968 6.1734324 0.0039215689
24.759293 18.668364 5.655499 0.011764706
38.459606 32.049221 -1.167479 0.031372551
3.8715045 2.9131739 -2.2670143 0.035294119
25.260124 23.085302 -0.59927696 0.023529412
6.2175035 5.1620431 -2.2668619 0.043137256
9.0901585 6.8169932 -2.2760766 0.023529412
38.646919 31.988901 -0.0021603385 0.050980393
24.109043 16.276659 -0.33960983 0.0039215689
11.018615 9.1336451 -2.2296 0.019607844
14.213278 10.649352 -2.2632954 0.023529412
25.257589 23.083155 0.19724709 0.0078431377
100.85519 75.462273 -0.7367689 0.18039216
15.631662 12.949678 -2.1890275 0.015686275
24.039364 16.229795 0.33711216 0.015686275
23.188997 19.201305 -2.1076267 0.011764706
21.223961 15.893722 -2.166816 0.0078431377
25.285648 23.108942 0.99563152 0.019607844
23.097424 17.295706 0.50297517 0.043137256
24.112755 22.037357 -2.0961065 0.019607844
24.07988 16.256725 -1.6937686 0.0078431377
24.252211 20.081625 1.8333127 0.0078431377
23.110538 17.305651 1.1759478 0.019607844
24.245668 20.075541 -1.4683553 0.0078431377
24.298573 20.120396 3.8741205 0.0078431377
24.77038 18.547562 2.526448 0.011764706
25.234213 23.061476 -1.3950336 0.015686275
24.06951 16.249865 -1.0154977 0.16470589
17.718727 14.677859 6.1682687 0.015686275
24.792692 18.564875 5.6490598 0.011764706
3.8951721 2.907203 -2.2737792 0.031372551
25.359138 23.001451 -0.59946328 0.023529412
6.2259932 5.1288848 -2.2625399 0.074509807
9.1041155 6.7735276 -2.2729268 0.023529412
11.07213 9.1073647 -2.2332656 0.019607844
14.270032 10.607915 -2.2657962 0.023529412
25.365496 23.00737 0.19750212 0.0078431377
23.150122 17.19953 -0.16863967 0.082352944
15.671835 12.883537 -2.1877012 0.023529412
10.473001 7.0217237 -1.1788018 0.0078431377
24.301085 19.968344 0.73097968 0.039215688
24.104279 16.142023 0.33719355 0.043137256
23.246248 19.101826 -2.1061647 0.011764706
21.309912 15.833267 -2.1693769 0.0078431377
25.387716 23.027664 0.99630606 0.019607844
23.162998 17.209211 0.50302404 0.043137256
24.160515 21.914904 -2.0929453 0.019607844
23.182573 17.223867 1.1763222 0.019607844
24.365486 20.021814 3.8727288 0.0078431377
24.795803 18.421532 2.5219469 0.011764706
25.333132 22.977726 -1.3955921 0.015686275
24.137814 16.164213 -1.0157419 0.15686275
17.747719 14.589344 6.1590009 0.011764706
24.825096 18.443857 5.6405058 0.011764706
24.282627 19.952913 -0.7329222 0.035294119
3.922298 2.9071074 -2.2839203 0.050980393
25.476889 22.95462 -0.60042679 0.023529412
23.194416 17.113169 -0.84023637 0.0039215689
6.2549057 5.1178775 -2.2668498 0.043137256
9.117054 6.7362494 -2.2705674 0.023529412
24.342813 19.867573 -0.001234151 0.043137256
11.099207 9.0680304 -2.2326434 0.015686275
14.3211 10.572238 -2.2683136 0.027450981
25.510023 22.984606 0.19804883 0.0078431377
23.203812 17.12022 -0.16860197 0.062745102
15.723722 12.838966 -2.1889772 0.015686275
10.536036 7.013329 -1.1832581 0.015686275
24.373369 19.892626 0.73118085 0.0078431377
24.151012 16.057501 0.33711517 0.054901961
23.278543 18.999346 -2.103358 0.011764706
21.33663 15.743519 -2.166759 0.0078431377
25.582806 23.050283 1.0009693 0.019607844
23.232819 17.141726 0.50331706 0.035294119
24.182621 21.789188 -2.0885773 0.019607844
24.198366 16.088589 -1.6939515 0.16470589
24.38505 19.902363 1.832701 0.0078431377
23.255646 17.15868 1.1771499 0.0078431377
26.51969 19.564116 -1.7289827 0.015686275
24.419439 19.930796 3.8707948 0.0078431377
24.847128 18.332037 2.5209863 0.011764706
25.477509 22.955021 -1.3993251 0.015686275
24.204605 16.092855 -1.0162863 0.25490198
17.784021 14.520569 6.154871 0.0039215689
24.882954 18.359024 5.6398034 0.011764706
24.345564 19.869677 -0.73281354 0.011764706
3.920716 2.8847649 -2.2771554 0.06666667
25.667189 22.964096 -0.60299957 0.023529412
6.2906923 5.1104827 -2.2733164 0.035294119
9.1436758 6.7066283 -2.2713461 0.035294119
11.130791 9.0291586 -2.232636 0.015686275
14.348307 10.515079 -2.2667887 0.023529412
36.597061 32.734821 0.28315899 0.019607844
23.273115 17.046131 -0.16865706 0.070588239
15.780805 12.793939 -2.1906807 0.015686275
24.451982 19.814901 0.73147583 0.0078431377
22.833014 18.503613 -2.057276 0.0039215689
21.407541 15.680639 -2.1683731 0.0078431377
3.7356849 3.3589885 0.14645019 0
23.298967 17.06517 0.50347149 0.035294119
24.21092 21.662004 -2.0844641 0.019607844
24.485409 19.842176 1.8350412 0.0078431377
23.334751 17.09148 1.1781412 0.027450981
24.49744 19.851286 -1.4706753 0.0078431377
24.473431 19.832865 3.8683743 0.0078431377
24.894878 18.233341 2.519376 0.011764706
33.77549 30.212118 -1.848924 0.035294119
24.283995 16.023594 -1.0172487 0.17647059
17.825588 14.451035 6.1517777 0.0039215689
24.915125 18.248735 5.6326461 0.011764706
24.514231 19.865019 -0.73578036 0.011764706
3.9542222 2.8880341 -2.2906775 0.082352944
36.78096 32.668602 -0.86121613 0.054901961
6.2724609 5.0594659 -2.2603707 0.054901961
9.157505 6.6676855 -2.2689865 0.043137256
21.615847 17.393885 -0.0010520885 0.0078431377
27.79368 18.198484 -0.38773805 0.023529412
11.143751 8.9753246 -2.2289383 0.015686275
14.343183 10.434546 -2.2602115 0.019607844
36.732025 32.625393 0.28334537 0.019607844
23.33894 16.969423 -0.16868873 0.070588239
15.812962 12.728741 -2.1889563 0.015686275
10.648055 6.9808903 -1.1903105 0.015686275
24.32276 15.927779 0.33798209 0.0039215689
21.637899 17.41124 -1.9441895 0.0039215689
23.36162 16.986021 0.50355625 0.035294119
24.196815 21.497793 -2.0767672 0.019607844
27.772003 18.184021 -1.9349568 0.015686275
23.391027 17.007505 1.1779937 0.019607844
6.689126 4.8750029 -0.43479729 0
24.480614 19.6975 3.8586445 0.0078431377
24.932558 18.12752 2.5167894 0.011764706
24.205416 21.505575 -1.3212035 0.015686275
24.343117 15.940853 -1.0173731 0.17647059
17.878922 14.391074 6.1528249 0.0039215689
24.975479 18.159273 5.6319451 0.011764706
3.9613342 2.8720248 -2.2889843 0.082352944
23.424223 16.906553 -0.84205502 0.0039215689
6.2780361 5.0278606 -2.2560527 0.062745102
14.395606 10.395953 -2.2627285 0.019607844
23.40451 16.892464 -0.16872038 0.062745102
15.85729 12.673398 -2.1889458 0.015686275
10.662332 6.9371047 -1.1891881 0.011764706
21.670511 17.313663 0.64474732 0.082352944
24.394976 15.853605 0.33822975 0.0039215689
21.48414 15.507357 -2.1650894 0.0078431377
24.293055 21.432545 0.94177383 0.019607844
23.433739 16.913664 0.5038501 0.043137256
24.208815 21.357704 -2.0713742 0.019607844
30.91324 20.085285 -2.1487517 0.015686275
23.450243 16.925688 1.1780088 0.019607844
23.411762 16.897446 -1.5148472 0.0078431377
24.549212 19.611858 3.8586607 0.0078431377
24.976273 18.026323 2.5148537 0.011764706
24.412016 15.864424 -1.0179164 0.16470589
17.932056 14.330919 6.1538715 0.0039215689
25.000401 18.044296 5.623353 0.011764706
21.642462 17.291027 -0.64598328 0.098039217
3.9565923 2.8475592 -2.280529 0.070588239
23.476589 16.819952 -0.84180689 0.0039215689
6.2804508 4.9938831 -2.2506564 0.10196079
9.200633 6.6011691 -2.2681899 0.047058824
21.721067 17.22999 -0.0010225781 0.1254902
24.567886 15.844006 -0.34117857 0.0039215689
11.156567 8.857893 -2.2190824 0.031372551
14.43826 10.350187 -2.2637296 0.023529412
23.469837 16.815245 -0.168752 0.050980393
15.907665 12.622835 -2.1897922 0.015686275
10.676435 6.8933001 -1.1880658 0.0078431377
21.730814 17.237837 0.64476168 0.14901961
24.450167 15.768278 0.33824515 0.0039215689
21.72139 17.229879 -1.9408106 0.0039215689
21.544622 15.436833 -2.1657269 0.0078431377
37.361996 32.721066 1.4435492 0.043137256
24.214138 21.212528 -2.0654695 0.019607844
30.983166 19.977177 -2.1487322 0.015686275
21.731136 17.238276 1.6152419 0.12156863
21.710121 17.221073 -1.2925398 0.10588235
23.568052 16.885294 -1.5211164 0.0078431377
24.577068 19.493912 3.8523419 0.0078431377
25.032558 17.934309 2.514219 0.011764706
33.708046 29.522263 -1.8281515 0.035294119
24.484045 15.789863 -1.0185995 0.14509805
17.991053 14.275361 6.1569891 0.0039215689
25.066429 17.959129 5.6240864 0.011764706
21.70582 17.217783 -0.64606214 0.16470589
3.9635479 2.831562 -2.2788358 0.050980393
37.498352 32.609386 -0.86989021 0.054901961
6.2857304 4.9623346 -2.2463384 0.078431375
9.201232 6.5530424 -2.2626917 0.054901961
21.787355 17.158945 -0.0010085241 0.20392157
24.559008 15.717146 -0.34027651 0.0039215689
11.20605 8.8334923 -2.2227652 0.035294119
14.47106 10.297359 -2.2632151 0.019607844
33.198215 28.872276 0.25383171 0.019607844
15.948499 12.564705 -2.189353 0.015686275
10.717203 6.8666496 -1.1899183 0.011764706
21.797127 17.166756 0.64496183 0.14901961
24.518528 15.691387 0.33844641 0.0039215689
21.775122 17.148952 -1.9402379 0.0039215689
21.630867 15.38456 -2.1689687 0.0078431377
33.208797 28.881674 1.2793006 0.043137256
23.551235 16.74951 0.50388038 0.070588239
24.233791 21.080673 -2.0608447 0.019607844
24.583097 15.732306 -1.7013197 0.0078431377
21.794304 17.164717 1.6154885 0.13333334
23.571081 16.763737 1.1782019 0.05882353
21.779514 17.152533 -1.2930843 0.10980392
24.58567 19.361294 3.8430989 0.0078431377
25.075499 17.832903 2.5122836 0.011764706
33.810883 29.404356 -1.8281286 0.035294119
24.549112 15.710697 -1.0190034 0.14509805
18.031651 14.205238 6.1538954 0.0039215689
25.106499 17.855501 5.619081 0.011764706
21.778353 17.151737 -0.64642066 0.16470589
3.9674795 2.8134604 -2.2754519 0.070588239
33.288288 28.746878 -0.76991481 0.050980393
6.3181891 4.9521465 -2.2517264 0.047058824
9.2304592 6.5253334 -2.264255 0.047058824
21.840813 17.077785 -0.00099382806 0.15686275
24.61372 15.631247 -0.34026107 0.0039215689
11.271079 8.8210096 -2.2295237 0.023529412
14.497188 10.239848 -2.2616901 0.011764706
33.304852 28.761368 0.25390032 0.019607844
15.982857 12.501537 -2.1880569 0.023529412
10.757919 6.8397927 -1.191771 0.011764706
21.866371 17.097874 0.64525491 0.16078432
24.596792 15.620628 0.33878711 0.0039215689
21.837992 17.075218 -1.9405025 0.011764706
21.651861 15.28591 -2.165699 0.0078431377
37.668205 32.527214 1.4466206 0.047058824
23.625898 16.678648 0.50424397 0.05882353
24.222612 20.922853 -2.0536599 0.019607844
24.55357 15.592841 -1.695488 0.0078431377
21.86038 17.093376 1.6159679 0.12941177
23.66538 16.706617 1.1800067 0.027450981
21.845552 17.081245 -1.2934425 0.10588235
24.659361 19.280167 3.84409 0.0078431377
25.121304 17.7337 2.5106728 0.011764706
33.299095 28.756004 -1.7950141 0.035294119
24.620676 15.635538 -1.0196862 0.14509805
18.075033 14.137376 6.1518373 0.0039215689
25.159025 17.760874 5.6169453 0.011764706
21.84124 17.077995 -0.64649945 0.16862746
3.9743016 2.7974455 -2.2737589 0.06666667
37.831375 32.437744 -0.872289 0.054901961
41.38797 28.989609 -1.4725292 0.039215688
6.3476071 4.9394345 -2.256036 0.031372551
9.2531748 6.4930043 -2.2642491 0.047058824
21.912924 17.011183 -0.00098004425 0.15686275
69.851151 43.992306 -0.96308309 0.082352944
11.289301 8.7718573 -2.2270563 0.019607844
10.719847 7.5198798 -1.6690869 0.0078431377
37.815166 32.424088 0.28741521 0.019607844
23.733091 16.63028 -0.16933757 0.023529412
16.029531 12.448041 -2.1884749 0.023529412
10.812056 6.8212276 -1.195111 0.011764706
21.92907 17.023825 0.6453622 0.14117648
24.671467 15.547395 0.33908138 0.0039215689
21.913219 17.011045 -1.9418842 0.0039215689
37.830086 32.437092 1.448505 0.047058824
23.697069 16.605185 0.50453794 0.05882353
24.222744 20.775768 -2.0474992 0.019607844
24.719357 15.577181 -1.70315 0.0078431377
21.929369 17.024237 1.6166794 0.12941177
23.730091 16.628426 1.1803474 0.027450981
21.914507 17.012165 -1.2939869 0.11372549
24.59473 19.091711 3.8236384 0.0078431377
25.160179 17.629824 2.5084116 0.011764706
33.887867 29.058228 -1.8212363 0.035294119
24.681866 15.553696 -1.0199503 0.13725491
18.124258 14.074127 6.1518493 0.0039215689
25.201513 17.659334 5.6126571 0.011764706
21.910192 17.00894 -0.6467647 0.16470589
3.9929707 2.7896895 -2.2788279 0.047058824
38.020523 32.370209 -0.87401319 0.054901961
6.3678603 4.9195247 -2.2571104 0.035294119
9.2822237 6.4650688 -2.2658124 0.047058824
21.981682 16.941832 -0.00096607831 0.15686275
11.316718 8.7299109 -2.2264335 0.015686275
10.661305 7.4234719 -1.6559451 0.0039215689
37.961628 32.32032 0.28769448 0.019607844
27.184158 18.905079 -0.19346227 0.082352944
16.04768 12.372529 -2.1850362 0.015686275
10.859443 6.7981415 -1.1977074 0.011764706
21.994699 16.951979 0.64556247 0.10980392
21.972469 16.934376 -1.9418697 0.0039215689
37.991806 32.346222 1.4503896 0.047058824
23.768026 16.531416 0.50483191 0.050980393
24.234316 20.639275 -2.0423627 0.019607844
21.988663 16.94751 1.6166939 0.094117649
23.797838 16.552254 1.1808509 0.027450981
21.980091 16.940363 -1.2943451 0.090196081
24.651789 18.9984 3.8221927 0.0078431377
33.888649 28.854212 -1.8158342 0.035294119
24.712273 15.452541 -1.018957 0.10588235
18.173275 14.010699 6.1518612 0.0039215689
21.972599 16.934717 -0.64684349 0.10980392
3.9987266 2.7750103 -2.2771351 0.031372551
38.143398 32.268627 -0.87448007 0.054901961
27.252117 18.825397 -0.96531916 0.06666667
6.3771605 4.894753 -2.2549496 0.031372551
9.3024845 6.4358149 -2.2658072 0.047058824
22.037968 16.875061 -0.00095323689 0.14509805
11.350364 8.6990576 -2.2276571 0.023529412
10.593131 7.3267708 -1.6417936 0.0039215689
38.114895 32.244751 0.28810969 0.019607844
23.862608 16.486006 -0.16944882 0.015686275
16.092781 12.326824 -2.1858838 0.015686275
10.887508 6.7681303 -1.198445 0.0039215689
22.047838 16.882734 0.64557546 0.070588239
22.038233 16.874901 -1.9429735 0.0039215689
21.834999 15.08613 -2.1685886 0.0078431377
38.166504 32.288609 1.4532011 0.054901961
23.842878 16.472511 0.50533342 0.050980393
24.247206 20.519169 -2.0379958 0.019607844
22.051302 16.885567 1.6174041 0.10196079
23.859579 16.484163 1.1813526 0.019607844
22.030022 16.868742 -1.2941458 0.074509807
27.255907 18.827873 -1.7378358 0.031372551
24.657734 18.879795 3.8139224 0.0078431377
25.24045 17.437523 2.5048637 0.12156863
33.979122 28.747549 -1.8158137 0.035294119
24.777674 15.385305 -1.0196414 0.11764706
18.226397 13.960516 6.1549773 0.0039215689
25.279205 17.46484 5.6040797 0.011764706
22.022511 16.863115 -0.64673734 0.062745102
4.0083857 2.7609642 -2.2771327 0.043137256
38.298691 32.1712 -0.87543416 0.082352944
6.4003401 4.8770499 -2.2571025 0.035294119
9.3087101 6.392148 -2.261878 0.047058824
22.912228 17.417273 -0.00097626675 0.34901962
28.397261 17.493843 -0.38913855 0.035294119
11.393249 8.6688719 -2.2301097 0.015686275
10.52698 7.2268844 -1.6276414 0
38.288494 32.162865 0.28859681 0.035294119
23.936506 16.413837 -0.16955039 0.015686275
16.138878 12.272906 -2.1863017 0.015686275
10.921239 6.7362742 -1.1995537 0.0078431377
22.950567 17.446516 0.67021006 0.05882353
21.900682 15.018758 -2.1698771 0.0078431377
38.31879 32.188522 1.4547371 0.054901961
23.906828 16.393627 0.50548804 0.050980393
24.242254 20.370161 -2.0315793 0.019607844
28.385214 17.486151 -1.9431931 0.031372551
22.110107 16.808414 1.6174185 0.10588235
23.913675 16.398441 1.1812052 0.019607844
23.979958 16.443356 -1.5254252 0.0078431377
25.334051 17.371765 2.5081332 0.027450981
34.112942 28.656954 -1.8175839 0.035294119
