# .PCD v0.7 - Point Cloud Data file format
VERSION 0.7
FIELDS x y z intensity
SIZE 4 4 4 4
TYPE F F F F
COUNT 1 1 1 1
WIDTH 1083
HEIGHT 1
VIEWPOINT 0 0 0 1 0 0 0
POINTS 1083
DATA ascii
-2.1841133 -13.422245 0.23506458 0
-1.9490008 -29.684549 -1.9103612 0.0078431377
-3.2206991 -28.044151 -1.3188993 0.019607844
-4.0169802 -24.430611 -1.3014086 0.027450981
-1.9569097 -29.80061 -1.2205864 0.054901961
-5.4367619 -25.26819 -0.90674376 0.050980393
-4.793725 -41.528038 -0.97823519 0.019607844
-0.64999384 -4.1219664 -1.9486631 0.054901961
-5.5450048 -78.954819 -1.3907568 0.18431373
-8.8177042 -52.13763 -1.5460604 0.039215688
-0.83359396 -7.3591318 -2.0751534 0.035294119
-1.643362 -9.9617844 -2.0219533 0.15294118
-8.9317017 -74.731178 -0.0092780497 0.12941177
-37.343925 -169.325 -2.0411384 0.082352944
-1.6099161 -13.818032 -2.1668 0.023529412
-1.647876 -9.9878016 -1.2908946 0.082352944
-2.4256158 -20.604525 -2.2379944 0.015686275
-4.9079294 -22.45586 -2.1498804 0.0078431377
-13.452435 -61.143608 0.7203449 0.039215688
-2.9605982 -25.054951 -1.7678825 0.0039215689
-4.0739732 -24.250738 -2.0114262 0.0078431377
-2.057102 -29.741102 -1.9144748 0.0078431377
-5.0856466 -23.26016 -1.3906837 0.0078431377
-1.2408186 -7.5936699 0.31195045 0
-3.3085384 -27.949253 -1.3149933 0.023529412
-4.0948472 -24.37295 -1.299111 0.027450981
-0.53561741 -3.4479854 0.2839449 0
-2.0617485 -29.805386 -1.2210898 0.082352944
-5.5481877 -25.35428 -0.91053665 0.050980393
-4.9505639 -41.610138 -0.98059112 0.019607844
-0.66188091 -4.1052103 -1.9419011 0.050980393
-5.8220506 -78.954735 -1.3911439 0.18431373
-0.859734 -7.3598247 -2.0762353 0.039215688
-1.6720691 -9.9210329 -2.0148933 0.15294118
-0.24562988 -2.3948057 -0.0010134112 0
-37.912857 -169.09586 -2.0400305 0.082352944
-1.677961 -9.9544468 -1.28736 0.082352944
-4.7677379 -64.777039 0.36976367 0.054901961
-2.4975102 -20.595757 -2.2380035 0.023529412
-4.9801645 -22.411217 -2.1472836 0.0078431377
-1.6692227 -13.899308 0.32344341 0
-13.550117 -60.580959 0.71423995 0.039215688
-4.16609 -24.279402 -2.0150218 0.0078431377
-0.46569648 -6.9389529 0.20086603 0
-1.7472817 -10.352513 0.18132225 0
-2.1653328 -29.793274 -1.9183323 0.0078431377
-5.1458015 -23.148582 -1.3850996 0.0078431377
-10.436284 -60.374512 2.488251 0.10196079
-3.3933096 -27.834257 -1.3101546 0.023529412
-4.1798859 -24.358332 -1.2991213 0.050980393
-1.7573811 -10.410184 0.86013323 0
-2.1684306 -29.8337 -1.2225727 0.082352944
-5.6480265 -25.385286 -0.91236818 0.015686275
-1.7348006 -10.279464 1.899321 0
-6.7673473 -55.101685 -1.2989106 0.035294119
-0.67429131 -4.0919914 -1.9368302 0.050980393
-6.0882788 -78.81414 -1.3890727 0.18431373
-4.5496283 -25.94919 -0.77073431 0.0039215689
-0.88637388 -7.364244 -2.0783958 0.035294119
-1.703933 -9.8995113 -2.0117576 0.14117648
-0.28780887 -2.6596138 -0.0010450964 0
-13.612685 -59.88176 -0.72346735 0.047058824
-1.7227763 -13.935489 -2.1871192 0.039215688
-1.7085242 -9.9249125 -1.2843308 0.090196081
-2.5738876 -20.62224 -2.2418721 0.023529412
-5.0477133 -22.346926 -2.1428251 0.0078431377
-1.0365493 -8.5418453 0.19852611 0
-13.872705 -61.020554 0.71997315 0.039215688
-3.1056836 -24.799778 -1.7514149 0.0039215689
-2.1381881 -28.101931 -1.8099471 0.0078431377
-5.2114534 -23.064119 -1.381147 0.0078431377
-0.7481339 -6.275763 0.36667448 0
-3.4818525 -27.754683 -1.3069949 0.023529412
-1.7733837 -10.290238 -0.54942948 0.019607844
-5.7623725 -25.478264 -0.91644138 0.035294119
-6.9772954 -55.216385 -1.3022077 0.035294119
-0.6852631 -4.0752969 -1.930068 0.047058824
-6.3469987 -78.761475 -1.3885447 0.18431373
-0.91177142 -7.3687367 -2.0805564 0.035294119
-1.7339462 -9.8782005 -2.0086217 0.16470589
-13.828322 -59.910156 -0.72438455 0.047058824
-1.7617952 -13.874666 -2.1785097 0.047058824
-1.7407053 -9.9151211 -1.2838293 0.090196081
-0.60635507 -8.0862837 0.04550378 0
-5.1163821 -22.306618 -2.1406 0.0078431377
-14.278081 -61.850773 0.73031312 0.039215688
-3.1754839 -24.69422 -1.7447176 0.0039215689
-6.1130123 -75.875122 2.2063007 0.11372549
-5.2770772 -22.999865 -1.3783591 0.0078431377
-3.5671263 -27.691315 -1.3045808 0.027450981
-2.3678553 -29.77409 -1.2208033 0.0078431377
-5.8621531 -25.525057 -0.91883284 0.05882353
-7.1774426 -55.323635 -1.3053164 0.035294119
-0.69688946 -4.0547485 -1.9216154 0.047058824
-0.93772948 -7.3575253 -2.0784023 0.031372551
-1.7686989 -9.863883 -2.0070565 0.16470589
-1.0500541 -8.1914415 -0.0016906229 0.0039215689
-14.053296 -59.882248 -0.72469223 0.047058824
-1.8120925 -13.864015 -2.1779008 0.054901961
-1.7791758 -9.9201975 -1.2853503 0.12941177
-0.76525968 -9.6063185 0.054213967 0
-2.7103457 -20.548241 -2.2358861 0.023529412
-5.6272182 -24.109518 -2.3155816 0.0078431377
-3.2521372 -24.579407 -1.7374623 0.0039215689
-6.3639827 -75.533318 2.196991 0.11372549
-1.8315918 -10.203336 0.17902149 0.41568628
-2.3022046 -27.708111 -1.7856274 0.027450981
-5.3439288 -22.906332 -1.3739406 0.015686275
-3.6600637 -27.614508 -1.3016081 0.027450981
-1.8329642 -10.21034 0.84517127 0.43137255
-5.9803944 -25.608273 -0.92262644 0.050980393
-7.4046478 -55.479084 -1.3096434 0.035294119
-0.70968127 -4.0449901 -1.9182353 0.047058824
-0.65241659 -7.9487991 -0.14081253 0
-1.8673314 -10.197825 -0.30384263 0.43529412
-0.96391463 -7.3578467 -2.0794842 0.035294119
-1.8009264 -9.8459072 -2.0047057 0.15686275
-40.037373 -167.57684 -2.0285337 0.082352944
-1.8707174 -13.931819 -2.1895988 0.06666667
-1.8093734 -9.8903522 -1.2823212 0.11764706
-1.8674047 -10.198062 -0.062280469 0.43529412
-2.7787762 -20.514837 -2.2333219 0.031372551
-5.2619371 -22.210976 -2.1350341 0.0078431377
-1.0712397 -8.1338568 0.18925594 0
-1.8624454 -10.172195 -0.84655935 0.42745098
-6.6127858 -75.343185 2.1920879 0.11372549
-1.8679175 -10.200635 0.17908655 0.42745098
-2.3883424 -27.580441 -1.777952 0.035294119
-5.4136147 -22.844645 -1.3713861 0.015686275
-1.4986006 -11.23159 0.65794474 0
-1.8696085 -10.209469 0.42102939 0.42352942
-3.7575064 -27.609308 -1.3019933 0.0078431377
-1.8699118 -10.211696 -0.54629499 0.43921569
-1.8656266 -10.188034 0.84386712 0.43137255
-2.6103857 -30.090435 -1.2345451 0.11372549
-6.0911193 -25.676487 -0.92585909 0.043137256
-1.8642519 -10.180065 1.8856807 0.42352942
-7.6195483 -55.607216 -1.3133144 0.035294119
-0.72102958 -4.0317664 -1.913164 0.047058824
-7.1611328 -78.578644 -1.3866842 0.18431373
-1.904883 -10.211045 -0.30443093 0.44705883
-0.98937082 -7.3620715 -2.0816448 0.035294119
-1.8335509 -9.839715 -2.0047095 0.16470589
-40.474915 -166.95714 -2.0227129 0.082352944
-1.9063848 -13.851016 -2.1779125 0.05882353
-1.8428917 -9.8880291 -1.2828306 0.11372549
-6.8794069 -75.506477 0.43158829 0.062745102
-1.8981858 -10.175934 -0.062189557 0.43529412
-2.8473322 -20.509281 -2.2337594 0.031372551
-5.3346076 -22.189369 -2.1346703 0.0078431377
-2.5294125 -10.631718 0.12517403 0
-3.3942077 -24.378569 -1.7249061 0.023529412
-1.893901 -10.154051 -0.84558553 0.42745098
-1.900965 -10.190291 0.17901322 0.42745098
-2.4688303 -27.452951 -1.7702756 0.035294119
-5.4780226 -22.779835 -1.3685979 0.015686275
-1.9034375 -10.203049 0.42102537 0.41568628
-3.5158079 -25.238548 -1.1907982 0.0078431377
-1.9022453 -10.197426 -0.5458793 0.43921569
-1.9031343 -10.201203 0.84548789 0.43137255
-2.7159836 -30.145128 -1.2371703 0.11372549
-6.2035623 -25.768641 -0.92993194 0.054901961
-1.9002041 -10.185258 1.8878276 0.40000001
-0.73299885 -4.0183764 -1.908093 0.050980393
-7.4376397 -78.576866 -1.387141 0.18431373
-1.9351355 -10.176688 -0.30361718 0.41960785
-1.0161505 -7.3660212 -2.0838056 0.031372551
-1.8678697 -9.8330784 -2.0047135 0.17254902
-14.675819 -59.761036 -0.72509205 0.047058824
-1.9615049 -13.891039 -2.1853027 0.027450981
-1.8758588 -9.8735714 -1.2818236 0.11764706
-7.135705 -75.406174 0.43112105 0.062745102
-1.9405732 -10.204402 -0.0624074 0.42745098
-2.9166079 -20.483297 -2.2320526 0.023529412
-5.8665528 -24.014973 -2.3122592 0.0078431377
-1.1408801 -8.2249765 0.19156377 0
-3.4683969 -24.291363 -1.7196063 0.011764706
-1.9369531 -10.186333 -0.84884924 0.42352942
-7.1978946 -76.056328 2.2141626 0.11764706
-1.9372723 -10.187345 0.1790783 0.41568628
-2.5559177 -27.352594 -1.7643938 0.035294119
-5.5527115 -22.741011 -1.3674417 0.015686275
-1.9382579 -10.192245 0.4208588 0.40000001
-3.5872543 -25.111271 -1.185398 0.011764706
-1.9355164 -10.178786 -0.54525405 0.40784314
-1.94406 -10.221713 0.84775847 0.42745098
-2.8272426 -30.198946 -1.2397962 0.11372549
-6.3135433 -25.828161 -0.93288451 0.043137256
-1.9402509 -10.201563 1.8921255 0.29019609
-8.0362616 -55.818878 -1.3196272 0.035294119
-0.74417758 -4.0013952 -1.9013311 0.054901961
-0.55207753 -6.0984058 -0.10829604 0
-1.9753072 -10.193226 -0.30432251 0.41568628
-1.0412742 -7.3584437 -2.0827298 0.031372551
-1.9052241 -9.8417101 -2.0078573 0.16470589
-0.88382512 -6.2960906 -0.001482527 0
-14.974583 -60.070122 -0.72949392 0.047058824
-2.0262136 -13.993399 -2.2025392 0.031372551
-1.9126163 -9.8784628 -1.2833444 0.1254902
-7.3693595 -75.082077 0.42937696 0.062745102
-1.9777238 -10.205237 -0.0624591 0.29019609
-2.9822352 -20.433477 -2.2277732 0.031372551
-5.9561267 -24.017353 -2.3145025 0.0078431377
-1.977922 -10.206704 -0.85113508 0.42352942
-1.9782624 -10.207803 0.17955932 0.13333334
-2.6439061 -27.267853 -1.7595369 0.054901961
-5.6242905 -22.690325 -1.3655862 0.023529412
-1.025964 -7.2532277 0.42514482 0
-1.9808197 -10.220522 0.42231566 0.11764706
-3.6613767 -25.007519 -1.1811172 0.011764706
-1.9741335 -10.187465 -0.54609764 0.24705882
-0.8822183 -6.2846189 0.77799523 0
-2.9400902 -30.264286 -1.2429119 0.098039217
-6.4308062 -25.914373 -0.93681777 0.043137256
-8.2527695 -55.936668 -1.3231114 0.035294119
-0.7551803 -3.9879682 -1.8962606 0.054901961
-0.56833988 -6.0525508 -0.10752121 0
-1.0665509 -7.3545809 -2.0827301 0.031372551
-1.9410175 -9.8424025 -2.0094306 0.16470589
-17.432333 -114.92278 -0.014291166 0.24705882
-15.165454 -59.918697 -0.72834837 0.047058824
-2.0694909 -13.946865 -2.1963835 0.035294119
-1.9493537 -9.8831053 -1.2848639 0.11372549
-7.6627483 -75.285728 0.43075073 0.062745102
-3.0535028 -20.414661 -2.2269115 0.031372551
-5.6101575 -22.297195 -2.1507096 0.0078431377
-17.417774 -114.82474 2.688246 0.074509807
-3.6244953 -24.167271 -1.712624 0.054901961
-4.5420632 -22.683439 -1.89254 0.50588238
-7.8383946 -76.997429 2.2431607 0.11764706
-2.7349453 -27.198509 -1.7556756 0.043137256
-5.7009587 -22.654337 -1.3646669 0.023529412
-17.425972 -114.87511 6.7523994 0.078431375
-3.7353325 -24.895327 -1.1764466 0.011764706
-17.428902 -114.88789 14.25369 0.10196079
-3.0545707 -30.317038 -1.245505 0.11372549
-6.549613 -25.995546 -0.94061559 0.027450981
-7.9818244 -52.80698 -1.2497772 0.031372551
-0.7676155 -3.9780271 -1.8928807 0.050980393
-18.235487 -172.52792 -3.0481927 0.24705882
-5.1371541 -25.168848 -0.75165004 0.027450981
-1.0922 -7.3506331 -2.0827334 0.031372551
-1.978514 -9.8507519 -2.0125747 0.14509805
-17.838923 -114.89662 -0.014348028 0.24705882
-15.196842 -59.175781 -0.71999335 0.047058824
-1.5350407 -10.194163 -1.6062478 0.06666667
-1.9854264 -9.883832 -1.2858795 0.10588235
-7.9571128 -75.556656 0.43242541 0.062745102
-3.1192236 -20.368332 -2.2230608 0.054901961
-5.6770091 -22.234875 -2.1466238 0.0078431377
-3.6996102 -24.09515 -1.7084426 0.13333334
-4.6147609 -22.636028 -1.8899425 0.77254903
-1.0166867 -10.080448 0.29300019 0
-2.8235445 -27.129074 -1.7518444 0.054901961
-5.776999 -22.622515 -1.3639774 0.023529412
-3.8142049 -24.830629 -1.1740322 0.015686275
-1.4411651 -9.5889387 1.189031 0
-3.167526 -30.373571 -1.2482949 0.06666667
-6.177433 -24.176165 -0.87561375 0.0078431377
-8.1322575 -52.561298 -1.2446578 0.031372551
-0.77850181 -3.9609523 -1.8861185 0.054901961
-8.2246265 -75.565544 -1.3359823 0.18039216
-5.2339902 -25.19363 -0.75294656 0.039215688
-1.1184392 -7.3503995 -2.0838156 0.035294119
-2.0168955 -9.8627996 -2.0165036 0.14117648
-15.279872 -58.650101 -0.71427441 0.047058824
-2.0256004 -9.9038467 -1.2894226 0.090196081
-8.0430918 -73.905975 0.42308575 0.062745102
-12.395817 -59.324249 -0.36050704 0.047058824
-3.1834023 -20.313936 -2.218353 0.047058824
-3.7811644 -24.066151 -1.7073356 0.25490198
-4.6732607 -22.522062 -1.8818038 0.64313728
-2.9129901 -27.071257 -1.7487819 0.054901961
-5.8538909 -22.594305 -1.3635207 0.039215688
-12.410744 -59.393696 2.4639907 0.10196079
-3.889523 -24.74596 -1.1706851 0.015686275
-5.1804967 -24.939051 -1.3390864 0.0039215689
-3.2822123 -30.441608 -1.2515748 0.031372551
-6.2334557 -24.045982 -0.87170064 0.0078431377
-8.289237 -52.366543 -1.2407539 0.031372551
-0.79154867 -3.9544852 -1.8844296 0.062745102
-6.2871394 -56.067268 -0.99183613 0.094117649
-5.3360701 -25.241501 -0.75494421 0.039215688
-1.1440719 -7.3462706 -2.0838189 0.035294119
-2.056205 -9.8785343 -2.0212178 0.1254902
-15.443476 -58.441586 -0.71241575 0.047058824
-1.5845337 -10.050205 -1.5853343 0.17254902
-2.0626252 -9.9081764 -1.2909437 0.090196081
-8.5140076 -75.761238 0.43385887 0.062745102
-12.761463 -60.023678 -0.36504441 0.047058824
-3.2472408 -20.259344 -2.2136447 0.047058824
-5.8606381 -22.302132 -2.1570668 0.043137256
-12.639697 -59.452465 1.0527533 0.06666667
-3.0061033 -27.048845 -1.7480259 0.054901961
-0.70747763 -4.6637959 0.27358332 0
-3.9675088 -24.680786 -1.1682706 0.015686275
-5.2841763 -24.998764 -1.3432941 0.0039215689
-3.1940174 -28.710186 -1.1808912 0.015686275
-6.2927442 -23.931166 -0.868348 0.0078431377
-1.5911919 -7.6982632 1.4325161 0
-8.4475298 -52.187134 -1.2372239 0.031372551
-0.80071652 -3.9302628 -1.8742857 0.05882353
-6.4513063 -55.774677 -0.98708504 0.094117649
-5.4427967 -25.3085 -0.75752616 0.043137256
-1.1703238 -7.3458509 -2.0849009 0.035294119
-2.0989804 -9.9094448 -2.0290716 0.11372549
-10.102729 -61.005821 -0.008061409 0.10588235
-15.513391 -57.88887 -0.70636624 0.039215688
-1.6124514 -10.001546 -1.5785697 0.19607843
-2.1022334 -9.9240017 -1.2939814 0.086274512
-37.86784 -174.64067 -1.0616251 0.16862746
-3.3224952 -20.275167 -2.2166557 0.031372551
-5.9477444 -22.315973 -2.1604266 0.062745102
-1.0545232 -9.4888868 0.27606237 0
-12.774157 -59.071682 1.0467665 0.06666667
-6.0332251 -22.633511 -1.3684345 0.082352944
-12.310265 -56.934494 2.3654034 0.05882353
-4.0464053 -24.623247 -1.1662291 0.019607844
-5.3874965 -25.054152 -1.3472921 0.0039215689
-3.2780015 -28.559742 -1.17519 0.027450981
-6.3523517 -23.820082 -0.86513531 0.0078431377
-1.3085526 -8.1729021 2.2168753 0
-0.81363136 -3.9237237 -1.8725964 0.062745102
-6.6311455 -55.628536 -0.9849332 0.094117649
-5.5483274 -25.367252 -0.75987446 0.039215688
-1.195295 -7.3377438 -2.0838256 0.035294119
-2.1403039 -9.9325171 -2.0353556 0.10196079
-1.3468022 -8.2271271 -0.0017323268 0.0039215689
-15.787936 -58.100449 -0.70963949 0.047058824
-1.6440226 -9.9761934 -1.5754973 0.23921569
-2.1436863 -9.9474211 -1.2980305 0.094117649
-3.3998959 -20.302467 -2.2209537 0.031372551
-6.0433946 -22.360214 -2.1667652 0.015686275
-4.0596728 -24.182043 -1.7185485 0.0039215689
-12.9449 -58.866432 1.0438991 0.06666667
-2.9539161 -25.021416 -1.6183742 0.0078431377
-6.1289797 -22.673773 -1.3721732 0.06666667
-12.506319 -56.879288 2.3648915 0.05882353
-4.1249447 -24.565464 -1.1641877 0.019607844
-5.4998727 -25.148129 -1.3533884 0.0039215689
-3.3628755 -28.424929 -1.1701418 0.027450981
-6.4175653 -23.732021 -0.86276329 0.015686275
-8.844471 -52.319698 -1.241854 0.06666667
-0.82413095 -3.9065318 -1.8658345 0.05882353
-6.8071117 -55.458019 -0.98235959 0.094117649
-5.6552157 -25.429476 -0.76233959 0.047058824
-1.2208846 -7.3333473 -2.0838289 0.035294119
-2.1861115 -9.9745579 -2.0455644 0.078431375
-15.601711 -56.637669 -0.69247633 0.035294119
-1.6734109 -9.9390631 -1.5705787 0.25882354
-2.1914141 -9.9977713 -1.3056183 0.078431375
-3.4788933 -20.337317 -2.226109 0.031372551
-6.1680779 -22.507706 -2.1831558 0.0078431377
-4.9470291 -22.27496 -1.8668488 0.011764706
-13.649558 -61.045025 1.0833793 0.06666667
-3.0255468 -24.884001 -1.6101849 0.0078431377
-6.2261591 -22.717493 -1.376145 0.06666667
-10.417378 -60.291725 3.5554183 0.043137256
-13.613364 -60.882973 2.5333633 0.10588235
-4.2072372 -24.531055 -1.1632658 0.023529412
-1.3018335 -7.7972574 0.96937048 0
-3.4483268 -28.301779 -1.1655834 0.027450981
-6.4843774 -23.651495 -0.86067128 0.015686275
-9.0509806 -52.426224 -1.2451512 0.06666667
-0.83545303 -3.8965373 -1.8624542 0.05882353
-6.9864221 -55.399265 -0.98175192 0.094117649
-5.7599297 -25.500076 -0.76503801 0.039215688
-1.2451789 -7.3290873 -2.083832 0.035294119
-2.2409484 -10.062687 -2.0651927 0.047058824
-15.651395 -56.092445 -0.68647116 0.035294119
-1.7015201 -9.9060459 -1.5662754 0.26666668
-2.2474642 -10.090865 -1.3187673 0.043137256
-1.74922 -10.175117 -1.1145017 0.019607844
-6.2544751 -22.529142 -2.1872597 0.0078431377
-1.7643251 -10.260147 -0.73024541 0.023529412
-14.004773 -61.669956 1.0952748 0.06666667
-3.0929372 -24.754864 -1.6025076 0.0078431377
-6.3283539 -22.792683 -1.381981 0.054901961
-13.093015 -57.669266 2.4013667 0.062745102
-3.5280368 -28.179007 -1.161024 0.023529412
-6.5552101 -23.602747 -0.85969985 0.015686275
-1.7698995 -10.289061 2.79636 0
-0.84576064 -3.8792906 -1.855692 0.05882353
-7.1957974 -55.497292 -0.98395592 0.094117649
-5.8696384 -25.569221 -0.76773691 0.043137256
-1.2721063 -7.3320966 -2.0859928 0.039215688
-2.3813491 -10.509332 -2.1586077 0.027450981
-15.849265 -56.044987 -0.6865887 0.035294119
-1.7339629 -9.8881969 -1.5644337 0.40392157
-3.9604011 -17.326918 -2.2662168 0.023529412
-6.3852401 -22.690905 -2.2051396 0.0078431377
-5.0859046 -22.186047 -1.8623043 0.043137256
-0.89313889 -7.2366762 0.21067324 0
-1.4494424 -6.4846234 0.11451285 0
-3.1648386 -24.632904 -1.595343 0.0078431377
-5.9468002 -21.145294 -1.2833964 0.031372551
-13.295121 -57.626926 2.4015043 0.062745102
-5.490798 -23.933863 -1.2910957 0.0039215689
-1.9503467 -8.646946 0.7222833 0
-3.612905 -28.063297 -1.1567918 0.035294119
-6.6255379 -23.537239 -0.8581683 0.015686275
-0.8569442 -3.8692362 -1.8523118 0.05882353
-7.3978276 -55.607727 -0.98636955 0.094117649
-5.9781699 -25.650642 -0.77078599 0.043137256
-1.2963961 -7.3276663 -2.0859959 0.035294119
-2.4107831 -10.478296 -2.1539023 0.027450981
-16.043846 -56.022694 -0.68698746 0.035294119
-1.765295 -9.874445 -1.563207 0.39607844
-4.016911 -17.309654 -2.265718 0.031372551
-1.8169626 -10.154799 -1.1136528 0.13725491
-1.8318043 -10.234477 0.24003448 0.43529412
-16.761995 -58.521557 0.70000643 0.039215688
-14.42418 -61.572849 1.0952228 0.06666667
-3.230587 -24.503412 -1.5876654 0.0078431377
-5.9826856 -21.00631 -1.2761791 0.023529412
-13.482465 -57.566788 2.4008315 0.062745102
-1.8294443 -10.222165 -0.48591742 0.43921569
-3.6958439 -27.975727 -1.1537017 0.050980393
-6.7013278 -23.50728 -0.85789722 0.015686275
-1.8281138 -10.214768 -0.24355729 0.42352942
-0.8685742 -3.8553026 -1.8472408 0.062745102
-7.6201224 -55.714764 -0.9887858 0.094117649
-6.0897832 -25.702255 -0.77301812 0.043137256
-1.3225152 -7.318891 -2.0849204 0.035294119
-2.4418609 -10.438684 -2.1476274 0.023529412
-1.8645984 -10.202734 -0.001996984 0.40392157
-15.979466 -55.037868 -0.6756618 0.035294119
-1.8007267 -9.8638363 -1.5625963 0.26666668
-4.0756974 -17.27533 -2.2631981 0.035294119
-1.8556195 -10.155702 -1.1145154 0.23921569
-6.5545959 -22.683649 -2.2088814 0.0078431377
-1.8670685 -10.215718 0.23975196 0.43529412
-1.8598256 -10.177823 -0.72578704 0.42352942
-5.2359962 -22.130251 -1.8606936 0.25490198
-1.0254197 -7.8240471 0.22805203 0
-13.465399 -56.563694 1.0069047 0.047058824
-3.3138225 -24.443764 -1.5846019 0.0078431377
-6.0261154 -20.869038 -1.2691956 0.0078431377
-1.8643951 -10.201241 0.602184 0.44705883
-13.932102 -58.51582 2.4425218 0.10196079
-1.8595016 -10.175935 -0.48405614 0.43921569
-5.5992231 -23.649826 -1.2778958 0.027450981
-1.8673646 -10.216589 1.2737297 0.43529412
-3.7879784 -27.886578 -1.1506128 0.043137256
-6.7795954 -23.455507 -0.85692656 0.015686275
-1.8603613 -10.178292 2.7715108 0.24313726
-1.8655214 -10.207812 -0.24356209 0.43921569
-0.88048333 -3.8487077 -1.8455515 0.06666667
-7.8254948 -55.835541 -0.99141026 0.094117649
-6.2022905 -25.794436 -0.77641785 0.043137256
-1.3467617 -7.3142939 -2.0849235 0.035294119
-2.4709015 -10.407486 -2.1429217 0.027450981
-1.8969011 -10.188466 -0.0020003351 0.40784314
-16.184504 -55.061127 -0.67662525 0.035294119
-1.8334098 -9.8576393 -1.5626005 0.39607844
-4.1357508 -17.273117 -2.2647219 0.039215688
-1.8877757 -10.141509 -1.1136619 0.23921569
-6.6353979 -22.680716 -2.210752 0.0078431377
-1.9016694 -10.213228 0.23984022 0.43529412
-14.881381 -50.641727 0.60683537 0.023529412
-1.8905505 -10.155753 -0.72467333 0.40784314
-1.3306398 -9.7999887 0.28599948 0
-3.3842516 -24.357368 -1.5797431 0.0078431377
-6.0647745 -20.745356 -1.2629104 0.0078431377
-1.8981961 -10.194832 0.60217965 0.44313726
-14.15337 -58.581772 2.4472053 0.10196079
-1.8917174 -10.161693 -0.48368722 0.43529412
-5.6503029 -23.518379 -1.2718196 0.027450981
-1.9004704 -10.206271 1.2732384 0.43529412
-3.8742747 -27.83016 -1.148829 0.050980393
-6.8539319 -23.421221 -0.85651535 0.023529412
-1.8948119 -10.175693 2.7725413 0.20392157
-1.9037783 -8.0669117 1.5106399 0
-1.8948358 -10.177833 -0.24300516 0.43529412
-0.8920266 -3.8382394 -1.8421738 0.06666667
-8.0595818 -55.971687 -0.99434584 0.094117649
-6.3206062 -25.859993 -0.77912056 0.043137256
-1.3724129 -7.305295 -2.0838478 0.035294119
-2.5005412 -10.363715 -2.135864 0.023529412
-1.9349474 -10.185068 -0.002003805 0.39215687
-16.444216 -55.175686 -0.67884332 0.035294119
-1.8679109 -9.842802 -1.5613726 0.40000001
-4.1941123 -17.234156 -2.2616987 0.035294119
-1.9241068 -10.130318 -1.1132362 0.14901961
-6.368504 -21.480133 -2.096103 0.0078431377
-1.9436421 -10.229432 0.24039261 0.43137255
-1.9307587 -10.164119 -0.72579432 0.29411766
-0.90759474 -6.6292362 0.193278 0
-3.4659729 -24.281111 -1.5756371 0.015686275
-6.1145139 -20.63036 -1.257337 0.023529412
-1.9423918 -10.222775 0.60426533 0.44313726
-14.552619 -59.253365 2.4775283 0.10196079
-1.9311888 -10.166154 -0.48425004 0.41960785
-5.7198315 -23.423065 -1.2678459 0.031372551
-1.9363058 -10.191137 1.2722613 0.41960785
-2.9761636 -12.291506 1.0306417 0
-3.9823139 -27.842915 -1.1499653 0.05882353
-6.9561396 -23.444836 -0.85836023 0.043137256
-1.9357677 -10.187334 2.7777126 0.1882353
-2.2306933 -9.2669544 1.737197 0
-1.9366713 -10.194066 -0.24356939 0.42745098
-0.9020955 -3.8245344 -1.8371027 0.062745102
-8.2732992 -56.134377 -0.99774492 0.098039217
-6.4354048 -25.955088 -0.78263807 0.043137256
-1.3988652 -7.3118625 -2.0870872 0.035294119
-2.5282195 -10.328557 -2.1303737 0.023529412
-1.9741509 -10.205884 -0.0020118025 0.39215687
-16.489214 -54.665115 -0.67326128 0.035294119
-1.9028341 -9.8480091 -1.5632232 0.40392157
-4.239675 -17.173784 -2.2556393 0.035294119
-1.9576726 -10.123707 -1.1132407 0.074509807
-6.4466047 -21.48159 -2.098346 0.0078431377
-1.9783156 -10.226681 0.2404806 0.20392157
-17.409321 -57.704876 0.69297528 0.039215688
-1.9706571 -10.188796 -0.72803503 0.41568628
-5.4881306 -22.16692 -1.8685483 0.0039215689
-16.996185 -114.93485 3.3672278 0.24705882
-3.539428 -24.221924 -1.5725729 0.023529412
-6.1632142 -20.544821 -1.253383 0.023529412
-1.9731505 -10.200436 0.60333246 0.18039216
-14.653039 -58.820755 2.4614334 0.10196079
-1.9703236 -10.186953 -0.48556089 0.40000001
-5.7751737 -23.314667 -1.2630295 0.031372551
-1.9731674 -10.200063 1.2742047 0.15294118
-4.0892658 -27.928219 -1.1540605 0.05882353
-7.0581474 -23.501814 -0.86131287 0.043137256
-1.9704483 -10.187413 -0.24357398 0.22352941
-0.91363943 -3.8141503 -1.8337226 0.06666667
-17.360914 -114.64034 -2.038089 0.24705882
-6.5524983 -26.036917 -0.78580552 0.035294119
-1.4228346 -7.2992001 -2.084933 0.039215688
-2.5603817 -10.304276 -2.1272385 0.023529412
-16.630692 -54.446426 -0.67130697 0.035294119
-1.9371804 -9.8411226 -1.5632279 0.40000001
-4.2995787 -17.158693 -2.2556472 0.031372551
-17.394329 -114.8578 0.66098773 0.10980392
-2.0008664 -10.155607 -1.1175343 0.05882353
-6.5273676 -21.477814 -2.1002166 0.0078431377
-17.289518 -56.595745 0.68033904 0.027450981
-2.0204344 -10.252069 -0.73307115 0.078431375
-5.5840845 -22.220861 -1.8747518 0.0039215689
-17.396662 -114.87068 3.3670554 0.24705882
-3.6173451 -24.165823 -1.5697654 0.031372551
-6.2138138 -20.454275 -1.2491965 0.0078431377
-5.8417687 -23.236103 -1.2598922 0.031372551
-1.6634071 -6.7678242 0.5679096 0
-3.8728023 -25.847038 -1.0686725 0.015686275
-7.1682334 -23.568581 -0.86468649 0.050980393
-0.92668921 -3.8070722 -1.8320333 0.062745102
-17.814163 -114.78915 -2.0419428 0.24705882
-6.6767907 -26.124817 -0.78920746 0.035294119
-1.4495584 -7.2937427 -2.0849366 0.035294119
-2.5932193 -10.275639 -2.1233187 0.023529412
-16.883478 -54.556808 -0.67345172 0.035294119
-1.978004 -9.856988 -1.5669253 0.26666668
-4.3703394 -17.17337 -2.2597003 0.023529412
-43.685738 -169.77037 -1.0422922 0.16862746
-2.0653522 -10.280444 -1.132121 0.11372549
-6.6579776 -21.620905 -2.1166084 0.0078431377
-17.611843 -56.902336 0.68477732 0.027450981
-5.686357 -22.28113 -1.881608 0.0039215689
-6.2733288 -20.381594 -1.2461755 0.0078431377
-5.9119239 -23.156319 -1.2567554 0.039215688
-3.9422853 -25.670563 -1.0619907 0.031372551
-7.2865481 -23.645039 -0.86848098 0.050980393
-2.2048154 -8.7661943 1.6475636 0
-0.93903863 -3.8001223 -1.8303441 0.062745102
-11.713702 -73.898804 -1.3155491 0.18039216
-6.796237 -26.20948 -0.79249191 0.035294119
-1.4749925 -7.2884531 -2.08494 0.035294119
-2.6231053 -10.243571 -2.1186135 0.023529412
-12.362833 -59.189068 -0.008202971 0.10588235
-16.941889 -54.077625 -0.66829371 0.035294119
-2.0156281 -9.8653126 -1.5693914 0.26666668
-4.43225 -17.165501 -2.2607188 0.023529412
-9.4857254 -59.905632 0.3447012 0.054901961
-6.7501111 -21.650541 -2.1218302 0.0078431377
-11.794825 -56.48053 1.3348868 0.031372551
-17.818745 -56.867031 0.68507469 0.027450981
-5.7771873 -22.311104 -1.8858558 0.0078431377
-3.7857473 -24.111347 -1.5679954 0.16470589
-6.3276582 -20.306053 -1.2429211 0.0078431377
-12.586699 -60.253922 3.5767474 0.043137256
-5.1867805 -24.981844 -1.1926687 0.0039215689
-5.9795728 -23.085121 -1.2540377 0.039215688
-4.014257 -25.545946 -1.0574309 0.047058824
-7.4073796 -23.741308 -0.87297583 0.043137256
-5.2724137 -25.389673 -0.6074819 0.011764706
-0.95042181 -3.7896287 -1.8269639 0.06666667
-1.4860344 -9.4553652 -0.16899045 0
-6.9163504 -26.293629 -0.79577649 0.031372551
-1.5012101 -7.2868428 -2.0860224 0.035294119
-2.6507869 -10.203837 -2.1123383 0.019607844
-12.608582 -59.329231 -0.0082540112 0.10588235
-17.096575 -53.911251 -0.66699821 0.035294119
-2.0541573 -9.8773594 -1.572473 0.23921569
-4.4880552 -17.134399 -2.2587042 0.023529412
-9.7731724 -60.353622 0.34745109 0.054901961
-4.2361693 -20.101601 -2.2167697 0.039215688
-6.8159652 -21.5963 -2.1188612 0.0078431377
-12.157149 -57.213177 1.3531866 0.031372551
-4.770268 -22.603752 -1.6194437 0.0039215689
-5.8866801 -22.410076 -1.8959709 0.0078431377
-6.383954 -20.237995 -1.2401328 0.0078431377
-12.247636 -57.635849 3.4237907 0.035294119
-5.2831059 -25.006388 -1.1947333 0.0039215689
-6.0498614 -23.025312 -1.2519495 0.039215688
-4.0828314 -25.405363 -1.0522178 0.031372551
-7.5265431 -23.829407 -0.87719035 0.035294119
-1.021826 -5.038506 1.3776071 0
-0.65437269 -2.6717434 0.50184792 0
-0.96456778 -3.7896042 -1.8286567 0.06666667
-7.0423307 -26.396561 -0.79964554 0.035294119
-1.5274365 -7.2851372 -2.0871046 0.035294119
-2.6843362 -10.186762 -2.1107731 0.019607844
-13.070156 -60.457359 -0.0084308945 0.10588235
-16.649658 -51.87891 -0.6426186 0.035294119
-2.0961518 -9.904706 -1.5780163 0.21176471
-4.547823 -17.118444 -2.2587121 0.027450981
-0.69526374 -4.4994063 0.025199126 0
-4.3155746 -20.129255 -2.2214968 0.054901961
-6.9205885 -21.663174 -2.1278064 0.0078431377
-12.547651 -58.049488 1.3739851 0.031372551
-4.83389 -22.516586 -1.6144228 0.0039215689
-2.4690063 -15.158455 0.44451126 0
-6.4435291 -20.18119 -1.2380435 0.0078431377
-12.240338 -56.632576 3.366677 0.035294119
-14.900957 -55.626785 2.3382699 0.05882353
-6.1208501 -22.969147 -1.250071 0.039215688
-4.1550732 -25.292212 -1.0481477 0.039215688
-7.6451921 -23.913153 -0.88126487 0.015686275
-5.462225 -25.410498 -0.60890889 0.047058824
-0.9735961 -3.7758958 -1.8235853 0.062745102
-7.1546078 -26.482162 -0.80292898 0.031372551
-1.5502994 -7.2801361 -2.0871077 0.035294119
-2.712188 -10.162972 -2.1076369 0.019607844
-13.272915 -60.474422 -0.0084637711 0.10588235
-16.917747 -52.149471 -0.64664322 0.035294119
-2.1357458 -9.9365044 -1.5841745 0.1882353
-4.5932255 -17.073277 -2.2546742 0.027450981
-10.152465 -60.164875 0.34668961 0.054901961
-4.375351 -20.099895 -2.21979 0.047058824
-12.656784 -57.677681 1.3660935 0.031372551
-16.099745 -49.635555 0.59973359 0.023529412
-4.0556054 -24.224743 -1.5780252 0.0078431377
-6.4796934 -20.077147 -1.2329232 0.031372551
-12.399265 -56.507885 3.3615477 0.035294119
-15.089266 -55.629669 2.3403575 0.05882353
-5.4943757 -25.177256 -1.2046465 0.0039215689
-6.188765 -22.934225 -1.249241 0.047058824
-4.2204552 -25.196117 -1.0447292 0.039215688
-9.0353222 -27.929634 -1.0302483 0.0078431377
-6.1867461 -22.924173 4.326829 0.0039215689
-5.555778 -25.455528 -0.61041641 0.047058824
-0.98903203 -3.7754207 -1.825278 0.05882353
-8.4819775 -30.890081 -0.93747944 0.06666667
-1.5773776 -7.2701697 -2.0860324 0.035294119
-2.7532592 -10.159842 -2.1092122 0.019607844
-13.546157 -60.606258 -0.0085182711 0.10588235
-17.055218 -51.893997 -0.64431226 0.035294119
-2.1859767 -9.9820185 -1.5927953 0.15294118
-4.6608386 -17.062956 -2.2556939 0.027450981
-10.402534 -60.2356 0.34729534 0.054901961
-48.292191 -174.95323 -1.0794989 0.16862746
-4.4420257 -20.03618 -2.2146535 0.062745102
-6.5989971 -20.180447 -1.9867145 0.0078431377
-13.14781 -58.830238 1.3945701 0.043137256
-16.278915 -49.538982 0.59929591 0.023529412
-4.9690843 -22.384586 -1.6074556 0.074509807
-6.1878691 -22.588739 -1.916538 0.0078431377
-1.7308751 -10.279253 0.30149132 0
-15.956342 -57.936993 1.040459 0.06666667
-4.1594911 -24.271715 -1.5821388 0.0078431377
-6.5604649 -20.063293 -1.233632 0.047058824
-13.071666 -58.489674 3.4824204 0.043137256
-15.374055 -55.829231 2.3512044 0.05882353
-6.2735648 -22.898539 -1.2486227 0.047058824
-4.3034763 -25.100769 -1.0414766 0.031372551
-9.1737671 -27.989447 -1.0337652 0.0078431377
-5.6735935 -25.523554 -0.61258119 0.050980393
-1.0008719 -3.7721288 -1.8252796 0.054901961
-8.616663 -30.997883 -0.9415831 0.06666667
-1.6010487 -7.2687664 -2.0871143 0.035294119
-2.7851477 -10.150976 -2.1092162 0.015686275
-13.680529 -60.317524 -0.0085119521 0.10588235
-17.204241 -51.798252 -0.64381409 0.035294119
-2.2401218 -10.075133 -1.6087999 0.086274512
-4.7176123 -17.05953 -2.2572174 0.027450981
-4.4881592 -19.948284 -2.2065129 0.047058824
-6.6346521 -20.076323 -1.9785311 0.0078431377
-13.898994 -61.276115 1.4535925 0.043137256
-5.0322804 -22.337574 -1.6052288 0.074509807
-5.8657379 -21.163824 -1.7972373 0.0039215689
-6.6221848 -20.038631 -1.2334065 0.0078431377
-13.330696 -58.779099 3.5021203 0.043137256
-2.3128579 -8.4614296 0.35583499 0
-5.7045674 -25.289856 -1.2119483 0.019607844
-6.3411527 -22.863163 -1.2477924 0.054901961
-7.1589584 -21.649485 -0.8005693 0.0078431377
-5.7741537 -25.595112 -0.61474353 0.050980393
-1.0146717 -3.7682414 -1.8252814 0.050980393
-8.7716646 -31.11207 -0.9460395 0.06666667
-1.6285293 -7.2664089 -2.0881965 0.031372551
-2.8287377 -10.163148 -2.1139309 0.015686275
-17.409296 -51.780128 -0.64440274 0.035294119
-4.7800889 -17.041931 -2.2572255 0.035294119
-15.865444 -56.118137 -0.34745297 0.043137256
-4.5630193 -19.939257 -2.2073805 0.039215688
-6.7183547 -20.081867 -1.9815187 0.0078431377
-17.17046 -51.071526 0.61922371 0.023529412
-5.1086988 -22.295464 -1.6035624 0.10196079
-5.8997307 -20.988577 -1.7842078 0.0039215689
-16.335022 -57.772816 1.0394386 0.06666667
-6.7045002 -20.04052 -1.2350473 0.0078431377
-1.4473733 -6.4826589 0.38562414 0
-15.825667 -55.9767 2.3618677 0.05882353
-5.8251443 -25.389257 -1.2177461 0.015686275
-15.657037 -55.381203 4.6906071 0.047058824
-5.8913627 -25.674881 -0.61718851 0.050980393
-1.0301471 -3.7751334 -1.8303558 0.039215688
-1.8236403 -10.200473 -0.18293463 0.43529412
-8.9112005 -31.209454 -0.9499101 0.054901961
-1.6534811 -7.2645421 -2.0892785 0.035294119
-2.8656561 -10.164845 -2.1162901 0.015686275
-17.542168 -51.608368 -0.64301026 0.035294119
-3.2291384 -13.967974 -2.2340658 0.031372551
-4.827795 -16.9953 -2.2531881 0.023529412
-1.8174162 -10.166473 0.05806477 0.42352942
-16.051439 -56.065041 -0.34747669 0.043137256
-4.6518469 -20.020622 -2.2181113 0.031372551
-6.8144555 -20.146002 -1.9900906 0.0078431377
-13.382998 -57.163719 1.3581202 0.031372551
-16.716249 -49.185627 0.59697986 0.023529412
-5.1771111 -22.254919 -1.601895 0.1254902
-5.9450679 -20.884424 -1.777045 0.0039215689
-1.8203118 -10.182028 0.29915938 0.42352942
-16.480122 -57.556709 1.0365045 0.047058824
-1.8250672 -10.208587 -0.66689175 0.41960785
-6.785078 -20.059574 -1.2376198 0.0078431377
-1.7428361 -6.2551441 0.26331699 0
-5.5792441 -23.965467 -1.1503838 0.011764706
-6.5060911 -22.837166 -1.2488621 0.06666667
-16.324932 -57.014797 4.8335524 0.047058824
-1.8245035 -10.205343 -0.42453027 0.43137255
-7.2531247 -21.432127 -0.79442114 0.0078431377
-3.5581925 -12.573636 2.3816931 0
-5.9974999 -25.744562 -0.61935163 0.050980393
-1.0435014 -3.7748051 -1.8320521 0.039215688
-1.858449 -10.189827 -0.1828668 0.43921569
-9.0717258 -31.345915 -0.955082 0.06666667
-1.678414 -7.258461 -2.0892837 0.035294119
-2.9021482 -10.158134 -2.1170857 0.019607844
-17.774067 -51.680752 -0.64477444 0.035294119
-3.2782612 -13.956161 -2.2340739 0.035294119
-4.874527 -16.931978 -2.2471373 0.043137256
-1.8543181 -10.16764 0.058107845 0.43529412
-16.301678 -56.175632 -0.34857255 0.043137256
-4.698791 -19.903063 -2.2069709 0.031372551
-6.9105406 -20.192736 -1.9971926 0.0078431377
-13.733899 -57.725609 1.372623 0.031372551
-16.708523 -48.591755 0.59042841 0.023529412
-5.2515092 -22.21661 -1.600509 0.1254902
-5.9845967 -20.744095 -1.766959 0.0039215689
-1.8543199 -10.167463 0.29892519 0.42352942
-1.8591658 -10.194017 -0.66638154 0.41960785
-6.8705058 -20.076406 -1.2402117 0.0078431377
-16.048603 -55.305241 2.3380992 0.05882353
-5.6366053 -23.828512 -1.1447973 0.027450981
-6.5950375 -22.840305 -1.2503526 0.039215688
-16.601887 -57.20422 4.8546224 0.047058824
-1.8593283 -10.194695 -0.42436942 0.43137255
-7.2887664 -21.288588 -0.79010582 0.0078431377
-6.1105032 -25.812132 -0.62151676 0.050980393
-1.0603882 -3.7811875 -1.837127 0.035294119
-1.8935068 -10.170964 -0.18266134 0.43921569
-9.2272797 -31.450312 -0.95930594 0.054901961
-1.704987 -7.2520623 -2.0892875 0.035294119
-2.9448919 -10.166039 -2.121016 0.019607844
-17.401749 -50.006386 -0.62472403 0.035294119
-3.3275073 -13.93617 -2.2328501 0.043137256
-4.9376564 -16.917606 -2.2476513 0.027450981
-1.8915519 -10.160578 0.05810244 0.43529412
-1.9288676 -6.7227817 -0.042390361 0
-4.7726274 -19.889374 -2.2074103 0.023529412
-7.0146751 -20.253555 -2.0057659 0.0078431377
-17.388767 -49.968739 0.60793269 0.023529412
-5.3357067 -22.208649 -1.6013591 0.14509805
-6.0346127 -20.633884 -1.7594717 0.0039215689
-1.8945621 -10.176108 0.29938331 0.41568628
-16.243889 -55.221764 0.99645406 0.043137256
-1.8979986 -10.194778 -0.66689962 0.41568628
-6.9598165 -20.096128 -1.2430187 0.0078431377
-14.368553 -59.416779 3.5518987 0.043137256
-16.359798 -55.61385 2.3536522 0.05882353
-5.6890106 -23.663828 -1.1379042 0.035294119
-6.7668862 -23.114607 -1.2667345 0.047058824
-16.749344 -56.932487 4.8367233 0.047058824
-1.8966613 -10.187615 -0.42437485 0.41960785
-7.3377376 -21.178499 -0.78703249 0.0078431377
-2.3125119 -8.0218554 1.5220528 0
-6.2295747 -25.8904 -0.62396264 0.047058824
-1.0766759 -3.787694 -1.8422016 0.035294119
-1.930511 -10.171957 -0.18280707 0.43137255
-9.3850842 -31.578619 -0.96423048 0.054901961
-1.7302718 -7.2458777 -2.0892911 0.035294119
-2.991574 -10.193088 -2.1288707 0.019607844
-1.3972111 -5.8932338 -0.0015212737 0
-17.598808 -50.00927 -0.62554789 0.035294119
-3.378005 -13.931957 -2.2340879 0.047058824
-4.9921136 -16.884872 -2.2456367 0.027450981
-1.9331175 -10.185134 0.058279421 0.43529412
-16.652782 -55.888542 -0.34758043 0.043137256
-4.8277307 -19.814482 -2.2009864 0.031372551
-7.0389085 -20.097313 -1.9927435 0.0078431377
-17.75346 -50.446892 0.61448824 0.023529412
-5.4217696 -22.224569 -1.6038858 0.094117649
-6.0883098 -20.551388 -1.7542654 0.0039215689
-1.9346473 -10.192792 0.30007344 0.41960785
-16.547642 -55.536228 1.0031474 0.047058824
-1.9327886 -10.183985 -0.66664839 0.40000001
-7.0524993 -20.135536 -1.2469907 0.0078431377
-3.7646089 -15.498883 0.92650783 0
-5.7466989 -23.542768 -1.1330633 0.035294119
-17.03017 -57.148518 4.8600912 0.047058824
-1.9298943 -10.168976 -0.42389005 0.40000001
-7.399622 -21.118643 -0.78578073 0.0078431377
-1.7289991 -7.2383952 1.9943142 0
-2.3066609 -7.9004388 1.5005406 0
-6.3476391 -25.980909 -0.62668866 0.050980393
-1.0919729 -3.7906623 -1.8455852 0.035294119
-1.9675467 -10.172812 -0.18295278 0.41960785
-9.5438986 -31.706198 -0.96915525 0.054901961
-1.7564703 -7.2433414 -2.0903735 0.035294119
-3.0305278 -10.193655 -2.1312306 0.019607844
-18.191429 -51.118858 -0.64022744 0.035294119
-3.4285164 -13.92756 -2.2353253 0.039215688
-5.0648017 -16.912727 -2.2517118 0.023529412
-1.9733198 -10.201674 0.058410857 0.17254902
-16.49192 -54.654587 -0.34030414 0.043137256
-4.8968492 -19.797319 -2.2009962 0.047058824
-7.0996294 -20.046181 -1.9901462 0.0078431377
-17.808414 -50.045399 0.61032534 0.023529412
-5.4983282 -22.201448 -1.6036171 0.054901961
-6.1415105 -20.468773 -1.7490592 0.0039215689
-15.135107 -50.172607 0.90711248 0.043137256
-1.9729774 -10.20048 -0.66819143 0.13725491
-7.148231 -20.182064 -1.2514292 0.0078431377
-16.660748 -55.211014 2.341428 0.05882353
-5.8104033 -23.448727 -1.1295285 0.035294119
-6.3979292 -21.315443 -1.1706302 0.027450981
-17.0597 -56.527626 4.8123007 0.047058824
-7.454464 -21.039791 -0.78382802 0.0078431377
-2.3399074 -7.9109826 1.5041218 0
-6.4605918 -26.04763 -0.62885338 0.047058824
-1.11089 -3.807637 -1.8557326 0.035294119
-9.6911373 -31.811817 -0.97337788 0.031372551
-1.7814101 -7.2410307 -2.0914555 0.035294119
-3.0872755 -10.258374 -2.146935 0.019607844
-18.404255 -51.178474 -0.64175755 0.035294119
-3.476609 -13.923595 -2.2365627 0.035294119
-5.119679 -16.891865 -2.251214 0.019607844
-16.862881 -55.218975 -0.34418228 0.043137256
-4.9634337 -19.784649 -2.2014339 0.031372551
-7.1863179 -20.078541 -1.9957398 0.0078431377
-17.7924 -49.48172 0.60413998 0.023529412
-6.1848121 -20.368067 -1.7422224 0.0039215689
-17.533314 -57.406563 1.039047 0.06666667
-7.2394876 -20.225683 -1.2556341 0.0078431377
-15.197527 -49.782448 2.1132257 0.050980393
-5.8684635 -23.351692 -1.1258067 0.039215688
-6.3971829 -21.060955 -1.1578368 0.015686275
-17.473625 -57.21006 4.8753099 0.054901961
-4.9646082 -24.81786 -1.0351955 0.10588235
-7.5092549 -20.973412 -0.78229523 0.0078431377
-3.0855169 -10.250836 1.9514906 0
-6.5783815 -26.149921 -0.63185954 0.047058824
-1.1237439 -3.7998796 -1.8540436 0.035294119
-9.8586121 -31.940086 -0.97842044 0.019607844
-1.8079178 -7.2342544 -2.091459 0.035294119
-3.1504107 -10.329201 -2.1642098 0.027450981
-18.491611 -50.836185 -0.63834119 0.035294119
-3.5275977 -13.910562 -2.2365696 0.039215688
-5.16154 -16.808363 -2.2426267 0.027450981
-17.605839 -56.898582 -0.3550579 0.043137256
-5.0110946 -19.669844 -2.1907218 0.047058824
-7.2830443 -20.115473 -2.0020792 0.0078431377
-1.63097 -6.5460863 0.15554668 0
-18.280701 -50.257648 0.61441994 0.023529412
-5.6830082 -22.278069 -1.612025 0.0039215689
-6.2440381 -20.295565 -1.7379944 0.0039215689
-12.016047 -58.573532 1.7322365 0.062745102
-17.274071 -55.829151 1.0115892 0.047058824
-7.3231297 -20.225075 -1.2572755 0.0078431377
-17.596691 -56.867905 2.4168394 0.062745102
-5.9380441 -23.267918 -1.1228322 0.035294119
-6.441154 -20.930347 -1.1519703 0.023529412
-17.528336 -56.646652 4.8327169 0.047058824
-5.0506759 -24.775808 -1.0342286 0.082352944
-7.5641317 -20.885464 -0.78006256 0.015686275
-6.704083 -26.241613 -0.63467997 0.047058824
-1.1389155 -3.8065367 -1.8591181 0.035294119
-14.021203 -44.852489 -1.3750972 0.023529412
-1.8325646 -7.2358232 -2.0936201 0.035294119
-3.1945736 -10.356504 -2.1720643 0.039215688
-18.66642 -50.818951 -0.63888019 0.035294119
-3.5692706 -13.891592 -2.2353449 0.031372551
-5.2261853 -16.829754 -2.24769 0.019607844
-12.346539 -59.236286 0.34352374 0.054901961
-16.940067 -54.152271 -0.33830836 0.043137256
-5.0748572 -19.66153 -2.1915882 0.062745102
-7.3682156 -20.152117 -2.0080447 0.0078431377
-18.413593 -50.132248 0.61357164 0.023529412
-5.7640343 -22.302402 -1.6151096 0.0039215689
-6.294621 -20.233837 -1.734417 0.0039215689
-17.758347 -56.758938 1.0294361 0.047058824
-4.7278109 -22.846193 -1.4991996 0.015686275
-7.4335499 -20.329195 -1.2652098 0.0078431377
-17.541862 -56.068584 2.38517 0.05882353
-5.995966 -23.190987 -1.1200428 0.039215688
-6.4925079 -20.864105 -1.1494604 0.015686275
-2.514528 -9.8475819 1.2468518 0
-5.1538568 -24.880919 -1.0393026 0.039215688
-7.620019 -20.835169 -0.77908987 0.023529412
-6.8187833 -26.344072 -0.63768566 0.047058824
-1.1605256 -3.8263216 -1.8709568 0.035294119
-12.599133 -59.358322 -1.0675336 0.16862746
-14.233931 -44.953022 -1.3797954 0.023529412
-1.8570812 -7.2214122 -2.091466 0.035294119
-3.2087286 -10.26977 -2.1563692 0.031372551
-3.9535031 -15.135715 -0.0027838713 0
-18.80785 -50.630058 -0.63739586 0.035294119
-3.6201417 -13.878218 -2.235352 0.035294119
-5.2914195 -16.82163 -2.2492151 0.019607844
-12.376734 -58.314152 0.33839586 0.039215688
-17.082668 -53.914272 -0.33724034 0.039215688
-5.1427941 -19.62722 -2.1898823 0.054901961
-7.4739866 -20.210611 -2.016618 0.0078431377
-18.552505 -49.944283 0.61207622 0.023529412
-5.9080338 -22.516224 -1.6321733 0.0039215689
-6.3469801 -20.142044 -1.7285588 0.0039215689
-12.955471 -61.027897 1.8073779 0.090196081
-17.812366 -56.209213 1.0206119 0.047058824
-4.7948499 -22.750433 -1.4940852 0.023529412
-7.5219321 -20.339037 -1.2675507 0.0078431377
-15.878974 -50.126598 2.1347394 0.050980393
-6.0696511 -23.126165 -1.1180015 0.043137256
-6.5386639 -20.744804 -1.1442235 0.015686275
-17.981106 -56.738438 4.8508611 0.047058824
-5.3066583 -25.150919 -1.0514016 0.06666667
-7.7018943 -20.821886 -0.77966022 0.015686275
-2.2996483 -7.4084458 1.4144897 0
-6.9429159 -26.423075 -0.64022547 0.047058824
-1.1760765 -3.8289595 -1.8743404 0.035294119
-13.68419 -42.706718 -1.3123593 0.023529412
-1.8842573 -7.222136 -2.0936272 0.039215688
-3.2457409 -10.262052 -2.1571593 0.070588239
-18.854778 -50.219543 -0.63308191 0.035294119
-3.6644459 -13.850038 -2.2328968 0.027450981
-5.3464441 -16.791538 -2.2477062 0.015686275
-13.218467 -61.213951 0.35549879 0.054901961
-17.274422 -53.865543 -0.33733681 0.039215688
-5.2112575 -19.608959 -2.1898918 0.031372551
-7.5725417 -20.258755 -2.0240741 0.0078431377
-18.815514 -50.114857 0.61495143 0.023529412
-6.4001403 -20.066444 -1.724004 0.0039215689
-12.728651 -58.954117 1.7472129 0.086274512
-16.318096 -50.892551 0.92500472 0.043137256
-4.8615298 -22.674858 -1.4902518 0.023529412
-7.6153803 -20.372259 -1.2712898 0.0078431377
-15.855536 -49.454319 2.1084266 0.050980393
-6.1420317 -23.07378 -1.1165193 0.050980393
-6.5938921 -20.668427 -1.1412947 0.023529412
-18.459877 -57.548031 4.9255638 0.054901961
-5.4096465 -25.20236 -1.054354 0.06666667
-7.7871904 -20.828356 -0.78093117 0.023529412
-2.9498293 -9.340662 1.7858593 0
-7.0662098 -26.514351 -0.64304549 0.027450981
-1.1950262 -3.8418772 -1.882797 0.035294119
-13.278412 -60.471455 -1.0892475 0.16862746
-13.687095 -42.209877 -1.2985835 0.023529412
-1.9114605 -7.2227592 -2.0957885 0.035294119
-3.2742372 -10.228092 -2.1524539 0.054901961
-19.008602 -50.097164 -0.63239723 0.035294119
-3.712749 -13.836974 -2.2329035 0.023529412
-5.3902631 -16.727308 -2.2416465 0.023529412
-13.69042 -62.339092 0.36229324 0.054901961
-18.09634 -55.752079 -0.34954607 0.043137256
-5.292192 -19.636511 -2.1950483 0.031372551
-7.6686869 -20.299009 -2.0307853 0.0078431377
-15.263138 -40.254597 0.49443397 0.011764706
-6.0786724 -22.524101 -1.635829 0.0039215689
-6.4553146 -19.998304 -1.7201012 0.0039215689
-12.966191 -59.053612 1.7514707 0.086274512
-15.919869 -49.066753 0.89277536 0.043137256
-4.9294553 -22.606886 -1.4869307 0.031372551
-7.7304525 -20.461061 -1.2785259 0.0078431377
-15.237074 -56.150272 3.3804307 0.035294119
-18.491608 -56.964981 2.4315026 0.062745102
-6.2130651 -23.017317 -1.1148508 0.035294119
-6.6499009 -20.595718 -1.1385756 0.031372551
-16.204365 -49.939167 4.2789674 0.047058824
-5.5190783 -25.280706 -1.0584497 0.074509807
-7.8797321 -20.853168 -0.78290278 0.023529412
-1.2072775 -3.8340504 -1.881108 0.035294119
-13.364314 -59.866478 -1.0792232 0.16862746
-13.85936 -42.237606 -1.3009412 0.023529412
-1.9356188 -7.2121415 -2.094713 0.035294119
-3.3013132 -10.190335 -2.1469636 0.031372551
-19.257996 -50.224442 -0.63487077 0.035294119
-3.7652175 -13.83898 -2.2353721 0.023529412
-5.4622612 -16.749659 -2.2472162 0.019607844
-13.569342 -60.780235 0.35345894 0.054901961
-17.188171 -52.3414 -0.3286047 0.039215688
-5.3575139 -19.606228 -2.1937709 0.062745102
-7.7980881 -20.424334 -2.0460608 0.0078431377
-15.42939 -40.268085 0.49524388 0.011764706
-6.1763577 -22.571785 -1.6408716 0.0039215689
-6.5188293 -19.956524 -1.7184803 0.0039215689
-12.931729 -57.934883 1.7195792 0.062745102
-16.082275 -48.984104 0.89226782 0.039215688
-4.9987183 -22.546499 -1.4841223 0.031372551
-7.8190098 -20.478487 -1.2813325 0.0078431377
-15.633835 -56.824062 3.4242573 0.035294119
-16.509266 -50.279667 2.1484635 0.054901961
-6.2869778 -22.972189 -1.1137419 0.035294119
-6.7167377 -20.557018 -1.1377455 0.031372551
-16.181461 -49.283836 4.2276082 0.047058824
-5.6265063 -25.346895 -1.0620555 0.039215688
-7.9825897 -20.9037 -0.78585577 0.0078431377
-8.5771427 -31.266945 -0.7596702 0.011764706
-1.22684 -3.850482 -1.8912554 0.031372551
-13.4935 -59.517483 -1.0737671 0.16862746
-13.896972 -41.883972 -1.2914896 0.023529412
-1.9584689 -7.2017941 -2.0936375 0.039215688
-3.3325894 -10.171709 -2.1453979 0.023529412
-19.363602 -50.003536 -0.63291198 0.035294119
-3.8195846 -13.85669 -2.2403018 0.023529412
-5.5290418 -16.765154 -2.2517738 0.019607844
-13.942152 -61.487457 0.35782033 0.054901961
-17.31485 -52.143528 -0.32774696 0.039215688
-5.4299788 -19.614985 -2.1967821 0.047058824
-15.442632 -39.907059 0.49140996 0.011764706
-5.8685794 -21.182974 -1.5413612 0.0039215689
-16.588417 -49.962399 0.91108412 0.043137256
-5.0636926 -22.486809 -1.4813133 0.031372551
-7.9287786 -20.560217 -1.2881019 0.0078431377
-15.843672 -56.848656 3.4288723 0.035294119
-16.625355 -50.072796 2.1419504 0.054901961
-6.3598738 -22.939495 -1.1131923 0.035294119
-6.7709637 -20.492765 -1.1354456 0.031372551
-2.5650661 -9.3692055 1.1918025 0
-5.7388968 -25.452623 -1.067294 0.015686275
-8.0822353 -20.955189 -0.78880817 0.0078431377
-5.3642874 -16.268457 3.1222064 0.0039215689
-8.6786051 -31.23045 -0.75949723 0.011764706
-1.2417682 -3.8528287 -1.8946441 0.035294119
-13.679955 -59.351429 -1.0716838 0.16862746
-14.021266 -41.757687 -1.2892052 0.023529412
-1.9821229 -7.1909018 -2.0925665 0.035294119
-3.3830426 -10.204144 -2.1548328 0.031372551
-19.611416 -50.108223 -0.63521391 0.035294119
-3.8672237 -13.838939 -2.2396998 0.023529412
-5.5857124 -16.737494 -2.2507858 0.015686275
-17.50555 -52.091976 -0.32788518 0.039215688
-5.5059843 -19.618141 -2.199374 0.039215688
-8.4910212 -21.778351 -2.1876013 0.0078431377
-19.363182 -49.475395 0.61020178 0.023529412
-13.267405 -57.567112 1.7113004 0.062745102
-5.1345639 -22.429422 -1.4787612 0.031372551
-8.0279417 -20.598297 -1.292335 0.0078431377
-15.99854 -56.618122 3.4183829 0.035294119
-16.795832 -49.985863 2.1407504 0.054901961
-6.4479132 -22.939375 -1.1143329 0.043137256
-6.8295903 -20.426481 -1.1331644 0.031372551
-16.476589 -49.038097 4.2161517 0.047058824
-8.1755514 -20.974176 -0.79066789 0.0078431377
-3.0693312 -9.2720079 1.7808145 0
-8.8107538 -31.27194 -0.76130301 0.011764706
-1.2617136 -3.8652024 -1.9031011 0.031372551
-13.966998 -59.596561 -1.0770603 0.16862746
-14.175493 -41.709599 -1.2893437 0.023529412
-2.0116386 -7.1944909 -2.0958071 0.035294119
-3.4229329 -10.198896 -2.1564081 0.047058824
