# .PCD v0.7 - Point Cloud Data file format
VERSION 0.7
FIELDS x y z intensity
SIZE 4 4 4 4
TYPE F F F F
COUNT 1 1 1 1
WIDTH 1101
HEIGHT 1
VIEWPOINT 0 0 0 1 0 0 0
POINTS 1101
DATA ascii
-4.4544907 -0.96961302 -2.2366583 0.043137256
-46.780712 -14.646435 -0.88344753 0.10980392
-17.266493 -3.6234133 -0.53161478 0
-7.3612165 -1.9631448 -2.2019155 0.047058824
-10.51512 -2.22543 -2.2031865 0.035294119
-21.169333 -5.5345378 -0.01301504 0.0078431377
-81.751213 -12.845946 -1.0115975 0.082352944
-13.375578 -3.5193133 -2.1959536 0.027450981
-16.775335 -3.5226355 -2.2220531 0.031372551
-59.630562 -18.649576 0.33470386 0.054901961
-64.023766 -13.312032 -0.4161759 0.054901961
-15.558679 -4.083909 -1.7671856 0.0039215689
-48.976562 -12.72873 1.1565506 0.027450981
-15.526711 -4.075254 -1.1484967 0.0039215689
-57.072479 -11.87081 0.99010623 0.047058824
-26.458006 -8.3146048 -1.8064336 0.027450981
-16.271748 -2.5842512 -0.98426956 0.023529412
-49.827797 -12.947847 2.984587 0.035294119
-6.5641379 -1.4052769 0.27639055 0
-17.060757 -4.4719887 -0.84305125 0
-16.217077 -3.4061739 -0.89136255 0.015686275
-48.130116 -12.506649 6.1072054 0.031372551
-37.186226 -11.65733 -1.6163594 0.019607844
-17.15871 -2.7230525 -0.62659848 0.039215688
-21.542629 -5.6314502 -0.53651893 0.0039215689
-4.4436464 -0.95035583 -2.2298992 0.047058824
-46.820091 -14.478727 -0.88333976 0.10980392
-17.29471 -3.5655098 -0.53212398 0
-7.3531003 -1.9328222 -2.1976116 0.050980393
-10.542043 -2.1918211 -2.2071407 0.039215688
-7.0180688 -1.8460283 -0.006344486 0
-18.355961 -2.8440287 -0.23150085 0.0039215689
-13.383955 -3.4708209 -2.1953659 0.023529412
-16.853624 -3.4767134 -2.2307067 0.039215688
-65.548294 -20.241871 0.36752981 0.05882353
-15.407146 -3.9865031 -1.7487203 0.0039215689
-15.980834 -2.4810281 -1.542338 0.0039215689
-48.958702 -12.54109 1.1549848 0.027450981
-107.06457 -16.428219 1.2047975 0.062745102
-15.509917 -4.0123401 -1.1462841 0.015686275
-15.450406 -3.1905165 -1.3171059 0.027450981
-49.988182 -15.452217 1.503638 0.05882353
-59.594337 -12.175721 1.0329425 0.06666667
-26.689074 -8.283637 -1.8201438 0.0078431377
-16.560915 -2.5695615 -1.0009594 0.0039215689
-48.313282 -12.375422 2.8914979 0.035294119
-4.0898957 -0.8769294 0.17454033 0
-16.221045 -3.3471496 -0.89097369 0.015686275
-37.276348 -11.54194 -1.6185833 0.019607844
-52.332291 -13.40294 -1.2900815 0.035294119
-4.4538836 -0.9362722 -2.2332926 0.035294119
-46.906113 -14.334259 -0.88415617 0.054901961
-7.3445339 -1.9039009 -2.1933072 0.05882353
-10.537718 -2.1537728 -2.2048023 0.035294119
-83.585136 -12.549462 -1.0334047 0.082352944
-13.399227 -3.426616 -2.1960108 0.023529412
-16.845613 -3.4161439 -2.2282052 0.023529412
-65.550003 -20.003843 0.36702254 0.05882353
-20.694712 -4.1852155 -0.13738929 0.0078431377
-15.401002 -3.9297717 -1.7466012 0.0039215689
-16.292246 -2.4726841 -1.5711533 0.0039215689
-49.263752 -12.444227 1.1610864 0.027450981
-96.857521 -14.535815 1.0891793 0.062745102
-15.492186 -3.9523327 -1.1440693 0.0039215689
-15.460904 -3.1384981 -1.3171364 0.031372551
-50.123314 -15.311199 1.5060521 0.05882353
-69.434647 -13.938432 1.2023842 0.070588239
-26.903528 -8.2512417 -1.8328218 0.0078431377
-16.845787 -2.555269 -1.0174139 0.0039215689
-47.502056 -12.000138 2.8406415 0.023529412
-59.825951 -12.014769 2.4622805 0.10196079
-16.858318 -4.2957139 -0.83184594 0.035294119
-16.212479 -3.2886558 -0.8899492 0.019607844
-37.153835 -11.36865 -1.6117527 0.019607844
-17.983353 -2.7254179 -0.65556443 0.0039215689
-11.327885 -2.3093612 2.1401556 0
-52.659557 -13.299761 -1.2971164 0.035294119
-4.4501762 -0.91769564 -2.2299182 0.035294119
-47.019634 -14.179794 -0.88541251 0.054901961
-17.299574 -3.439225 -0.53160399 0
-7.3290353 -1.8705635 -2.1868434 0.050980393
-10.534 -2.1120203 -2.2024662 0.031372551
-51.589268 -12.828054 -0.027650625 0.054901961
-18.996746 -2.8049304 -0.23920962 0.0039215689
-13.396356 -3.3728337 -2.1935747 0.023529412
-16.85413 -3.3527663 -2.2277346 0.023529412
-65.546265 -19.739614 0.36643657 0.05882353
-20.72562 -4.1115761 -0.13753496 0.0039215689
-15.461628 -3.8839233 -1.7517992 0.0039215689
-49.301273 -12.260818 1.1607924 0.027450981
-96.597496 -14.134228 1.0854676 0.062745102
-15.529813 -3.9004343 -1.14579 0.0039215689
-15.468394 -3.0801954 -1.3168424 0.031372551
-69.559845 -13.697644 1.2035241 0.070588239
-27.113281 -8.2056742 -1.8449916 0.0078431377
-17.218555 -2.5457499 -1.0390346 0.0039215689
-47.460449 -11.804006 2.8354583 0.023529412
-59.073448 -11.638301 2.4294968 0.10196079
-16.839046 -4.2244067 -0.83019263 0
-16.193071 -3.2222102 -0.88829386 0.015686275
-52.944733 -13.164448 -1.3030248 0.035294119
-4.4640312 -0.90340865 -2.2350042 0.043137256
-47.17622 -14.04659 -0.88752216 0.054901961
-17.307552 -3.3772557 -0.5315212 0
-7.3280387 -1.842335 -2.1846993 0.050980393
-10.549013 -2.0759139 -2.2040608 0.035294119
-51.583218 -12.634769 -0.027737195 0.054901961
-13.39653 -3.3224328 -2.1917534 0.035294119
-16.850151 -3.290102 -2.2257411 0.031372551
-65.557243 -19.492842 0.36596623 0.05882353
-20.680941 -4.0270495 -0.13719918 0.0039215689
-15.475094 -3.8291216 -1.7518327 0.0039215689
-17.460789 -2.5184309 -1.6803836 0.0039215689
-56.507877 -13.835056 1.3288426 0.031372551
-96.527443 -13.77923 1.0839465 0.062745102
-15.5162 -3.8387756 -1.1438575 0.0039215689
-15.471228 -3.0238669 -1.3162196 0.031372551
-46.110497 -13.729315 1.3826042 0.043137256
-57.82568 -11.183862 0.99988055 0.047058824
-17.602894 -2.5383313 -1.0613587 0.0039215689
-50.663288 -12.408537 3.0233746 0.035294119
-58.787983 -11.368465 2.4160254 0.10196079
-16.176771 -3.15957 -0.88684803 0.019607844
-38.012104 -11.331374 -1.6453334 0.019607844
-18.342749 -2.6435003 -0.66782111 0.035294119
-53.056408 -12.994858 -1.304752 0.035294119
-4.4670057 -0.88783437 -2.2350132 0.043137256
-47.303143 -13.912913 -0.88912576 0.054901961
-17.37759 -3.3302362 -0.53333014 0
-7.3191338 -1.8136559 -2.1803944 0.06666667
-10.563549 -2.0416155 -2.2056544 0.039215688
-51.593727 -12.455414 -0.027827088 0.054901961
-13.399794 -3.2753778 -2.1905475 0.023529412
-16.806393 -3.2231097 -2.2186756 0.027450981
-65.521721 -19.245377 0.3652674 0.05882353
-20.698118 -3.9584315 -0.13726462 0.0039215689
-15.449047 -3.7677236 -1.7475622 0.0039215689
-19.18491 -2.6984479 -1.8430448 0.0039215689
-49.364162 -11.918731 1.1601304 0.027450981
-96.952934 -13.511199 1.0880394 0.062745102
-15.492928 -2.9740088 -1.3172321 0.019607844
-48.039913 -14.127103 1.4387796 0.054901961
-45.350368 -8.6234484 0.7838096 0.031372551
-27.589905 -8.1427393 -1.8734449 0.0078431377
-48.471581 -11.703111 2.8906252 0.035294119
-58.911758 -11.189058 2.4194505 0.10196079
-16.68483 -4.0642276 -0.82142806 0.035294119
-16.183239 -3.1044042 -0.88666826 0.019607844
-48.582287 -11.727747 6.1372857 0.031372551
-38.46756 -11.326902 -1.6633539 0.035294119
-4.4700809 -0.87142766 -2.2350228 0.035294119
-47.466694 -13.780199 -0.891379 0.054901961
-17.29084 -3.2505026 -0.53040683 0
-7.3254237 -1.787287 -2.1804104 0.078431375
-10.535911 -1.9974728 -2.1985984 0.035294119
-51.617435 -12.269818 -0.027927719 0.054901961
-20.158188 -2.7604034 -0.25323647 0.0039215689
-13.403458 -3.2259519 -2.1893427 0.023529412
-16.844851 -3.1686842 -2.2222593 0.039215688
-20.727545 -3.8882692 -0.13740779 0.0039215689
-15.380844 -3.693722 -1.7385601 0.0039215689
-49.440495 -11.75382 1.1608456 0.027450981
-107.04311 -14.532735 1.2005268 0.062745102
-15.518682 -3.7259865 -1.1422374 0.0039215689
-15.495378 -2.9176447 -1.3166088 0.0078431377
-58.215065 -10.846829 1.0050771 0.047058824
-27.829081 -8.1065216 -1.8876742 0.0078431377
-48.504375 -11.531194 2.8900604 0.035294119
-80.51635 -14.985537 3.3020172 0.24705882
-16.667816 -3.9977891 -0.81996 0.015686275
-16.193981 -3.0470865 -0.88670141 0.019607844
-48.626804 -11.558202 6.1376672 0.031372551
-38.814034 -11.280502 -1.6766074 0.035294119
-17.282858 -2.3709948 -0.62934905 0.0039215689
-17.456179 -4.1841593 -0.43436721 0.050980393
-4.4766707 -0.85711265 -2.2384443 0.031372551
-47.66256 -13.665813 -0.89440674 0.054901961
-17.258789 -3.1851847 -0.52929837 0
-7.3204026 -1.7604456 -2.1782954 0.06666667
-10.542929 -1.9624369 -2.1994398 0.035294119
-32.789146 -4.3609719 -0.40830502 0.011764706
-13.406826 -3.1797974 -2.1887894 0.023529412
-16.863569 -3.1141493 -2.2238541 0.027450981
-48.115921 -13.794444 0.26701647 0.035294119
-20.681833 -3.8086796 -0.13713981 0.0039215689
-19.30603 -2.5802839 -1.8532579 0.023529412
-49.538116 -11.60353 1.162133 0.027450981
-107.17059 -14.187862 1.2011129 0.062745102
-15.496464 -3.6664612 -1.1400596 0.0039215689
-15.529019 -2.8704555 -1.3189708 0.0039215689
-59.077526 -10.804179 1.0191857 0.06666667
-28.117256 -8.0889845 -1.9055544 0.027450981
-19.191927 -2.5648258 -1.1544288 0.0039215689
-48.511734 -11.363131 2.8882771 0.035294119
-80.688049 -14.740561 3.3068981 0.24705882
-16.665907 -3.9389794 -0.81946892 0
-16.208458 -2.9940083 -0.88719589 0.019607844
-46.489697 -8.5088873 3.8501379 0.031372551
-39.205231 -11.25293 -1.6920538 0.035294119
-17.279301 -2.3118291 -0.62914109 0.0039215689
-6.526823 -1.2286646 1.2463396 0
-17.408142 -4.1118321 -0.43301845 0.050980393
-4.4726496 -0.83856356 -2.2350693 0.035294119
-48.694046 -13.766438 -0.91277426 0.082352944
-17.376625 -3.1400142 -0.53253132 0
-7.2967782 -1.7258506 -2.1696711 0.06666667
-10.538471 -1.9208535 -2.1971033 0.027450981
-51.577579 -11.879798 -0.02816204 0.054901961
-32.753342 -4.2332859 -0.40773827 0.011764706
-13.433802 -3.133312 -2.1912868 0.035294119
-16.847534 -3.0465794 -2.2203407 0.023529412
-65.523766 -18.501539 0.36367476 0.05882353
-20.69566 -3.7319951 -0.13718396 0.0039215689
-19.777514 -2.5680108 -1.8970417 0.0078431377
-39.96059 -9.215004 0.9370532 0.015686275
-107.09492 -13.777812 1.1994755 0.062745102
-15.513693 -3.609673 -1.1403756 0.0039215689
-47.53907 -13.439943 1.4192573 0.043137256
-58.793884 -10.529119 1.013501 0.047058824
-28.288891 -8.0250273 -1.9151522 0.019607844
-19.953716 -2.5902541 -1.1990554 0.0078431377
-50.335758 -11.593172 2.9938114 0.035294119
-80.81237 -14.456511 3.3096218 0.24705882
-16.238989 -2.9372323 -0.88828743 0.019607844
-39.44627 -11.164599 -1.7007055 0.035294119
-17.376329 -4.0364165 -0.43191823 0.054901961
-4.4862628 -0.82400209 -2.2401557 0.027450981
-21.639568 -6.0706201 -0.40932706 0.0078431377
-17.387486 -3.0785232 -0.53256661 0
-7.306519 -1.7003988 -2.1707673 0.062745102
-10.552841 -1.8845879 -2.1986976 0.023529412
-39.991131 -9.0749111 -0.02258892 0.043137256
-32.767929 -4.1181135 -0.40780091 0.011764706
-13.436952 -3.0838404 -2.1900821 0.023529412
-16.85807 -2.9869325 -2.2203748 0.035294119
-65.93483 -18.368198 0.36546019 0.05882353
-20.69281 -3.6561606 -0.13712484 0.0039215689
-15.333811 -3.5116196 -1.7296609 0.80000001
-107.12254 -13.400606 1.1990496 0.062745102
-15.491173 -3.5467739 -1.1378803 0.0039215689
-15.608075 -2.7678847 -1.3239478 0.070588239
-50.186634 -8.8119421 0.86465061 0.039215688
-28.555197 -7.9916296 -1.9311876 0.0078431377
-30.680744 -3.8582971 -1.8339025 0.011764706
-48.654152 -11.028103 2.8917561 0.035294119
-80.283592 -14.072356 3.28582 0.24705882
-18.065611 -4.1275854 -0.88572848 0
-16.264885 -2.8824654 -0.88916588 0.019607844
-50.386456 -8.844986 4.1659517 0.047058824
-39.392593 -11.00036 -1.6968429 0.035294119
-30.766262 -3.8685811 -1.110504 0.015686275
-17.363014 -3.9687593 -0.43129069 0.050980393
-4.4891152 -0.80751765 -2.240165 0.023529412
-51.180492 -14.079543 -0.95738757 0.090196081
-17.374491 -3.0129457 -0.53189147 0
-7.304894 -1.6723939 -2.1686227 0.06666667
-10.528436 -1.8416219 -2.1924276 0.027450981
-32.718582 -3.9951832 -0.4070842 0.011764706
-13.424488 -3.0309572 -2.18641 0.023529412
-16.868397 -2.927249 -2.2204089 0.027450981
-20.654202 -3.5743151 -0.13683803 0.0039215689
-15.334333 -3.4546685 -1.7284027 0.80000001
-22.684959 -2.7789683 -2.17044 0.0078431377
-107.15676 -13.024336 1.1987131 0.062745102
-15.50736 -3.4927261 -1.1381944 0.0039215689
-15.629434 -2.7145867 -1.3249618 0.027450981
-30.694029 -3.7503583 -1.833961 0.011764706
-47.877586 -10.676538 2.8434489 0.023529412
-50.195484 -8.6315098 2.0555131 0.050980393
-18.060411 -4.0593529 -0.88482666 0
-16.333912 -2.83497 -0.89236933 0.019607844
-21.487463 -5.9471331 -0.93059742 0.0078431377
-30.763708 -3.7584195 -1.1099956 0.015686275
-48.685989 -8.3690615 9.0199966 0.039215688
-17.357248 -3.9029772 -0.4308528 0.050980393
-4.477613 -0.78862166 -2.2334054 0.035294119
-51.453266 -13.96047 -0.96165454 0.090196081
-17.353359 -2.9461694 -0.53097934 0
-7.3219795 -1.6485304 -2.1718788 0.05882353
-10.507728 -1.7994953 -2.1869438 0.031372551
-32.704533 -3.8768511 -0.40680537 0.011764706
-13.431129 -2.9824123 -2.1858218 0.047058824
-16.858948 -2.864244 -2.2179077 0.035294119
-134.38362 -36.361626 0.74452406 0.10980392
-20.686283 -3.5046828 -0.13700598 0.0039215689
-15.330763 -3.396904 -1.7267141 0.79215688
-22.682661 -2.6975429 -2.1693611 0.0078431377
-58.167454 -12.748032 1.3592776 0.031372551
-15.507769 -3.4351983 -1.1373845 0.0039215689
-15.662408 -2.6631474 -1.3269583 0.019607844
-48.19833 -13.079695 1.4344054 0.054901961
-50.235115 -8.457737 0.86424643 0.16862746
-15.593081 -4.273509 -1.0610303 0.031372551
-30.691076 -3.6404984 -1.8330805 0.011764706
-48.136959 -10.557076 2.8564947 0.023529412
-16.394926 -2.7857025 -0.89515013 0.019607844
-50.317245 -8.469635 4.155077 0.047058824
-17.182957 -4.7027898 -0.74609023 0.0039215689
-30.792528 -3.6520569 -1.1106211 0.015686275
-17.33952 -3.8347204 -0.43012986 0.054901961
-4.4766297 -0.77240455 -2.2317219 0.043137256
-21.561823 -5.8079815 -0.40689081 0.0078431377
-7.3424692 -1.6267046 -2.1762145 0.050980393
-10.51751 -1.7645032 -2.1877503 0.039215688
-95.075317 -20.476507 -0.049990881 0.23137255
-32.709259 -3.7667079 -0.40676662 0.011764706
-13.452538 -2.9395761 -2.1876993 0.027450981
-16.081396 -2.6782475 -2.1160128 0.0078431377
-51.657764 -13.830483 0.28482783 0.035294119
-20.674116 -3.431411 -0.13689362 0.0039215689
-15.338059 -3.3444405 -1.7263145 0.81568629
-22.580696 -2.6088614 -2.1589324 0.027450981
-59.374512 -12.804653 1.3863161 0.043137256
-15.507376 -3.3804698 -1.1365728 0.0039215689
-48.179623 -12.902564 1.4324718 0.054901961
-88.414299 -14.555779 1.5192579 0.10980392
-30.706949 -3.5383935 -1.8333703 0.011764706
-48.02335 -10.36477 2.8476348 0.023529412
-16.518383 -2.7493277 -0.90131152 0.019607844
-17.175293 -4.6388383 -0.7451387 0.0039215689
-30.808445 -3.5496173 -1.1108181 0.015686275
-11.229402 -2.4587193 3.132437 0
-50.369068 -8.3030052 9.3195868 0.039215688
-17.332598 -3.7722318 -0.42968976 0.05882353
-4.4828806 -0.75652885 -2.2334235 0.05882353
-21.508484 -5.7125416 -0.40557745 0.0078431377
-7.385788 -1.608209 -2.1870317 0.050980393
-10.434548 -1.7126396 -2.1696825 0.039215688
-69.449181 -14.715942 -0.037456919 0.12156863
-32.750038 -3.6547689 -0.40716928 0.011764706
-13.466588 -2.8925946 -2.1883445 0.023529412
-51.543259 -13.606543 0.28381452 0.035294119
-72.295158 -11.649704 -0.46752948 0.062745102
-15.353534 -3.29088 -1.7267773 0.80000001
-22.558006 -2.5256863 -2.1559837 0.027450981
-56.785641 -12.040343 1.3248726 0.031372551
-15.538606 -3.3296208 -1.1380103 0.0039215689
-57.478184 -15.165608 1.7064595 0.062745102
-3.6206698 -0.61671722 0.063202038 0
-15.552327 -4.1474137 -1.0564601 0.070588239
-8.8114805 -1.0007082 -0.53783345 0
-48.250698 -10.236684 2.8588347 0.023529412
-85.828957 -13.821692 3.5035281 0.24705882
-16.533632 -3.5395954 -0.80952674 0.094117649
-21.416153 -5.6885982 -0.92514002 0.0078431377
-30.816679 -3.440788 -1.1107345 0.015686275
-17.326105 -3.7067549 -0.42925137 0.05882353
-4.4962387 -0.74174678 -2.2385099 0.035294119
-53.448746 -13.908037 -0.99630421 0.094117649
-17.331442 -2.756851 -0.52954233 0.039215688
-7.4290681 -1.5894326 -2.1978493 0.050980393
-10.459839 -1.6784316 -2.173636 0.039215688
-69.182899 -14.406763 -0.037443545 0.12156863
-32.754658 -3.538758 -0.40713331 0.011764706
-13.457259 -2.8407323 -2.1852889 0.023529412
-16.076189 -2.5605752 -2.1130347 0.019607844
-22.507292 -2.4397306 -2.1504173 0.035294119
-58.886894 -12.268724 1.372676 0.043137256
-86.558746 -9.3133783 0.96605963 0.062745102
-15.495443 -3.2631876 -1.1341095 0.0039215689
-47.629906 -12.398788 1.4133625 0.043137256
-97.296829 -15.316029 1.6695206 0.10980392
-15.493298 -4.0732579 -1.0515989 0.050980393
-30.762672 -3.3256984 -1.8353636 0.011764706
-50.679089 -10.564019 2.9998691 0.035294119
-88.451012 -13.925498 3.6081824 0.24705882
-16.526333 -3.4769831 -0.80862117 0.094117649
-16.69108 -2.6564813 -0.90962213 0.050980393
-3.2110629 -0.71232176 0.42726129 0
-39.487778 -10.29098 -1.6934869 0.035294119
-30.868256 -3.3366466 -1.1122099 0.015686275
-17.315451 -3.6405599 -0.42871773 0.062745102
-4.5059681 -0.72632974 -2.2419038 0.023529412
-16.723509 -4.3284569 -0.31646869 0.0039215689
-7.4308014 -1.5619011 -2.1967852 0.05882353
-10.535414 -1.6518087 -2.1878138 0.027450981
-69.23278 -14.164365 -0.037586827 0.12156863
-32.77079 -3.4239976 -0.40724328 0.011764706
-13.447736 -2.7889705 -2.1822329 0.035294119
-16.07719 -2.5024197 -2.1120524 0.019607844
-51.571117 -13.227919 0.28322527 0.035294119
-18.352573 -2.8505723 -0.12193015 0
-22.491905 -2.3578622 -2.148216 0.027450981
-58.153542 -11.904073 1.3545167 0.031372551
-86.542984 -9.0054026 0.96536577 0.062745102
-15.530204 -3.2130463 -1.1358278 0.0039215689
-47.223518 -12.116878 1.3999741 0.043137256
-86.166298 -13.258965 1.4776818 0.10980392
-15.464884 -4.0074673 -1.0487988 0.05882353
-30.853533 -3.2257257 -1.8401155 0.011764706
-48.184059 -9.870039 2.8505628 0.023529412
-95.740395 -14.727215 3.9026906 0.24705882
-16.475733 -3.4056809 -0.80564648 0.074509807
-16.77527 -2.6089022 -0.91367197 0.023529412
-39.411171 -10.123578 -1.6887978 0.035294119
-30.919479 -3.2321861 -1.1136853 0.031372551
-17.320223 -3.5776813 -0.42856389 0.05882353
-4.5120635 -0.71031672 -2.2436056 0.011764706
-53.753979 -13.585646 -1.0004065 0.094117649
-18.006647 -2.7325799 -0.54927123 0.011764706
-7.4475403 -1.5374068 -2.2000415 0.039215688
-10.572145 -1.6188617 -2.1941268 0.035294119
-69.164139 -13.898242 -0.037670765 0.12156863
-32.830311 -3.3135672 -0.40788919 0.011764706
-13.445766 -2.7388666 -2.1804106 0.062745102
-16.10545 -2.4484117 -2.1146195 0.0078431377
-51.562675 -13.033349 0.28281361 0.035294119
-105.98132 -15.922475 -0.682832 0.16862746
-15.418353 -3.1337192 -1.7303168 0.0039215689
-8.9638062 -0.92038405 -0.87085927 0
-57.830086 -11.62717 1.3459253 0.031372551
-15.529592 -3.1556511 -1.1350173 0.0039215689
-16.75872 -2.5459645 -1.4145621 0.0078431377
-50.848309 -12.852801 1.5056828 0.05882353
-107.02051 -16.076874 1.8338736 0.10980392
-15.45943 -3.9477749 -1.0475445 0.054901961
-30.896395 -3.1203835 -1.8420509 0.011764706
-48.50407 -9.7582321 2.8672969 0.023529412
-16.448351 -3.339488 -0.80380005 0.094117649
-30.982288 -3.1286135 -1.115586 0.015686275
-3.4679885 -0.55215156 0.67744774 0
-17.309084 -3.5116763 -0.42802989 0.062745102
-4.4858308 -0.68953663 -2.2300758 0.031372551
-21.520159 -5.3920565 -0.40454787 0.0078431377
-7.4264131 -1.5053744 -2.1924958 0.039215688
-10.597137 -1.5839707 -2.1980803 0.031372551
-69.090569 -13.631984 -0.037751842 0.12156863
-33.518467 -3.2636218 -0.41623765 0.011764706
-13.435859 -2.6872804 -2.1773541 0.047058824
-16.671371 -2.4729903 -2.1866651 0.0039215689
-51.569042 -12.842841 0.28248805 0.14901961
-96.616806 -14.172949 -0.62275559 0.15686275
-15.483829 -3.0898092 -1.7363738 0.0039215689
-8.6855288 -0.86102647 -0.84432548 0
-69.476936 -13.707006 1.6152259 0.047058824
-130.31294 -12.628412 1.4522737 0.062745102
-15.532688 -3.0990658 -1.1344876 0.0078431377
-16.7754 -2.4877872 -1.4152502 0.0039215689
-56.644279 -14.100488 1.6752709 0.062745102
-107.01266 -15.693124 1.8325815 0.10980392
-15.469245 -3.892009 -1.0473205 0.031372551
-30.986593 -3.0193913 -1.8468031 0.011764706
-89.766312 -17.695286 5.2934446 0.078431375
-16.475595 -3.2843204 -0.80458653 0.090196081
-17.125074 -2.538697 -0.93149775 0.0039215689
-31.148201 -3.0346465 -1.121173 0.015686275
-17.301626 -3.4465606 -0.42759079 0.05882353
-4.5025649 -0.67510647 -2.2368543 0.039215688
-21.356258 -5.2714772 -0.40122589 0.0078431377
-18.337982 -2.6498232 -0.55869961 0.019607844
-7.4354076 -1.4793519 -2.1935918 0.039215688
-10.610372 -1.5472579 -2.1996746 0.023529412
-68.293335 -13.226881 -0.037467793 0.12156863
-13.452923 -2.6410406 -2.1786158 0.05882353
-51.601913 -12.65908 0.28231263 0.035294119
-20.721643 -2.9899676 -0.13701256 0.0039215689
-15.490623 -3.0341654 -1.7359754 0.0039215689
-59.802433 -11.586857 1.3895851 0.043137256
-15.531662 -3.0417368 -1.1336768 0.0078431377
-17.182581 -2.4853292 -1.4483647 0.0039215689
-58.728474 -14.398973 1.7351456 0.086274512
-95.988777 -13.736847 1.6428907 0.10980392
-15.467233 -3.8333776 -1.0463235 0.023529412
-31.450195 -2.9526558 -1.8736213 0.011764706
-88.55323 -17.135042 5.2183223 0.078431375
-97.076385 -13.890877 3.9503534 0.24705882
-16.475199 -3.2236969 -0.80405635 0.086274512
-17.141745 -2.4792118 -0.93195421 0.0039215689
-11.696042 -2.2997332 1.4827373 0
-31.552654 -2.9618218 -1.1352677 0.015686275
-3.5769653 -0.54131013 0.69674963 0
-17.309633 -3.384567 -0.42753154 0.062745102
-4.4976664 -0.65969735 -2.2351978 0.039215688
-21.380978 -5.2064037 -0.40152588 0.0078431377
-7.4479623 -1.4573821 -2.196877 0.043137256
-10.584582 -1.5093575 -2.1942227 0.035294119
-69.675171 -13.266571 -0.03837109 0.12156863
-13.469395 -2.6002142 -2.1805286 0.043137256
-16.845116 -2.3832831 -2.2075632 0.031372551
-51.533043 -12.470831 0.28156301 0.035294119
-15.473229 -2.9802716 -1.7334615 0.0039215689
-8.6281528 -0.79646224 -0.83878106 0.011764706
-59.406902 -11.316872 1.3794618 0.043137256
-172.62094 -15.565615 1.9218758 0.062745102
-9.2785387 -1.3262677 -0.79235262 0
-56.161766 -13.585231 1.6581318 0.062745102
-86.731544 -12.136801 1.4836715 0.10980392
-15.464154 -3.781198 -1.0456182 0.015686275
-9.276206 -0.85468763 -0.56449395 0
-89.117218 -16.953495 5.2482452 0.078431375
-107.00426 -14.965115 4.3515487 0.24705882
-16.485764 -3.1719038 -0.80431557 0.06666667
-17.185608 -2.4301074 -0.93414211 0.0039215689
-11.446259 -2.2141097 1.4511226 0
-32.438278 -2.9411795 -1.1667225 0.015686275
-50.367523 -9.593997 13.770607 0.039215688
-17.312851 -3.3286605 -0.42751002 0.062745102
-4.4999456 -0.64316231 -2.2352071 0.023529412
-21.293961 -5.1059828 -0.39963645 0.0078431377
-7.4416494 -1.428427 -2.1936519 0.043137256
-10.578134 -1.4699829 -2.1918843 0.039215688
-69.638481 -13.007074 -0.03847146 0.12156863
-13.462852 -2.5494547 -2.1780891 0.023529412
-16.814022 -2.3182857 -2.2025244 0.031372551
-15.424897 -2.9144893 -1.7270377 0.0039215689
-8.615016 -0.76413655 -0.83730137 0.011764706
-79.952316 -14.92622 1.8542792 0.074509807
-9.2712669 -1.2914305 -0.79138827 0
-49.536842 -11.805467 1.4616809 0.054901961
-15.453961 -3.7208362 -1.0441055 0.015686275
-9.2274237 -0.81699675 -0.56145936 0
-89.878593 -16.772308 5.2893333 0.078431375
-2.1988225 -0.32884273 0.095890805 0
-16.500671 -3.1142411 -0.80453771 0.05882353
-17.193993 -2.3692746 -0.93417573 0.0039215689
-9.2670717 -2.2526054 -0.40551019 0
-33.671005 -2.9329448 -1.2103176 0.015686275
-50.377941 -9.413085 13.764304 0.039215688
-17.312576 -3.2651837 -0.42726061 0.062745102
-4.5021663 -0.6266194 -2.2352161 0.031372551
-18.28561 -4.3239779 -0.3439697 0.0039215689
-19.406864 -2.6003048 -0.59012616 0
-7.4541707 -1.4029957 -2.1958282 0.050980393
-10.583204 -1.432218 -2.191905 0.043137256
-69.754295 -12.776016 -0.038649321 0.12156863
-13.444458 -2.4966428 -2.1737983 0.047058824
-16.825947 -2.2592695 -2.2030647 0.035294119
-51.552643 -12.09364 0.28097844 0.10980392
-107.08332 -14.215831 -0.68941742 0.16862746
-15.454543 -2.8633707 -1.7292213 0.0039215689
-8.585885 -0.73059356 -0.83432549 0.0078431377
-60.267334 -11.043128 1.3973374 0.043137256
-97.939369 -8.1490507 1.0892526 0.062745102
-15.487602 -2.8690584 -1.1287507 0.011764706
-9.216445 -1.2503754 -0.78649312 0
-49.390865 -11.588006 1.45608 0.054901961
-86.89743 -11.540387 1.4847578 0.10980392
-79.942673 -14.633382 4.7026248 0.078431375
-107.11805 -14.217659 4.3516178 0.24705882
-16.511448 -3.0557957 -0.80457163 0.050980393
-17.221966 -2.3110368 -0.93526655 0.0039215689
-51.002472 -4.2531681 -1.8269978 0.043137256
-50.376308 -9.2301369 13.754903 0.039215688
-17.319942 -3.203186 -0.42720118 0.062745102
-4.5043297 -0.61006886 -2.2352252 0.015686275
-20.19305 -2.6319385 -0.61338681 0.0039215689
-7.4552341 -1.3754567 -2.1947632 0.050980393
-10.59981 -1.3959414 -2.1942852 0.054901961
-72.314499 -12.981908 -0.040078238 0.1254902
-97.93396 -7.8048453 -1.2042936 0.082352944
-13.464765 -2.4509559 -2.1756768 0.047058824
-16.810123 -2.196645 -2.2000542 0.035294119
-51.547768 -11.902034 0.28061214 0.14901961
-107.08469 -13.834986 -0.6893186 0.16862746
-15.711065 -2.8527281 -1.7563678 0.0039215689
-8.5566292 -0.6972633 -0.83134961 0.011764706
-58.74276 -10.5522 1.3610731 0.031372551
-97.931335 -7.8034477 1.0886754 0.062745102
-9.248436 -1.2209376 -0.78880429 0
-56.363312 -13.00823 1.6596017 0.062745102
-86.830093 -11.222355 1.4827633 0.10980392
-15.440668 -3.6022551 -1.0415952 0.06666667
-80.075829 -14.368191 4.707304 0.078431375
-107.10757 -13.835175 4.3490014 0.24705882
-16.525951 -2.9980166 -0.80479366 0.070588239
-17.269547 -2.2551868 -0.93741459 0.0039215689
-9.8200912 -2.3097804 -0.42828327 0
-9.5740576 -0.77792186 -0.35212365 0
-50.370209 -9.0466318 13.744467 0.039215688
-17.338894 -3.1432893 -0.42742676 0.05882353
-4.4992428 -0.59260726 -2.2318497 0.035294119
-17.726345 -4.0613089 -0.33321887 0.019607844
-20.340969 -2.5780189 -0.61757302 0.0039215689
-7.4524074 -1.3472618 -2.1926181 0.050980393
-10.627969 -1.3610312 -2.1990252 0.035294119
-123.74429 -9.4220762 -1.5199534 0.082352944
-13.465456 -2.4017427 -2.1744707 0.039215688
-16.817692 -2.1371217 -2.2000866 0.023529412
-51.561695 -11.715021 0.28035301 0.035294119
-107.08868 -13.4548 -0.68924439 0.16862746
-15.991199 -2.8444521 -1.7860974 0.0039215689
-8.5471029 -0.66565615 -0.83024347 0.011764706
-50.231907 -8.8474512 1.1634184 0.027450981
-97.934059 -7.45891 1.0882322 0.062745102
-15.578004 -2.7716153 -1.133873 0.062745102
-9.2051783 -1.1818649 -0.78489137 0
-55.593315 -12.626215 1.635561 0.062745102
-107.11135 -13.456268 1.8278267 0.10980392
-15.44926 -3.5466249 -1.0413707 0.05882353
-9.3748379 -0.7284373 -0.56972837 0
-80.554237 -14.162938 4.7322707 0.078431375
-97.225029 -12.215529 3.9464037 0.24705882
-16.536324 -2.9394834 -0.80482739 0.078431375
-47.224686 -8.3173637 5.8887057 0.019607844
-18.123234 -4.1513615 -0.77886498 0.0039215689
-50.352032 -8.8612833 13.730931 0.039215688
-17.357647 -3.0832994 -0.4276523 0.054901961
-4.5048852 -0.57650745 -2.233551 0.054901961
-17.689671 -3.9872885 -0.33232433 0.027450981
-32.871681 -4.0320382 -0.9914791 0.0078431377
-7.4608641 -1.321063 -2.1937139 0.054901961
-10.628767 -1.322621 -2.1982594 0.039215688
-50.161125 -8.6545124 -0.028913124 0.050980393
-13.423126 -2.3451946 -2.1664782 0.047058824
-16.805359 -2.0751758 -2.1975832 0.027450981
-51.547623 -11.521986 0.27994499 0.035294119
-107.09926 -13.075748 -0.68922001 0.16862746
-16.016712 -2.790482 -1.7878516 0.0039215689
-8.52952 -0.63354993 -0.82838923 0.011764706
-98.01136 -7.119966 1.0886317 0.062745102
-15.68197 -2.7326114 -1.1406499 0.098039217
-9.1855116 -1.1460055 -0.78294379 0
-55.523884 -12.406083 1.6321242 0.062745102
-107.07828 -13.071826 1.8262693 0.10980392
-15.442068 -3.4875135 -1.0401151 0.05882353
-9.6800108 -0.71683627 -0.58758998 0
-50.227211 -8.6641541 2.9528873 0.035294119
-16.562241 -2.8836248 -0.8056137 0.047058824
-50.419205 -8.6952248 6.2813492 0.031372551
-18.153225 -4.090723 -0.77956277 0.0039215689
-9.5114851 -0.70449597 -0.34974778 0
-50.394112 -8.6866417 13.73393 0.039215688
-17.364368 -3.0211909 -0.42759252 0.05882353
-4.4996753 -0.55909437 -2.2301753 0.043137256
-17.664421 -3.9161365 -0.33164471 0.027450981
-33.0285 -3.9333527 -0.99580806 0.011764706
-7.4730291 -1.2954592 -2.1958899 0.05882353
-10.641112 -1.2856028 -2.1998532 0.011764706
-16.673767 -1.1643618 -0.20982245 0.0039215689
-13.431233 -2.2974935 -2.1665056 0.05882353
-16.749462 -2.0082076 -2.1895001 0.019607844
-51.521107 -11.326613 0.27947357 0.035294119
-16.038124 -2.7357047 -1.7891753 0.0039215689
-8.5316849 -0.60294408 -0.8284049 0.011764706
-15.648134 -2.669744 -1.1375902 0.035294119
-9.1775837 -1.1117013 -0.78197885 0
-56.414436 -12.396878 1.6568397 0.062745102
-15.446355 -3.4310532 -1.0396327 0.05882353
-9.8497725 -0.69376266 -0.59746939 0
-97.280182 -11.531575 3.9449086 0.24705882
-16.694355 -2.8455117 -0.81148028 0.047058824
-30.46574 -3.6305294 -1.6398629 0.44705883
-18.147877 -4.0222292 -0.77877766 0.0039215689
-9.5019293 -0.66963738 -0.34933972 0
-50.386047 -8.5034771 13.723495 0.039215688
-17.390591 -2.9623849 -0.42800808 0.06666667
-4.4908013 -0.54130942 -2.225107 0.054901961
-17.65844 -3.849412 -0.33132353 0.039215688
-33.764969 -3.9001758 -1.0174406 0.011764706
-7.4661088 -1.2666543 -2.1926644 0.050980393
-8.0155506 -0.94551134 -1.6689317 0.015686275
-50.315063 -8.318038 -0.029163368 0.050980393
-13.462574 -2.2536142 -2.1702344 0.047058824
-56.831554 -12.280384 0.30809566 0.039215688
-16.071125 -2.6827466 -1.7917902 0.0039215689
-8.4900312 -0.56946403 -0.82430631 0.023529412
-15.716419 -2.6239951 -1.1418377 0.031372551
-9.1497307 -1.0751905 -0.77937579 0
-56.175941 -12.138472 1.6484821 0.062745102
-95.413773 -10.973598 1.6257362 0.10980392
-15.442634 -3.3729208 -1.0386344 0.05882353
-9.7844028 -0.65410799 -0.59349567 0
-50.365303 -8.3246069 2.9572961 0.035294119
-97.419128 -11.202479 3.9487422 0.24705882
-16.814583 -2.8045597 -0.81678265 0.078431375
-50.345505 -8.3194656 6.2646418 0.06666667
-3.8509188 -0.46649748 0.33070371 0
-18.157906 -3.9571824 -0.77865148 0.0039215689
-9.4922485 -0.63485157 -0.34893152 0
-50.384949 -8.3217173 13.715128 0.039215688
-17.385048 -2.8982325 -0.42766276 0.054901961
-4.4962683 -0.5252018 -2.2268081 0.047058824
-17.632648 -3.7786469 -0.33064342 0.027450981
-7.4742904 -1.2403684 -2.1937599 0.047058824
-7.7303677 -0.8845849 -1.6107398 0
-72.261513 -11.670506 -0.040664393 0.1254902
-18.278316 -1.1452554 -0.22941348 0.0039215689
-13.466458 -2.2051506 -2.1696444 0.035294119
-57.958065 -12.310468 0.313878 0.039215688
-83.640274 -9.3271236 -0.53905243 0.16470589
-15.966538 -2.6074657 -1.7793403 0.0039215689
-8.4800472 -0.53825891 -0.82319975 0.023529412
-89.744965 -14.484307 2.0710022 0.074509807
-160.56084 -9.9629278 1.7814698 0.062745102
-15.760943 -2.574003 -1.1443992 0.031372551
-9.0107975 -1.0265483 -0.7675994 0
-59.578194 -12.652404 1.7466514 0.086274512
-96.86261 -10.796609 1.6495718 0.10980392
-15.450415 -3.3173442 -1.0384095 0.039215688
-9.8384428 -0.62233734 -0.59656608 0
-89.788498 -14.48951 5.2604051 0.078431375
-89.918259 -10.023148 3.6436074 0.24705882
-16.737492 -2.7310483 -0.81267655 0.05882353
-30.510197 -3.4182982 -1.641036 0.1254902
-50.491859 -8.1618004 6.2791047 0.031372551
-5.6204467 -1.2370114 -0.24977876 0
-9.4784546 -0.59989911 -0.34838137 0
-50.375568 -8.1388664 13.704695 0.039215688
-17.414806 -2.8398845 -0.42817324 0.05882353
-4.5196981 -0.51100624 -2.2369716 0.031372551
-17.62616 -3.7121754 -0.33032182 0.027450981
-7.4785776 -1.2134393 -2.1937752 0.050980393
-72.317619 -11.419855 -0.040815901 0.1254902
-18.218323 -1.0768814 -0.22866492 0.0039215689
-13.458461 -2.154839 -2.1672039 0.035294119
-8.0237942 -0.8877455 -1.0650805 0.043137256
-69.204872 -14.437008 0.37468809 0.05882353
-83.6604 -9.0329933 -0.53913325 0.16470589
-8.4580259 -0.50643021 -0.82097095 0.023529412
-88.66124 -13.991656 2.0447102 0.074509807
-15.844724 -2.5299349 -1.1497713 0.062745102
-8.9746952 -0.98998982 -0.76434058 0
-56.96788 -11.891685 1.6689554 0.062745102
-86.620613 -9.3507099 1.4745369 0.10980392
-15.465813 -3.2633753 -1.0386999 0.015686275
-9.9282589 -0.59229386 -0.60175002 0
-90.059448 -14.209953 5.2731352 0.078431375
-16.727196 -2.6686714 -0.81176925 0.070588239
-30.525917 -3.3113742 -1.6413051 0.1254902
-5.8955603 -0.65771347 0.49718603 0
-8.6180944 -1.83907 -0.37584609 0
-9.4725161 -0.56551504 -0.34811482 0
-50.480042 -7.9741812 13.72526 0.039215688
-17.558922 -2.7993956 -0.43144199 0.015686275
-4.5070386 -0.49288958 -2.2302108 0.039215688
-17.60767 -3.6433945 -0.32978472 0.035294119
-31.787769 -3.3338563 -0.9575333 0.0078431377
-7.486577 -1.1870817 -2.1948705 0.05882353
-7.7324605 -0.82852876 -1.6099828 0
-18.186035 -1.0104777 -0.22825786 0.0039215689
-13.438562 -2.1028066 -2.1629121 0.027450981
-7.9755468 -0.85355544 -1.0585018 0.039215688
-69.309723 -14.205733 0.37484214 0.05882353
-86.452431 -9.0276833 -0.55693364 0.16078432
-8.4398661 -0.4749808 -0.81911612 0.023529412
-88.630501 -13.669099 2.0427153 0.074509807
-9.276289 -0.52049869 0.10253921 0
-15.967832 -2.4913821 -1.1579546 0.027450981
-9.1208467 -0.97270286 -0.77615231 0
-56.938534 -11.677528 1.6667774 0.062745102
-86.533394 -9.0350351 1.4723458 0.10980392
-15.465383 -3.2061436 -1.0379592 0.015686275
-10.085771 -0.56535929 -0.61092633 0
-90.065109 -13.888003 5.270422 0.078431375
-86.595146 -9.0403824 3.5062318 0.24705882
-16.910172 -2.6361759 -0.82008308 0.023529412
-50.429905 -7.7893696 6.2643418 0.031372551
-86.722206 -9.0517092 7.0864525 0.16862746
-9.4704466 -0.53139949 -0.34799007 0
-4.5123405 -0.47668776 -2.2319121 0.039215688
-17.592834 -3.5755782 -0.32931915 0.035294119
-31.755463 -3.2176504 -0.95628881 0.0078431377
-7.4830623 -1.1589663 -2.1927252 0.06666667
-9.2100191 -0.48389965 -0.11847949 0
-13.457548 -2.0568194 -2.1647899 0.043137256
-7.9390049 -0.82090801 -1.0534447 0.027450981
-69.182411 -13.927487 0.37374079 0.05882353
-86.769974 -8.7538834 -0.55892575 0.16078432
-16.059822 -2.4476874 -1.7867535 0.0039215689
-8.4613638 -0.44571543 -0.82100159 0.047058824
-86.368217 -13.011788 1.9894114 0.074509807
-9.4058781 -0.49386984 0.10393949 0
-16.197399 -2.4680195 -1.1737278 0.015686275
-9.1162577 -0.93923438 -0.77551436 0
-59.052757 -11.894002 1.727175 0.086274512
-86.835007 -8.759347 1.4767833 0.10980392
-15.464743 -3.148958 -1.0372182 0.031372551
-10.151491 -0.53261054 -0.61470175 0
-8.1351728 -1.2554665 0.4856683 0
-86.244438 -8.698844 3.4906485 0.24705882
-30.65958 -3.1077321 -1.6473423 0.015686275
-7.8947802 -1.2190497 1.0023414 0
-86.729477 -8.7457485 7.0843506 0.16862746
-9.4682589 -0.49730751 -0.34786525 0
-4.5177898 -0.4607816 -2.2353342 0.039215688
-17.586121 -3.5101874 -0.32911009 0.035294119
-7.491281 -1.1331005 -2.1949325 0.054901961
-7.5394831 -0.75386637 -1.570714 0
-107.16599 -15.75572 -0.059694964 0.24705882
-9.2322273 -0.45203897 -0.11882479 0
-13.394773 -1.9992107 -2.1543667 0.043137256
-7.9186788 -0.79041415 -1.0509565 0.015686275
-69.337105 -13.706653 0.37409675 0.05882353
-86.720963 -8.4426775 -0.55873877 0.16078432
-16.556696 -2.4629381 -1.8406352 0.015686275
-8.4356041 -0.4141728 -0.81880695 0.027450981
-86.591728 -12.736005 1.9933015 0.074509807
-9.3562098 -0.45787543 0.10335553 0
-16.542032 -2.4604263 -1.1979773 0.0039215689
-9.0406961 -0.89922398 -0.76934087 0.0078431377
-58.066647 -11.485169 1.6971129 0.062745102
-145.41786 -14.141149 2.4710891 0.10980392
-15.45658 -3.0910058 -1.0362585 0.027450981
-10.13394 -0.49554655 -0.61381751 0
-96.434761 -14.178086 5.6361547 0.078431375
-7.9785209 -0.79549211 0.32889608 0
-17.082899 -2.5395722 -0.82772142 0
-30.738407 -3.006767 -1.6512697 0.015686275
-16.585665 -3.3132851 -0.71016032 0.015686275
-9.438591 -0.4620536 -0.3469249 0
-18.288141 -2.716187 -0.44852543 0.031372551
-4.5192962 -0.44499761 -2.2353425 0.023529412
-17.581964 -3.4480159 -0.32885778 0.035294119
-31.912565 -3.0128334 -0.96061796 0.0078431377
-7.4835639 -1.1058122 -2.1917057 0.054901961
-7.4989939 -0.72403044 -1.5620748 0
-96.720932 -13.894986 -0.054334518 0.23137255
-9.3096008 -0.42401677 -0.11976901 0
-13.389596 -1.9523001 -2.1525409 0.047058824
-7.8817582 -0.75964695 -1.0458983 0.027450981
-69.323273 -13.464463 0.3736417 0.05882353
-132.57056 -12.450904 -0.85172558 0.16862746
-19.277029 -2.7961361 -2.1372626 0.0039215689
-8.397151 -0.38362226 -0.81508064 0.011764706
-86.768089 -12.467302 1.9962327 0.074509807
-9.4495869 -0.43015525 0.1043576 0
-17.178114 -2.4947991 -1.2427063 0.0039215689
-8.9840946 -0.8628577 -0.76444244 0.0078431377
-58.006279 -11.272772 1.6941392 0.062745102
-15.478506 -3.0412138 -1.0370625 0.035294119
-10.143511 -0.46149921 -0.61430442 0
-96.07016 -13.798543 5.6120067 0.078431375
-30.855587 -2.9140959 -1.6570358 0.015686275
-9.962924 -1.4592502 1.2571112 0
-9.4400768 -0.42995626 -0.34694099 0
-6.76196 -0.65342098 1.2752796 0
-18.285183 -2.6530311 -0.4482744 0.0039215689
-4.5136065 -0.4277221 -2.2319665 0.043137256
-17.578188 -3.3827934 -0.32860717 0.035294119
-7.4988246 -1.0804389 -2.1949618 0.050980393
-7.4467964 -0.69206536 -1.5510761 0
-107.22323 -15.017618 -0.060078543 0.24705882
-9.3110313 -0.39067647 -0.11978564 0
-13.408074 -1.9063455 -2.1544187 0.043137256
-69.436668 -13.234233 0.37386015 0.05882353
-8.330801 -0.35067913 -0.80873638 0.0039215689
-9.3631172 -0.39270887 0.10336713 0
-17.633261 -2.4964051 -1.2745074 0.0039215689
-80.305954 -15.297977 2.3421443 0.24705882
-15.473348 -2.9833403 -1.0360634 0.047058824
-10.165014 -0.4260681 -0.61549681 0
-6.5385818 -0.94478637 0.39202335 0
-7.5857024 -0.70361799 0.3128044 0
-18.271101 -2.5853376 -0.88350266 0.011764706
-31.697031 -2.8805785 -1.7013074 0.015686275
-4.5222969 -0.41174901 -2.2353601 0.054901961
-17.582029 -3.3191075 -0.32849994 0.035294119
-7.4911056 -1.0518523 -2.1917357 0.062745102
-7.4452643 -0.66488594 -1.5503036 0
-20.726223 -2.8534224 -0.014152016 0.0039215689
-9.4122677 -0.36109716 -0.12102424 0
-13.36766 -1.852283 -2.1470411 0.035294119
-7.7880569 -0.69434345 -1.0332464 0
-79.541145 -14.865452 0.42806211 0.10980392
-156.32092 -13.575961 -1.0034523 0.16862746
-19.260624 -2.6549661 -2.1334641 0.015686275
-8.2921839 -0.31925628 -0.8050105 0
-88.235909 -12.047898 2.0276322 0.074509807
-9.3284664 -0.35783029 0.10295223 0
-8.9462214 -0.79464304 -0.76087207 0.019607844
-59.581184 -11.144922 1.7374717 0.086274512
-3.3578138 -0.30955383 0.058060076 0
-15.515065 -2.9343207 -1.0381584 0.027450981
-11.160023 -0.42718813 -0.6739974 0
-97.188995 -13.265393 5.6713176 0.078431375
-9.3463373 -0.82921308 -0.51261985 0
-6.6013179 -0.92897028 0.84110057 0
-9.4308739 -0.36190969 -0.34654889 0
-19.345346 -2.6655855 -0.47337475 0
-4.5273218 -0.39542013 -2.2370615 0.031372551
-17.585646 -3.2554417 -0.32839265 0.035294119
-63.025196 -5.2628536 -1.8858849 0.062745102
-7.4909172 -1.0243487 -2.1906707 0.06666667
-7.4866276 -0.64130938 -1.5581841 0
-107.21443 -14.252314 -0.060435537 0.24705882
-153.89835 -5.2643094 -1.8881062 0.082352944
-13.189912 -1.780327 -2.1180682 0.035294119
-7.7192659 -0.66038787 -1.02413 0
-79.502045 -14.570351 0.42741108 0.10980392
-156.38332 -13.030737 -1.0038408 0.16862746
-19.246122 -2.5837402 -2.1309187 0.023529412
-8.2375317 -0.28756484 -0.79978794 0.0078431377
-88.277428 -11.73901 2.0274613 0.074509807
-9.333663 -0.32456622 0.10297996 0
-58.396496 -10.712527 1.7017863 0.062745102
-15.544851 -2.8828967 -1.0394795 0.078431375
-89.523193 -11.902506 5.2222342 0.078431375
-3.7906442 -0.33286756 0.15955752 0
-8.5016785 -1.1566299 1.075037 0
-17.907505 -3.3145161 -0.76386899 0.0039215689
-9.428091 -0.32801408 -0.34642369 0.0039215689
-50.628578 -6.738122 13.717257 0.039215688
-19.727167 -2.6466439 -0.48235878 0.0039215689
-4.5178394 -0.37790486 -2.2319927 0.023529412
-17.589037 -3.1917868 -0.32828519 0.035294119
-63.063114 -5.0435672 -1.8865931 0.062745102
-7.4677138 -0.99389505 -2.1831231 0.05882353
-7.5005536 -0.61526638 -1.5605583 0
-107.19214 -13.867916 -0.060604174 0.24705882
-153.7719 -4.7218099 -1.8866112 0.33333334
-13.305797 -1.7476101 -2.1353705 0.039215688
-7.6938434 -0.63038957 -1.0205935 0
-156.42386 -12.483614 -1.0041007 0.16862746
-19.243196 -2.5141709 -2.1296649 0.023529412
-8.2305298 -0.25772393 -0.79905432 0.011764706
-88.567741 -11.462212 2.0330191 0.074509807
-9.3987122 -0.29310659 0.10367122 0
-9.3205309 -1.2322817 -0.68223095 0
-8.8720808 -0.72415197 -0.75435197 0
-80.564102 -14.472033 2.3446243 0.24705882
-15.562685 -2.8291848 -1.0400274 0.094117649
-89.76223 -11.614667 5.233583 0.078431375
-17.243111 -2.2552309 -0.83353543 0
-9.3120909 -0.75909215 -0.51053911 0.0039215689
-17.800955 -3.2300012 -0.75896049 0.0039215689
-9.421196 -0.29401729 -0.34615648 0
-20.430332 -2.6665418 -0.49905378 0.0039215689
-4.515521 -0.36101422 -2.230309 0.023529412
-17.592197 -3.1281514 -0.3281776 0.039215688
-9.8501291 -0.76642948 -0.30315375 0
-7.4749622 -0.96746099 -2.1842179 0.062745102
-107.20417 -13.488362 -0.060791023 0.24705882
-13.417695 -1.7136167 -2.152056 0.043137256
-7.6564407 -0.59967381 -1.015535 0
-72.210953 -12.715888 0.38727731 0.062745102
-123.82177 -9.4495754 -0.79577404 0.16862746
-19.255806 -2.4466417 -2.1301329 0.027450981
-8.2274036 -0.22804591 -0.79869473 0.0078431377
-95.888168 -12.066277 2.1996825 0.074509807
-9.4476643 -0.26076475 0.10418543 0
-9.304985 -1.1964155 -0.68084347 0
-8.8666105 -0.69173425 -0.75371307 0
-50.235191 -8.8574905 1.4624714 0.054901961
-123.87051 -9.451786 2.0999553 0.10980392
-15.596059 -2.7781487 -1.0416064 0.098039217
-89.853745 -11.306927 5.2364058 0.078431375
-30.599106 -3.8705509 -1.4674327 0.0078431377
-9.4660387 -0.73727953 -0.51859647 0
-8.3716764 -1.0782751 1.0580158 0
-86.877022 -6.6308651 7.0801959 0.16862746
-17.713717 -3.1497304 -0.75487566 0.0039215689
-9.4181738 -0.26018378 -0.34603107 0
-32.878277 -4.1563582 -0.79750645 0.011764706
-4.5312762 -0.34462693 -2.237088 0.015686275
-17.611437 -3.0641205 -0.32835901 0.039215688
-7.5013995 -0.94196862 -2.1907158 0.054901961
-7.4500079 -0.55587673 -1.5495735 0.0078431377
-107.25289 -13.09444 -0.061006594 0.24705882
-18.297319 -0.4334273 -0.22971849 0.0039215689
-13.416043 -1.6625817 -2.1508493 0.047058824
-7.6427636 -0.5695743 -1.0135208 0
-50.121578 -8.6480713 0.26801521 0.035294119
-16.778814 -1.2314625 -0.11173561 0
-19.268591 -2.3756402 -2.1306026 0.015686275
-8.2202263 -0.19681764 -0.79796159 0.0078431377
-97.221893 -11.87102 2.2290351 0.074509807
-9.4365683 -0.22497106 0.10403542 0
-4.3266311 -0.55413985 -0.32715809 0
-8.8651161 -0.65805918 -0.75340271 0
-7.5183635 -0.55996549 0.12843421 0
-15.629748 -2.7241361 -1.0431871 0.078431375
-10.893497 -0.25959116 -0.65810364 0
-88.106812 -10.758862 5.1323075 0.078431375
-123.9855 -9.0011921 5.0013037 0.24705882
-9.484621 -0.70285171 -0.51946121 0
-124.24403 -9.017292 10.115375 0.16862746
-17.949663 -3.1224694 -0.76431072 0.0039215689
-9.4390526 -0.22524919 -0.3467581 0
-7.1746368 -0.53441548 1.3481593 0
-33.734829 -4.1374779 -0.81775427 0.011764706
-4.5215502 -0.32804489 -2.2320185 0.019607844
-17.617563 -3.0042403 -0.32832122 0.039215688
-9.7595224 -0.68934095 -0.30034342 0.015686275
-7.512135 -0.91719425 -2.1928904 0.054901961
-7.463552 -0.53118169 -1.5519468 0.023529412
-107.2004 -12.726609 -0.06114934 0.24705882
-17.994749 -0.36581352 -0.22603083 0.0039215689
-13.437184 -1.6191434 -2.153342 0.023529412
-7.6446152 -0.54342812 -1.0135343 0.0039215689
-16.683052 -1.1681174 -0.11112718 0
-19.232927 -2.3057799 -2.1259019 0.023529412
-8.2168589 -0.1686784 -0.79760116 0.0078431377
-98.281334 -11.668662 2.2522209 0.074509807
-9.4532652 -0.19320332 0.10419667 0
-9.2497225 -1.1222299 -0.67638123 0
-8.8354387 -0.62565744 -0.75079662 0
-50.22879 -8.4935999 1.4603249 0.11372549
-15.67019 -2.6767945 -1.0452803 0.050980393
-11.229654 -0.22944768 -0.67785347 0
-9.2933598 -0.65674764 0.38096422 0
-30.581745 -3.649972 -1.4654794 0.0078431377
-4.4253564 -0.3200492 0.37615129 0
-17.912634 -3.0541673 -0.76236707 0.0039215689
-9.3957901 -0.19226106 -0.34521225 0
-4.4084249 -0.31863737 0.84388965 0
-33.760288 -4.0261989 -0.81810135 0.011764706
-4.5299044 -0.31189331 -2.2354119 0.019607844
-17.635839 -2.943186 -0.32850063 0.039215688
-9.7219791 -0.65181029 -0.29917514 0.015686275
-7.5038157 -0.88880229 -2.1896641 0.070588239
-7.4497118 -0.50325477 -1.5488138 0.011764706
-17.995924 -0.3021585 -0.22606166 0.0039215689
-7.6504307 -0.51615971 -1.0140558 0
-72.202042 -11.933718 0.38609874 0.062745102
-16.734932 -1.1121818 -0.11146362 0
-19.209257 -2.2341526 -2.1224947 0.015686275
-8.2094402 -0.13902158 -0.79686731 0.0078431377
-96.207932 -11.081792 2.2036779 0.074509807
-9.4738865 -0.15969945 0.10440131 0
-8.8495092 -0.59475625 -0.75179601 0
-81.642059 -13.488026 2.3695798 0.24705882
-15.703074 -2.6251326 -1.0468595 0.06666667
-11.138566 -0.1878714 -0.67246991 0
-8.5076275 -1.0027167 0.50505924 0
-9.255722 -0.62084818 0.37934142 0
-30.586361 -3.5414448 -1.4651612 0.0078431377
-7.088728 -0.83941936 0.89877665 0
-9.3844213 -0.15842271 -0.34480274 0
-33.74633 -3.9042912 -0.8174994 0.011764706
-4.5237341 -0.29478568 -2.2320356 0.019607844
-17.649961 -2.8814092 -0.32860813 0.039215688
-9.6803045 -0.61430424 -0.29788798 0.0039215689
-7.510704 -0.86218935 -2.1907592 0.082352944
-7.4475126 -0.4761636 -1.5480409 0.011764706
-6.0210991 -0.6950655 -0.0063869404 0
-17.864899 -0.23676059 -0.22447771 0.0039215689
-7.5769506 -0.48393121 -1.0044308 0
-72.219566 -11.676972 0.38582724 0.1882353
-160.44244 -9.98528 -1.0299556 0.16862746
-19.212992 -2.165807 -2.1221008 0.0039215689
-8.2058992 -0.10947352 -0.7965073 0.0078431377
-9.4423981 -0.12537006 0.10403136 0
-8.9163027 -1.0179448 -0.65223503 0
-8.847558 -0.56277657 -0.75148457 0
-96.369133 -15.568221 2.7945154 0.24705882
-15.854015 -2.5923386 -1.056175 0.027450981
-11.107218 -0.14772943 -0.67060977 0
-9.3974581 -0.59637547 0.3849442 0
-8.7660389 -1.001085 -0.43001276 0.0039215689
-10.089369 -0.63985896 -0.55125403 0
-9.3649378 -0.12456273 -0.34410909 0
-6.3431211 -0.4061195 1.1957731 0
-8.765542 -1.0009156 -0.21873921 0
-4.5247393 -0.27814996 -2.232044 0.023529412
-17.865347 -2.8513217 -0.33238119 0.031372551
-9.6704235 -0.57896829 -0.29754972 0.0078431377
-7.5174994 -0.83553725 -2.191854 0.062745102
-7.445219 -0.44909221 -1.5472678 0.015686275
-83.748604 -9.0573606 -0.048873056 0.24313726
-17.561657 -0.17060474 -0.22078891 0.0039215689
-7.5587945 -0.45547628 -1.0019081 0
-9.2872639 -0.5563767 -0.063873142 0
-8.6123905 -0.95298332 -0.96697468 0.0039215689
-8.1903067 -0.079833187 -0.79502499 0.011764706
-95.686584 -10.343895 2.1896822 0.074509807
-9.4627829 -0.091764934 0.1042361 0
-8.8096781 -0.52871346 -0.74822342 0
-90.000816 -14.218828 2.6084771 0.24705882
-16.020691 -2.5610046 -1.0665226 0.023529412
-11.143607 -0.10846715 -0.67274308 0
-8.0618153 -0.89281577 0.47876221 0
-160.32637 -9.411725 6.458272 0.24705882
-10.167312 -0.60824245 -0.55529308 0
-17.015896 -2.717663 -0.72372562 0.05882353
-9.3453341 -0.090838388 -0.34341532 0
-32.496548 -3.5292478 -0.7870602 0.011764706
-4.5150385 -0.26108652 -2.2286961 0.031372551
-18.164293 -2.8331225 -0.33778021 0.0078431377
-9.6649923 -0.54411733 -0.29748479 0.0078431377
-7.5207949 -0.80882251 -2.1929812 0.035294119
-7.4315896 -0.42158258 -1.5449543 0.015686275
-86.501518 -9.0483809 -0.050658021 0.23921569
-17.27877 -0.10668015 -0.21744141 0.0039215689
-7.9598866 -0.85415119 -1.2908221 0.050980393
-7.5410895 -0.42734411 -0.99992567 0
-107.02588 -16.520172 0.57140279 0.10980392
-9.3336754 -0.52572691 -0.064232051 0
-8.4738274 -0.90759236 -0.95195532 0.0078431377
-8.1871338 -0.050373234 -0.79507405 0.0078431377
-86.455383 -9.0424757 1.9777269 0.074509807
-9.4596453 -0.05786192 0.10418295 0
-29.397482 -3.0913496 -2.103328 0.011764706
-8.7841835 -0.49577019 -0.74630797 0
-89.702713 -13.850692 2.598228 0.24705882
-9.4403334 -0.53149456 0.1607431 0
-16.235224 -2.5364046 -1.0802652 0.023529412
-11.140515 -0.06869565 -0.67280161 0
-86.600105 -9.0559311 5.0341272 0.078431375
-8.9829636 -0.50616574 0.36817771 0
-30.55876 -3.2121704 -1.4625727 0.043137256
-10.142041 -0.57055634 -0.55407864 0
-9.3341999 -0.057295632 -0.34318417 0
-32.668339 -3.4319186 -0.79109073 0.011764706
-4.5159254 -0.2444706 -2.2287047 0.031372551
-18.280859 -2.78492 -0.3397578 0.0039215689
-9.6388893 -0.50808406 -0.29667175 0.0039215689
-7.531239 -0.7824856 -2.1951563 0.023529412
-7.4291034 -0.39458439 -1.5441812 0.015686275
-86.739525 -8.7664099 -0.050934725 0.23921569
-17.339043 -0.045682799 -0.218205 0.0039215689
-7.5465026 -0.40037239 -1.0004468 0
