# .PCD v0.7 - Point Cloud Data file format
VERSION 0.7
FIELDS x y z intensity
SIZE 4 4 4 4
TYPE F F F F
COUNT 1 1 1 1
WIDTH 1147
HEIGHT 1
VIEWPOINT 0 0 0 1 0 0 0
POINTS 1147
DATA ascii
-12.416127 -2.9332821 -0.52437663 0
-7.965621 -0.67859733 -0.28295442 0
-11.013915 -2.0386722 -0.26418233 0
-4.7170343 -0.62347591 -2.2447767 0.027450981
-53.682396 -12.453794 -0.97065389 0.094117649
-8.8555899 -1.1645163 -0.26352224 0.0078431377
-5.7464275 -1.0483907 -1.6514516 0
-5.7731433 -0.76152891 -1.176791 0
-90.64859 -16.399321 -0.012649214 0.23529412
-6.1195765 -1.1158379 -0.97756064 0.0039215689
-6.6711893 -0.87893492 -0.86494231 0.082352944
-58.665855 -13.608739 0.3418358 0.054901961
-117.83782 -15.413251 -0.70722985 0.16862746
-9.2637396 -0.75739175 -0.87467206 0
-93.414337 -16.899317 2.1971769 0.074509807
-8.1063423 -1.0665671 -0.67370433 0
-67.0205 -15.544994 1.9941938 0.10196079
-12.647741 -2.9433706 -0.83808088 0.0078431377
-93.494125 -16.913639 5.5232129 0.078431375
-7.1400485 -0.94020659 0.29370129 0
-21.108677 -3.8259861 -1.0053626 0.031372551
-7.6113553 -1.0018443 -0.40697518 0
-12.647715 -2.9433527 -0.53368807 0
-7.9279833 -0.64876342 -0.28155375 0
-4.7119899 -0.60590631 -2.2413952 0.043137256
-54.76273 -12.502719 -0.98936433 0.094117649
-5.7386737 -1.0261241 -1.6482159 0
-4.5929418 -0.5907324 -0.93815905 0
-93.564735 -16.589321 -0.013029561 0.23137255
-6.0922446 -0.47789964 -0.073455587 0
-6.1078672 -1.0915264 -0.97509956 0
-6.6702805 -0.85495716 -0.86443728 0.05882353
-58.681808 -13.396573 0.34164613 0.16470589
-116.29578 -14.798745 -0.69768703 0.16862746
-7.1486368 -1.2759506 -0.78963816 0.015686275
-9.2861805 -0.72641057 -0.8765341 0
-83.672096 -14.836229 1.9668288 0.074509807
-20.653111 -3.6690366 -1.4740486 0.12156863
-8.1179247 -1.0390854 -0.67435694 0
-63.815449 -14.567449 1.8973272 0.094117649
-20.636177 -4.7187967 -1.3635652 0.027450981
-74.851967 -13.273181 4.4195895 0.050980393
-21.129768 -3.7534885 -1.0057381 0.043137256
-7.6821699 -0.98365325 -0.41054344 0
-7.9102721 -0.61935073 -0.28085366 0
-10.929096 -1.945852 -0.26184562 0
-4.721272 -0.59015805 -2.2447774 0.050980393
-55.551392 -12.478558 -1.0028014 0.098039217
-8.7682686 -1.0905178 -0.26071864 0.015686275
-5.719451 -1.0019464 -1.6417438 0
-5.7666421 -0.71939141 -1.1744372 0
-93.602371 -16.258987 -0.013037005 0.23137255
-6.0610175 -1.0612243 -0.96709985 0.0039215689
-6.6614113 -0.83002126 -0.86292112 0.031372551
-58.700897 -13.185322 0.34147927 0.10980392
-8.4026995 -1.0453105 -0.051515628 0
-9.2727737 -0.69262403 -0.87504548 0
-77.182991 -13.408411 1.8132004 0.050980393
-20.70904 -3.6042387 -1.4771256 0.035294119
-8.1768942 -1.0174049 -0.67892128 0
-63.862015 -14.343527 1.8972031 0.094117649
-112.46932 -13.912991 1.9635081 0.10980392
-20.633049 -4.6421738 -1.3622861 0.027450981
-93.515495 -16.243736 5.5176239 0.078431375
-21.15062 -3.6808858 -1.0061136 0.043137256
-7.737093 -0.96301758 -0.41327229 0
-21.691784 -4.8797584 -0.9116441 0.054901961
-7.9123874 -0.59154856 -0.28085417 0
-22.613899 -3.9349074 -0.53916812 0.0039215689
-4.7124057 -0.57302582 -2.2397053 0.039215688
-56.662483 -12.530536 -1.0220743 0.098039217
-8.6448078 -1.0459843 -0.25697926 0.015686275
-5.7767839 -0.70102859 -1.1760075 0
-93.600563 -15.938972 -0.013039204 0.23137255
-6.0567102 -1.0396205 -0.96586961 0.0078431377
-6.6247311 -0.80301553 -0.85786581 0.015686275
-58.705235 -12.981812 0.34124467 0.16470589
-7.1571565 -1.2269037 -0.78963965 0.06666667
-9.2948847 -0.66310889 -0.87690753 0
-82.785591 -14.098276 1.9436762 0.074509807
-20.748413 -3.5400653 -1.4790844 0.027450981
-8.2514706 -0.99868214 -0.68478936 0
-74.579308 -16.488974 2.213834 0.11764706
-20.621044 -4.5675321 -1.3604944 0.027450981
-93.537354 -15.928048 5.5157585 0.078431375
-11.311891 -1.3667748 0.4639661 0
-7.7402439 -0.9371835 -0.41327289 0
-8.0413294 -1.3773305 1.006155 0
-21.602474 -4.7843528 -0.90723675 0.023529412
-7.9302559 -0.56626713 -0.2814151 0
-22.812109 -3.8912647 -0.5435679 0.0039215689
-4.7279439 -0.55806285 -2.2464864 0.035294119
-57.510139 -12.507404 -1.0368073 0.10196079
-8.6277227 -1.0132921 -0.25642931 0.015686275
-5.7253046 -0.96262771 -1.6417662 0.035294119
-5.7744689 -0.68021315 -1.1752445 0
-93.623238 -15.606685 -0.013440261 0.23137255
-6.0594726 -1.0182806 -0.96589291 0.0078431377
-6.5754294 -0.77371293 -0.85131866 0.015686275
-58.737637 -12.774068 0.34092286 0.10980392
-147.29507 -17.201906 -0.88289458 0.16862746
-9.3082333 -0.63127184 -0.87806171 0
-73.630821 -12.275825 1.7274588 0.047058824
-8.3689137 -0.98308784 -0.69427592 0
-20.616526 -4.4910913 -1.3592997 0.035294119
-21.288652 -3.555517 -1.011618 0.035294119
-7.7188354 -0.90718842 -0.41204423 0
-21.567442 -4.6976914 -0.90520453 0.015686275
-7.9154034 -0.53731418 -0.28088591 0
-22.39477 -3.7397859 -0.53346401 0.0039215689
-4.719152 -0.53931123 -2.2414138 0.047058824
-22.623991 -4.8402696 -0.40868041 0.0078431377
-8.57973 -0.97562838 -0.25491041 0.019607844
-5.8003082 -0.66149032 -1.179955 0
-93.632439 -15.255523 -0.013444273 0.23137255
-6.0475607 -0.99332678 -0.96343195 0.011764706
-6.538794 -0.74495399 -0.84626323 0.0039215689
-63.787289 -13.626423 0.36998051 0.054901961
-147.33725 -16.659481 -0.8827883 0.16862746
-9.2747126 -0.59467286 -0.87471145 0
-83.503204 -13.606031 1.9578352 0.074509807
-7.4844074 -1.2272885 -0.53596091 0.0078431377
-8.3883057 -0.95400172 -0.6955806 0
-72.696457 -15.52799 2.1543067 0.11372549
-84.455544 -9.5518723 1.4722534 0.10980392
-20.617233 -4.4119673 -1.3582771 0.027450981
-83.475494 -13.60143 4.9164772 0.078431375
-149.09302 -16.857773 6.0941167 0.24705882
-21.372524 -3.4888284 -1.01498 0.031372551
-7.662571 -0.87196499 -0.40889674 0
-21.600153 -4.6217518 -0.9058609 0.015686275
-7.97716 -0.51191849 -0.28298843 0
-4.7210059 -0.52264786 -2.2414143 0.047058824
-8.5473127 -0.9415713 -0.25385904 0.023529412
-5.7206359 -0.91943258 -1.638531 0
-5.7752895 -0.63806438 -1.1744605 0
-93.64167 -14.921503 -0.013448154 0.23137255
-6.0548944 -0.97264606 -0.96404791 0.011764706
-6.5137444 -0.71891522 -0.84272456 0.015686275
-67.545601 -14.182102 0.39151546 0.05882353
-147.62115 -16.169735 -0.88415569 0.16862746
-7.1100698 -1.1406859 -0.78323561 0.0039215689
-9.2807074 -0.56234848 -0.87508428 0
-83.716072 -13.340714 1.9617127 0.074509807
-8.3995113 -0.9253974 -0.69623327 0
-73.435005 -15.417634 2.1745694 0.11372549
-84.472466 -9.2550983 1.4719697 0.10980392
-20.624697 -4.33815 -1.357767 0.043137256
-83.51458 -13.30854 4.9160051 0.078431375
-7.7171879 -0.8506788 -0.41162574 0
-21.577036 -4.5379348 -0.90423012 0.011764706
-7.9429879 -0.48172009 -0.28172767 0
-4.7264066 -0.50635803 -2.2431056 0.06666667
-22.586723 -4.6672964 -0.40742016 0.050980393
-8.5227156 -0.90859127 -0.25304145 0.019607844
-5.7200041 -0.89867657 -1.6374527 0
-5.773582 -0.61729866 -1.1736759 0
-93.653656 -14.588179 -0.013452401 0.23137255
-6.0465369 -0.94949162 -0.96220225 0.011764706
-6.5162148 -0.69598466 -0.84272504 0.015686275
-110.27478 -11.690801 -0.66054308 0.16862746
-7.0943608 -1.1126122 -0.78109181 0
-9.3024969 -0.53088826 -0.87694639 0
-83.770012 -13.049432 1.961889 0.074509807
-8.4185486 -0.8975631 -0.69753784 0
-74.439949 -15.357176 2.202709 0.11372549
-110.35166 -11.698892 1.9221822 0.10980392
-20.627985 -4.2635198 -1.3570006 0.043137256
-21.779325 -3.3987811 -1.0330899 0.0039215689
-7.6327209 -0.81428611 -0.40700907 0
-7.0196381 -1.4580082 -0.29607299 0.0039215689
-7.9206738 -0.45244241 -0.28088728 0
-23.033913 -3.5940819 -0.54769558 0.0039215689
-4.7317519 -0.49003792 -2.2447968 0.05882353
-22.571522 -4.5818868 -0.40686029 0.050980393
-8.5099249 -0.87701875 -0.2525745 0.019607844
-5.7269158 -0.87909573 -1.6385322 0.0039215689
-5.783505 -0.59775293 -1.1752464 0
-70.26165 -10.695237 -0.010319883 0.12156863
-30.780573 -1.6420839 -0.36452901 0.0078431377
-6.0263715 -0.92462569 -0.95851034 0.0078431377
-6.4949203 -0.6706208 -0.83969194 0.015686275
-155.7018 -31.543629 0.90192014 0.10980392
-110.41439 -11.315798 -0.6611461 0.16862746
-7.0903387 -1.0864576 -0.78023463 0
-9.3003168 -0.49801362 -0.87657458 0
-83.486931 -12.70684 1.9542013 0.074509807
-7.563911 -1.1584846 -0.54071569 0
-8.4335279 -0.86920249 -0.69851649 0
-72.855064 -14.765313 2.1542792 0.11372549
-110.40774 -11.315062 1.9224508 0.10980392
-7.6289468 -1.1683487 0.45062876 0
-110.45261 -11.319603 4.509923 0.24705882
-7.655386 -0.78948581 -0.40805903 0
-110.63033 -11.337708 9.0671062 0.16862746
-21.565104 -4.3780828 -0.90243864 0.027450981
-7.9222059 -0.42460394 -0.28088769 0
-23.706545 -3.6138933 -0.56332612 0.0039215689
-4.7224464 -0.47392756 -2.2397244 0.047058824
-22.550505 -4.5037551 -0.40622979 0.050980393
-8.4808121 -0.84695345 -0.25163993 0.019607844
-5.7029805 -0.85696077 -1.630981 0.0039215689
-5.7853546 -0.57941282 -1.1752467 0
-31.005289 -1.5562229 -0.36712116 0.0078431377
-6.0370646 -0.90668529 -0.95974165 0.015686275
-6.4969959 -0.65004563 -0.83969241 0.015686275
-155.76089 -31.046362 0.9016757 0.32941177
-179.83516 -17.856197 -1.0757351 0.16862746
-7.0779829 -1.0616672 -0.77851957 0
-9.3097906 -0.46902499 -0.87731963 0
-84.143463 -12.536216 1.9686275 0.074509807
-7.6346073 -1.144539 -0.54546881 0
-8.4243164 -0.84135514 -0.69753909 0
-72.803078 -14.516673 2.1513751 0.11372549
-20.640148 -4.1231427 -1.3559799 0.062745102
-6.6846461 -1.0030687 0.39494169 0
-7.7596679 -1.1631548 -0.36991128 0.0078431377
-7.6578293 -0.76526475 -0.40805957 0
-21.629705 -4.3203001 -0.90456462 0.047058824
-7.9235015 -0.3995465 -0.28088808 0
-24.29921 -3.625807 -0.5770849 0.0039215689
-4.7241516 -0.45641822 -2.2397249 0.047058824
-22.559008 -4.419342 -0.40609196 0.043137256
-8.4758968 -0.81490666 -0.25140679 0.019607844
-5.7060838 -0.83585531 -1.6309814 0.0039215689
-73.111702 -10.61974 -0.010705877 0.1254902
-30.819004 -1.4334698 -0.36486182 0.0078431377
-6.0207911 -0.88151646 -0.95666516 0.015686275
-6.4953852 -0.62565428 -0.83918732 0.019607844
-7.0700197 -1.0338072 -0.7772336 0
-9.2995129 -0.4341487 -0.87620318 0
-9.3798103 -0.90129864 -0.77577776 0
-93.370857 -18.259104 2.7569647 0.24705882
-20.659039 -4.0480332 -1.3562388 0.043137256
-73.205864 -10.633289 4.300406 0.050980393
-7.7441082 -1.13164 -0.36897877 0.0039215689
-7.6446767 -0.7354756 -0.40722063 0
-21.610094 -4.2338982 -0.90309721 0.019607844
-7.8809862 -0.36826631 -0.279347 0
-4.7401557 -0.44106588 -2.2464888 0.031372551
-22.554663 -4.3366146 -0.405743 0.043137256
-8.4627647 -0.78366184 -0.25093982 0.023529412
-5.7165942 -0.81682432 -1.6331398 0.0039215689
-5.7815423 -0.53689533 -1.1736777 0
-30.851791 -1.3268954 -0.36519304 0.0078431377
-6.016005 -0.85919869 -0.95543486 0.019607844
-6.5014811 -0.60315329 -0.83969337 0.015686275
-83.030281 -15.937265 0.47968277 0.10980392
-7.0696478 -1.0083767 -0.77680534 0
-73.211899 -10.373233 1.7111233 0.047058824
-7.9823728 -1.1376016 -0.56951213 0
-9.3948107 -0.86945999 -0.77675641 0
-73.00325 -14.013783 2.1542532 0.11372549
-20.665205 -3.9742033 -1.3557287 0.043137256
-7.7361431 -1.102733 -0.36841956 0.0078431377
-7.6591315 -0.70969701 -0.40785083 0
-10.261476 -1.4602444 1.2768617 0
-21.52269 -4.1386743 -0.89885253 0.043137256
-7.926157 -0.34245333 -0.28088889 0
-39.885033 -5.6546335 -0.94487315 0.054901961
-4.7379823 -0.42484534 -2.2447982 0.031372551
-22.56106 -4.2601376 -0.40560484 0.035294119
-8.4374399 -0.75294322 -0.2501221 0.023529412
-5.70401 -0.79557472 -1.6288251 0.011764706
-5.7559428 -0.5151158 -1.1681831 0
-73.328903 -10.141733 -0.010739016 0.1254902
-32.434673 -1.2869455 -0.38380036 0.011764706
-6.0070758 -0.83744246 -0.95358908 0.031372551
-6.4876366 -0.58000976 -0.8376714 0.015686275
-83.094467 -15.663881 0.47974166 0.10980392
-146.97456 -13.041038 -0.87855995 0.16862746
-7.0690136 -0.98420459 -0.77637708 0
-8.0845203 -0.32222649 -0.76227623 0
-9.3738146 -0.83600909 -0.77480108 0
-73.241852 -13.807711 2.1599209 0.11372549
-147.01089 -13.044191 2.5564125 0.10980392
-20.662579 -3.902518 -1.3547056 0.050980393
-7.7199674 -1.0741597 -0.36748698 0.0078431377
-7.6455269 -0.68270469 -0.40701184 0
-73.306213 -10.138357 9.082181 0.05882353
-6.3440051 -0.56724274 0.5225563 0
-21.559862 -4.0715404 -0.89983511 0.027450981
-7.91926 -0.31567273 -0.28060898 0
-39.907528 -5.5227065 -0.94497025 0.035294119
-4.7358956 -0.40697342 -2.2431076 0.035294119
-22.552923 -4.1728702 -0.40518555 0.050980393
-8.4321737 -0.72114134 -0.24988893 0.023529412
-5.6992526 -0.7734406 -1.626668 0.011764706
-5.7656083 -0.49448457 -1.1697536 0
-73.310074 -9.8652573 -0.010738649 0.1254902
-6.0022707 -0.8141709 -0.95235884 0.043137256
-6.4936728 -0.55636817 -0.8381775 0.015686275
-93.464897 -17.26288 0.53930724 0.10980392
-7.0686321 -0.95756358 -0.77594882 0
-8.0617676 -0.29153964 -0.76004273 0
-8.1601677 -1.1043409 -0.58153456 0
-9.3807888 -0.80178964 -0.77512771 0
-73.366669 -13.552783 2.162113 0.11372549
-20.661041 -3.823669 -1.3536826 0.05882353
-15.947168 -2.1514461 0.93718189 0
-147.14182 -12.512203 5.9977889 0.24705882
-7.7238526 -1.0456626 -0.36748773 0
-7.6479778 -0.65448296 -0.40701237 0
-73.409752 -9.8784256 9.0904512 0.05882353
-7.4821639 -0.64036787 0.61548394 0
-21.578569 -3.9930255 -0.90000105 0.027450981
-7.9283547 -0.28673759 -0.28088963 0
-39.947311 -5.3788776 -0.94544202 0.035294119
-4.7264481 -0.38936678 -2.238035 0.043137256
-8.4147139 -0.68988997 -0.24930498 0.023529412
-5.6980991 -0.75285232 -1.6255896 0.011764706
-5.7712097 -0.47448534 -1.1705389 0
-73.260773 -9.5981865 -0.010734087 0.1254902
-5.9972386 -0.79199874 -0.95112842 0.031372551
-6.4837108 -0.53254151 -0.8366611 0.015686275
-93.473419 -16.92705 0.53900129 0.10980392
-7.0364437 -0.92804784 -0.77208924 0
-8.0428343 -0.26256159 -0.75818157 0
-131.46857 -17.218731 3.0680084 0.074509807
-8.0927572 -1.0663365 -0.57650322 0
-9.3676376 -0.76755458 -0.77382439 0
-73.244347 -13.265779 2.1571238 0.11372549
-7.7593417 -0.63647574 0.13487962 0
-20.670336 -3.7506208 -1.3534286 0.035294119
-7.7116094 -1.0164309 -0.36674178 0
-7.6422534 -0.62694436 -0.40659314 0
-21.604176 -3.9196203 -0.90049362 0.0039215689
-7.9093304 -0.25822306 -0.28018931 0
-39.965851 -5.2392044 -0.94544566 0.054901961
-4.7385559 -0.37436098 -2.2431083 0.050980393
-22.557177 -4.0147004 -0.40476853 0.070588239
-8.3970251 -0.66024828 -0.24872103 0.023529412
-5.6929226 -0.73280066 -1.6234324 0.011764706
-5.7649302 -0.45455641 -1.1689692 0
-112.58982 -14.367434 -0.016014798 0.24705882
-5.9959116 -0.7714299 -0.95051354 0.047058824
-6.4933534 -0.51147956 -0.83767271 0.015686275
-93.501465 -16.611935 0.53883219 0.10980392
-7.043427 -0.90503579 -0.77251881 0
-8.0715265 -0.23652461 -0.76078802 0
-8.2822828 -1.0630469 -0.58964312 0
-9.3900032 -0.73786324 -0.77545494 0
-93.558228 -16.621943 2.753552 0.24705882
-20.702307 -3.6853702 -1.3547126 0.027450981
-7.6911559 -0.98764324 -0.36562252 0
-7.4969449 -0.5899061 -0.39882806 0
-21.69182 -3.861059 -0.90359974 0.0039215689
-7.9381137 -0.23263203 -0.28117055 0
-40.030602 -5.1125464 -0.94657207 0.035294119
-22.578796 -3.9331665 -0.40500471 0.070588239
-8.3985634 -0.62926543 -0.24875443 0.023529412
-5.6909161 -0.7112543 -1.6223754 0.015686275
-128.15839 -15.875963 -0.018651383 0.24705882
-5.9664907 -0.74536061 -0.94561297 0.082352944
-6.4824853 -0.48659047 -0.83618098 0.015686275
-93.50573 -16.259344 0.53810912 0.10980392
-8.0715122 -0.20673743 -0.76081997 0
-132.17604 -16.373383 3.0812106 0.074509807
-8.3724136 -1.0432695 -0.5958268 0
-9.3719378 -0.70175999 -0.7738626 0
-93.601959 -16.275993 2.7526832 0.24705882
-20.742376 -3.6140509 -1.3565944 0.019607844
-189.04977 -14.081782 7.6984301 0.24705882
-7.6859674 -0.9582631 -0.36527961 0
-7.573916 -0.5678587 -0.40284559 0
-5.1856627 -0.38999578 0.42733315 0
-7.9420848 -0.20343573 -0.28134206 0
-40.187141 -4.9827938 -0.95001936 0.015686275
-4.7366633 -0.33979565 -2.2414351 0.047058824
-22.596329 -3.8548081 -0.40507761 0.070588239
-8.3967209 -0.59947187 -0.24863805 0.019607844
-5.7010131 -0.69211411 -1.6245335 0.015686275
-138.27252 -16.638313 -0.020056302 0.24705882
-31.419807 -0.69140851 -0.37178603 0.0078431377
-6.4841447 -0.46376893 -0.8361814 0.015686275
-93.542198 -15.9293 0.53798509 0.10980392
-7.0291519 -0.85184681 -0.77040231 0
-8.0443115 -0.17775838 -0.758214 0
-132.03787 -15.88831 3.0766661 0.074509807
-8.3799677 -1.0143242 -0.59610713 0
-9.3743315 -0.66885102 -0.7738632 0
-74.923553 -12.760476 2.2021914 0.11372549
-20.782412 -3.5461218 -1.3583915 0.019607844
-7.6852994 -0.93076068 -0.36509362 0
-8.0860682 -0.57741195 0.66418886 0
-21.785044 -3.716749 -0.90647113 0.047058824
-7.9587321 -0.17587249 -0.281903 0
-9.7585831 -1.1800687 2.6459846 0
-40.414719 -4.8676038 -0.95498389 0.015686275
-4.7559042 -0.32428831 -2.2498901 0.031372551
-22.617538 -3.7770324 -0.40522081 0.078431375
-8.3947725 -0.56969875 -0.24852164 0.019607844
-5.6957431 -0.67112535 -1.6223763 0.019607844
-142.89476 -16.688295 -0.02070079 0.24705882
-31.346048 -0.58013308 -0.3708919 0.0078431377
-6.4817653 -0.4406746 -0.83567619 0.015686275
-93.534103 -15.591969 0.53761148 0.10980392
-7.0123329 -0.8248089 -0.76825821 0
-8.0170107 -0.14897163 -0.75560796 0
-148.36166 -17.326441 3.4555438 0.074509807
-8.3794928 -0.98441297 -0.59582824 0
-9.372632 -0.63566554 -0.77353781 0
-83.455063 -13.912703 2.4514217 0.24705882
-20.830105 -3.479269 -1.3607012 0.0039215689
-8.289957 -0.15401335 -0.4880977 0
-7.6765952 -0.90234792 -0.36453426 0
-21.790003 -3.6391776 -0.90614682 0.054901961
-7.9433112 -0.14760444 -0.28134269 0
-41.190105 -4.8148756 -0.97286558 0.019607844
-4.7425375 -0.30656853 -2.2431266 0.031372551
-22.618744 -3.6959388 -0.40501222 0.070588239
-8.388731 -0.53969145 -0.24828833 0.019607844
-5.6942244 -0.65061533 -1.6212981 0.019607844
-5.7503767 -0.37099665 -1.1650672 0.06666667
-142.87265 -16.180204 -0.020701846 0.24705882
-5.9386225 -0.6782667 -0.94007546 0.0078431377
-6.4832644 -0.4178558 -0.83567655 0.015686275
-93.532692 -15.256178 0.53728354 0.10980392
-7.0151696 -0.80013579 -0.76825881 0
-7.9776616 -0.12019863 -0.751885 0
-148.61595 -16.830305 3.4600639 0.074509807
-8.3868456 -0.95541567 -0.59610862 0
-9.3946857 -0.60402656 -0.77516842 0
-93.569946 -15.262183 2.7468612 0.24705882
-7.5690427 -1.2425653 -0.49697736 0.0039215689
-8.0908089 -0.12189191 -0.47644237 0
-6.0561905 -0.69154525 0.356397 0
-7.6638184 -0.87355798 -0.36378822 0
-7.5076923 -0.48335567 -0.39906886 0
-21.818352 -3.5654752 -0.90680265 0.047058824
-7.9877467 -0.120345 -0.28288469 0
-41.981499 -4.7585921 -0.99112165 0.019607844
-4.7580018 -0.29153699 -2.2498906 0.027450981
-22.780949 -3.6446903 -0.40768802 0.0078431377
-8.3864832 -0.51144975 -0.24817187 0.019607844
-5.681035 -0.62986654 -1.6169831 0.023529412
-5.73983 -0.35103399 -1.1627125 0.098039217
-142.91357 -15.704871 -0.020711429 0.24705882
-30.837345 -0.3604143 -0.36486247 0.0078431377
-5.9369111 -0.65795863 -0.93946052 0.0078431377
-6.4925365 -0.39665499 -0.83668822 0.015686275
-93.570915 -14.943875 0.53720587 0.10980392
-7.0059257 -0.77538621 -0.7669726 0
-147.95543 -16.258638 3.4434018 0.074509807
-8.3939333 -0.92785537 -0.59638882 0
-9.3767414 -0.57148439 -0.77353889 0
-81.688164 -13.04714 2.3968546 0.24705882
-7.5731215 -1.2172796 -0.49697813 0.0039215689
-8.0592232 -0.094509274 -0.47457772 0
-7.6547575 -0.84665114 -0.3632288 0
-21.98003 -3.5168657 -0.91301316 0.0078431377
-43.01862 -4.7313991 -1.0151811 0.019607844
-4.755372 -0.27452764 -2.2482002 0.027450981
-23.157078 -3.6216784 -0.41416314 0.0078431377
-8.3762417 -0.481296 -0.2478216 0.019607844
-5.6870308 -0.61024725 -1.6180624 0.019607844
-142.97948 -15.206955 -0.02072468 0.24705882
-40.04147 -0.32787636 -0.47329146 0.019607844
-5.9391723 -0.63703895 -0.93946099 0.011764706
-6.4899206 -0.37357101 -0.83618295 0.015686275
-7.0046349 -0.75031352 -0.76654422 0
-8.0101538 -0.06578327 -0.7548641 0
-29.761534 -3.1697621 0.69268155 0.0039215689
-8.3812513 -0.89666957 -0.59527117 0
-9.3866405 -0.5390119 -0.7741915 0
-82.637878 -12.902866 2.4233677 0.24705882
-7.6009903 -1.1943374 -0.49851722 0
-8.0555124 -0.066151805 -0.47434488 0
-7.6497207 -0.81888884 -0.36285606 0
-7.6464005 -0.43961471 -0.40620628 0
-8.9888248 -0.51626682 0.73729044 0
-22.086948 -3.4547119 -0.91693652 0.015686275
-7.9843831 -0.065568015 -0.28274506 0.0039215689
-65.426514 -6.9616652 -1.5422682 0.050980393
-4.7454419 -0.25715321 -2.2431273 0.035294119
-8.3778715 -0.45186424 -0.24782206 0.019607844
-5.6776314 -0.58901954 -1.6148264 0.023529412
-110.39564 -11.352925 -0.016209973 0.24705882
-40.090366 -0.18813716 -0.47385821 0.019607844
-6.4911852 -0.35072416 -0.83618331 0.015686275
-11.093386 -0.59744579 -0.067327134 0
-6.9913874 -0.7240411 -0.7648291 0
-8.0581264 -0.037855897 -0.75933242 0
-110.35815 -11.349012 2.5665622 0.074509807
-135.11116 -0.63392282 1.5538496 0.062745102
-8.388298 -0.86762547 -0.59555143 0
-9.3844833 -0.50583899 -0.77386594 0
-7.5774899 -1.1633956 -0.49672338 0
-8.0317345 -0.037729558 -0.47294644 0
-110.45996 -11.359391 6.4537239 0.078431375
-5.370306 -0.29062289 -0.28635457 0
-7.9108148 -1.2142109 -0.33025742 0.0039215689
-7.9885612 -0.037525326 -0.28288546 0.0078431377
-66.512535 -6.8422241 -1.5672657 0.054901961
-4.7571311 -0.24177992 -2.2482009 0.031372551
-11.10058 -1.6626999 -0.1992984 0
-8.379324 -0.42389879 -0.24782249 0.019607844
-5.6872196 -0.57076955 -1.6169844 0.027450981
-5.7901478 -0.29371092 -1.1721336 0
-8.7024031 -0.87056297 -0.002107108 0.0039215689
-5.927639 -0.59466171 -0.93700004 0.023529412
-6.4843874 -0.32861704 -0.83517241 0.015686275
-70.192223 -10.47164 0.40217742 0.05882353
-11.123269 -0.56188077 -0.067494333 0
-7.0095806 -0.70224595 -0.7665453 0
-8.062191 -0.010958351 -0.75970495 0
-5.6877289 -0.57078159 0.13258591 0
-135.09653 -0.18566737 1.5536617 0.062745102
-8.4189253 -0.84238708 -0.59750903 0
-9.3861094 -0.47453499 -0.77386642 0
-82.439049 -12.297254 2.4150124 0.24705882
-7.739233 -1.1616232 -0.50697911 0
-8.0477896 -0.010936159 -0.47387913 0
-110.57254 -11.000357 6.4581242 0.078431375
-7.6710215 -0.76801056 -0.36360395 0.0078431377
-7.8831758 -1.183076 -0.32895121 0.0078431377
-8.0086308 -0.010880711 -0.28358647 0.011764706
-67.712723 -6.7385664 -1.5949775 0.054901961
-4.7471218 -0.22363663 -2.2431278 0.039215688
-11.039317 -1.6120281 -0.1981035 0
-8.3808231 -0.39298654 -0.24782296 0.019607844
-5.6777716 -0.5486207 -1.6137486 0.023529412
-5.7951031 -0.27247089 -1.1729189 0
-6.489512 -0.30483469 -0.83567834 0.015686275
-72.941589 -10.608173 0.41771957 0.062745102
-31.922302 -1.4903343 -0.1913927 0.011764706
-7.0041895 -0.67559344 -0.765688 0
-8.0820904 0.018834738 -0.76156676 0
-9.4388018 -0.9086808 -0.66908145 0
-9.3917694 -0.44011793 -0.77419299 0
-72.96756 -10.611898 2.1364691 0.10980392
-7.6698079 -0.73931104 -0.36341789 0.0078431377
-7.726397 -0.36248389 -0.41019559 0
-6.9706492 -0.32724154 0.57223785 0
-7.8755937 -1.1522527 -0.32846192 0.011764706
-8.0006218 0.01865196 -0.28330639 0.0078431377
-11.148826 -0.52197897 2.0423539 0
-9.0733423 -0.87368202 -0.21552837 0
-4.7514591 -0.20786853 -2.2448189 0.039215688
-11.05252 -1.5763547 -0.19824524 0
-8.3820801 -0.36501172 -0.24782336 0.019607844
-5.6680532 -0.52854496 -1.6105124 0.047058824
-5.9277101 -0.55252159 -0.93638551 0.078431375
-6.4944515 -0.28330362 -0.83618432 0.015686275
-31.691296 -1.3740795 -0.18998979 0.0078431377
-7.0063915 -0.65218204 -0.76568854 0
-8.0660524 0.045727585 -0.76007771 0
-9.5490417 -0.88710672 -0.67663068 0
-9.3732615 -0.40792799 -0.77256334 0
-9.4031067 -1.3422422 -0.61440265 0
-8.3072243 0.04708153 -0.48903194 0
-4.6734481 -0.43660942 0.27496067 0
-7.6801748 -0.71442735 -0.36379182 0.015686275
-7.6597137 -0.33374235 -0.40662768 0
-9.9908495 -0.43464115 0.81851441 0
-7.8595862 -1.1231407 -0.32764575 0.011764706
-8.0085115 0.045408532 -0.28358692 0.0078431377
-9.0562792 -0.84156853 -0.21506098 0
-4.7412891 -0.19065794 -2.2397466 0.043137256
-11.04211 -1.5353814 -0.19796489 0
-8.3793077 -0.33540133 -0.24770686 0.019607844
-5.6813741 -0.50958866 -1.6137493 0.054901961
-5.7929049 -0.23249111 -1.1721345 0
-5.9256663 -0.53128618 -0.93577051 0.082352944
-6.4954014 -0.26044151 -0.83618462 0.015686275
-73.289467 -10.14944 0.41929469 0.1882353
-6.9214768 -0.61978507 -0.75625235 0
-8.0379667 0.073820099 -0.75747156 0
-9.3772011 -0.8380357 -0.66433001 0
-9.4025135 -0.37612581 -0.7748459 0
-9.3088827 -1.2955405 -0.60799414 0
-8.3309679 0.076487243 -0.49043086 0
-7.6587424 -0.68530142 -0.3626723 0.015686275
-7.6887712 -0.30792442 -0.40809736 0
-9.7293873 -0.38911185 0.79707032 0
-7.8436656 -1.0927691 -0.32682961 0.011764706
-8.0322876 0.073771678 -0.28442803 0
-9.043231 -0.80834478 -0.21468723 0
-4.7419262 -0.17391658 -2.2397468 0.039215688
-11.027585 -1.4939681 -0.19761416 0
-8.3844233 -0.30610678 -0.24782416 0.019607844
-5.6831183 -0.48956442 -1.6137497 0.06666667
-5.7819214 -0.21165255 -1.1697797 0
-147.02675 -12.554345 -0.021310972 0.24705882
-5.907795 -0.50872862 -0.9326936 0.074509807
-6.5081668 -0.23800965 -0.8377018 0.015686275
-73.261009 -9.8848238 0.41892451 0.1882353
-31.951942 -1.1615674 -0.1914925 0.035294119
-7.0068116 -0.60253519 -0.76526052 0
-8.0177498 0.10181531 -0.75561011 0
-146.99141 -12.55126 3.4127989 0.074509807
-9.399785 -0.34296969 -0.77452034 0
-9.6100464 -1.3028544 -0.62722337 0
-8.9774637 -0.77072024 0.52575606 0
-7.6491451 -0.65735537 -0.36211282 0.011764706
-7.6897993 -0.2808952 -0.40809771 0
-7.8315878 -1.0630584 -0.32617688 0.0078431377
-8.0679569 0.10245028 -0.28568962 0
-8.9981833 -0.77250367 -0.2135646 0
-4.7452917 -0.15728456 -2.2414551 0.039215688
-11.012079 -1.4526649 -0.1973073 0
-8.3846149 -0.27664036 -0.24785747 0.019607844
-5.6570868 -0.46732667 -1.6062194 0.094117649
-5.7896342 -0.19152847 -1.1713718 0
-5.912643 -0.48822853 -0.93333167 0.086274512
-6.5081286 -0.21509308 -0.83772695 0.015686275
-31.787073 -1.0443188 -0.19062755 0.023529412
-7.0040789 -0.57755131 -0.76485902 0
-13.292557 -1.0921965 0.30883342 0
-9.4615326 -0.77867436 -0.66996032 0
-9.2725916 -0.30577573 -0.76412505 0
-7.4610977 -0.98649323 0.21866077 0
-8.4659424 -1.1184268 -0.55290765 0
-6.1283431 -0.20262055 0.25028276 0
-7.6585288 -0.6311053 -0.36251634 0.011764706
-7.6659517 -0.25306788 -0.40686849 0
-7.8304615 -1.034997 -0.32604453 0.0039215689
-8.9760847 -0.73893476 -0.21303892 0
-4.7494354 -0.14063162 -2.2431464 0.039215688
-11.068657 -1.4206109 -0.19822323 0
-8.3895264 -0.24729495 -0.2479748 0.023529412
-5.6740441 -0.44858637 -1.6105353 0.082352944
-5.7824268 -0.17089432 -1.1698021 0
-5.918252 -0.46770179 -0.93394756 0.094117649
-6.5048733 -0.19206454 -0.83722156 0.015686275
-171.286 -21.884697 0.97857928 0.10980392
-31.470669 -0.92378652 -0.18872324 0.0078431377
-8.0080509 0.15801904 -0.75489718 0
-9.5278425 -0.75043499 -0.67443442 0
-8.1896868 -0.24144319 -0.67544526 0
-8.4222794 -1.0826058 -0.54983169 0
-7.6527195 -0.60355103 -0.36214352 0.0078431377
-7.7186947 -0.22763537 -0.40959775 0
-7.7462406 -0.61085045 0.958812 0
-12.521657 -0.36838871 1.0244503 0
-7.8221331 -1.0059448 -0.32555509 0.0039215689
-8.1021891 0.15986401 -0.28698319 0.011764706
-8.9467173 -0.70490652 -0.21229057 0
-4.7607689 -0.12413876 -2.2482197 0.027450981
-40.661667 -5.0560727 -0.72287953 0.047058824
-8.3943367 -0.21791852 -0.2480921 0.023529412
-5.6755762 -0.42858374 -1.6105356 0.10196079
-5.7869101 -0.1506165 -1.1705874 0.0039215689
-101.07885 2.3326757 -1.1931592 0.082352944
-5.9237905 -0.44714183 -0.93456346 0.10588235
-6.5094719 -0.16926607 -0.83772755 0.015686275
-142.69798 -17.72702 0.81478453 0.10980392
-31.345747 -0.81043047 -0.18796229 0.0078431377
-7.0000081 -0.52765971 -0.76400208 0.015686275
-8.0592127 0.18735854 -0.75973785 0
-188.85016 -14.133331 4.380054 0.074509807
-100.83527 2.3270702 1.1594458 0.062745102
-9.5264263 -0.71668088 -0.67415553 0
-8.1904812 -0.21266097 -0.67544562 0
-8.4418535 -1.0549744 -0.55085808 0
-9.5815392 -0.72078073 0.56051672 0
-7.3242259 -0.19028597 0.29879659 0
-7.6547804 -0.57664108 -0.36214405 0.0039215689
-7.739409 -0.20101291 -0.41064766 0
-12.495395 -0.9387725 1.5426171 0
-7.8057666 -0.97597855 -0.32473886 0.0039215689
-8.1415482 0.18925986 -0.28838506 0.0039215689
-8.9132338 -0.67079389 -0.21144857 0
-4.7611737 -0.10732688 -2.24822 0.031372551
-8.4030409 -0.18860279 -0.24832632 0.023529412
-5.6808796 -0.40885127 -1.6116148 0.10980392
-5.7756367 -0.12996069 -1.1682326 0
-9.1368866 0.24432084 -0.10926462 0
-5.9213729 -0.42598805 -0.93394834 0.10196079
-6.5179572 -0.14652804 -0.8387391 0.015686275
-142.68352 -17.219538 0.81434065 0.10980392
-31.33239 -0.70046514 -0.18786831 0.0078431377
-8.0624886 0.2157865 -0.76011032 0
-9.5288696 -0.68323195 -0.67415613 0
-8.0875463 -0.18156469 -0.66696918 0
-3.2990284 -0.40443218 0.096957862 0
-8.4217062 -1.0224406 -0.54932046 0
-7.6487756 -0.54915762 -0.36177117 0.0039215689
-7.7240891 -0.1734481 -0.40980831 0
-8.1819792 -0.58715439 1.0118842 0
-7.8051581 -0.94805539 -0.32457617 0.0039215689
-8.200778 0.21946101 -0.2904878 0
-4.7651443 -0.090580843 -2.2499108 0.027450981
-41.085251 -4.8172846 -0.72978377 0.19607843
-8.4196386 -0.15937755 -0.24879441 0.023529412
-5.6745868 -0.38830388 -1.6094575 0.12941177
-5.7799773 -0.10967947 -1.1690177 0.0078431377
-5.9228244 -0.40512258 -0.93394876 0.10980392
-6.5223961 -0.12365655 -0.83924502 0.015686275
-142.76662 -16.723969 0.81446403 0.10980392
-31.36264 -0.59142399 -0.18803632 0.0078431377
-6.9916186 -0.47758582 -0.76271611 0.047058824
-8.0616875 0.24412188 -0.76011044 0
-9.4276886 -0.64275432 -0.66688728 0
-8.1558933 -0.15441561 -0.67251211 0
-8.4172955 -0.99191517 -0.54880846 0
-7.6561465 0.23193702 -0.45129853 0.078431375
-7.6466603 -0.52199161 -0.36158496 0
-7.728642 -0.14636695 -0.41001856 0
-7.8004813 -0.91968161 -0.32425007 0
-46.395241 1.3960094 -1.6304083 0.031372551
-8.9695663 -0.6116845 -0.21266684 0
-4.7545576 -0.073584765 -2.244838 0.035294119
-41.141556 -4.6781502 -0.7304911 0.047058824
-8.4241419 -0.12985267 -0.24891165 0.031372551
-5.6797519 -0.3685455 -1.6105367 0.1882353
-5.7960124 -0.089548625 -1.1721581 0
-5.9242029 -0.3842507 -0.93394911 0.13725491
-6.5386586 -0.10093684 -0.84126782 0.0078431377
-142.78041 -16.220325 0.81420213 0.10980392
-31.504494 -0.48389018 -0.18887129 0.0078431377
-6.9932437 -0.45298249 -0.76271659 0.047058824
-8.0369043 0.2716552 -0.7578764 0
-9.3581991 -0.60503733 -0.6618551 0
-8.2082043 -0.12654486 -0.67675078 0
-8.4167414 -0.96188164 -0.54855281 0
-7.6524229 -0.4953579 -0.36177212 0
-7.7770338 -0.11992819 -0.41253784 0
-7.7917314 -0.89089936 -0.32376057 0
-46.613827 1.5656613 -1.6382585 0.031372551
-8.939723 -0.57812321 -0.21191843 0
-4.7402864 -0.056623023 -2.2380743 0.043137256
-42.878979 -4.7237201 -0.76096815 0.047058824
-8.4565287 -0.10063396 -0.24984746 0.019607844
-5.6925383 -0.34922609 -1.6137737 0.23529412
-5.7962899 -0.069124058 -1.1721584 0
-5.9215641 -0.36313725 -0.93333405 0.10980392
-6.5469065 -0.078014225 -0.84227931 0.015686275
-142.82422 -15.720351 0.81412178 0.10980392
-40.593189 -0.48139793 -0.24299714 0.019607844
-6.9947829 -0.42837706 -0.76271701 0.031372551
-7.5662789 0.28250492 -0.71393925 0
-9.3761845 -0.57314479 -0.66297406 0
-8.0929899 -0.096330866 -0.66729623 0
-8.2272902 -0.91107678 0.24042603 0
-8.4200487 -0.9323045 -0.54855353 0
-7.6580944 -0.46869406 -0.36195931 0
-7.7454519 -0.092210561 -0.41085878 0
-7.7789035 -0.86175585 -0.32310766 0
-46.608078 1.7285483 -1.6382591 0.031372551
-8.917738 -0.54526728 -0.21135722 0.0039215689
-4.7477059 -0.039942544 -2.2414565 0.039215688
-72.515106 -7.7282157 -1.2851474 0.18039216
-8.47682 -0.071088441 -0.25043243 0.019607844
-5.6744952 -0.32805791 -1.6083798 0.40784314
-5.7964964 -0.048697241 -1.1721586 0
-30.127279 -1.7289019 -0.00521548 0.019607844
-5.9188499 -0.3420454 -0.93271887 0.098039217
-6.6026883 -0.055431668 -0.84935862 0.019607844
-110.31488 -11.753671 0.62843543 0.10980392
-40.586624 -0.3394374 -0.24295089 0.019607844
-7.0002055 -0.40399218 -0.76314628 0.050980393
-9.37813 -0.54021889 -0.6629746 0
-8.0374651 -0.067420632 -0.66273206 0
-8.2582502 -0.88512355 0.24123588 0
-8.3994341 -0.90017772 -0.54701585 0
-31.413296 1.2757704 -1.8395958 0.011764706
-7.655695 -0.44153771 -0.36177304 0
-7.7656989 -0.065147012 -0.41190863 0
-7.7818642 -0.83440405 -0.32310832 0
-46.685631 1.8948253 -1.6412032 0.031372551
-8.0943432 -0.067875341 1.483831 0
-8.9195871 -0.51394212 -0.21135774 0.0039215689
-4.7550664 -0.023210965 -2.2448385 0.035294119
-74.439308 -7.6702452 -1.3187238 0.18039216
-8.4930086 -0.041383065 -0.25090042 0.019607844
-5.6679139 -0.30764064 -1.6062223 0.43137255
-5.7927089 -0.02825075 -1.1713737 0
-14.481668 0.64029652 -0.1723863 0
-5.9200077 -0.32118922 -0.93271923 0.090196081
-6.6226811 -0.032286804 -0.85188699 0.019607844
-110.37116 -11.369972 0.62851709 0.10980392
-135.10878 -0.65754968 -0.80590785 0.39607844
-9.3799582 -0.50728637 -0.66297513 0
-8.0615711 -0.039287291 -0.66468847 0
-110.41813 -11.374748 3.2153931 0.24705882
-8.4104681 -0.87147713 -0.54752928 0
-31.420618 1.3861367 -1.8402954 0.011764706
-1.0318565 -0.0050715194 0.043244086 0.0078431377
-7.6651697 -0.41504768 -0.36214691 0
-7.7778625 -0.037904359 -0.41253865 0
-7.7767787 -0.80622327 -0.32278219 0
-46.511002 2.0505865 -1.6353163 0.031372551
-8.9372978 -0.48346964 -0.21173276 0.0078431377
-4.751492 -0.0080913482 -2.2431476 0.039215688
-76.421021 -7.6315646 -1.3533555 0.18431373
-8.5090914 -0.014554863 -0.25136846 0.023529412
-5.688087 -0.29063243 -1.6116168 0.70980394
-5.8123808 -0.0099118222 -1.175299 0
-12.916147 -0.65661544 -0.0027491725 0
-5.9091463 -0.30181551 -0.9308731 0.070588239
-6.658462 -0.011368305 -0.85643792 0.023529412
-6.9987597 -0.3569878 -0.7627182 0.078431375
-7.3601418 0.35007071 -0.69494957 0
-9.3695507 -0.47703627 -0.66213679 0
-8.0815897 -0.013821141 -0.66631889 0
-8.6220102 -0.86569953 0.25165603 0
-9.4101477 -0.94436938 -0.61188585 0
-31.424088 1.485393 -1.8407619 0.011764706
-7.650475 -0.38998246 -0.36140051 0
-7.7699556 -0.013281461 -0.41211906 0
-7.7593889 -0.77962953 -0.32196572 0
-46.304672 2.1874518 -1.6283078 0.031372551
-7.8555269 -0.40032679 2.1202929 0
-13.049065 -0.022362152 2.3864198 0
-8.9267921 -0.45460916 -0.21145234 0.0039215689
-4.7551146 0.0095333923 -2.2448387 0.031372551
-78.46685 -7.5451818 -1.389044 0.18431373
-8.5330763 0.016879855 -0.25207031 0.023529412
-5.6698771 -0.268677 -1.6062229 0.45882353
-5.8359122 0.01163909 -1.1800094 0
-5.9181089 -0.28032461 -0.93210447 0.086274512
-6.6822662 0.013283851 -0.85947204 0.027450981
-7.0079665 -0.33150551 -0.76357645 0.047058824
-7.3190351 0.37522316 -0.69122612 0
-9.3752241 -0.44267848 -0.66241699 0
-8.1134796 0.016062334 -0.66892737 0
-9.4095726 -0.90929055 -0.61163026 0
-31.418434 1.6007545 -1.840762 0.011764706
-7.6638265 -0.36230087 -0.36196104 0
-7.7939191 0.015444382 -0.4133788 0
-7.7621937 -0.75098377 -0.32196638 0
-46.527905 2.3691208 -1.636438 0.031372551
-8.8964434 -0.42018646 -0.21070385 0.0078431377
-4.7478032 0.0262865 -2.241457 0.035294119
-81.475494 -7.5471582 -1.4417641 0.24705882
-8.5489597 0.046945769 -0.25253832 0.023529412
-5.6630845 -0.24835548 -1.6040655 0.43137255
-5.8319144 0.032182418 -1.1792245 0
-5.9308972 -0.25998631 -0.93395114 0.10588235
-6.690115 0.03684574 -0.86048347 0.023529412
-6.9931884 -0.3061569 -0.76186097 0.027450981
-7.4489136 0.40809539 -0.70351374 0
-9.4285364 -0.4120093 -0.66605228 0
-8.209054 0.045096509 -0.67675239 0
-31.356833 1.7075759 -1.8374982 0.011764706
-8.54214 -0.37346449 0.49903595 0
-7.6690364 -0.33552721 -0.36214814 0
-7.7778401 0.042756602 -0.41253933 0
-7.7488508 -0.72221726 -0.32131341 0
-46.679012 2.5403919 -1.6420453 0.031372551
-8.9058466 -0.38928363 -0.21089156 0.0078431377
-4.7396059 0.042156812 -2.2380924 0.035294119
-82.49514 -7.3656135 -1.4597141 0.24705882
-8.6119013 0.076043211 -0.2544435 0.019607844
-5.6822886 -0.23015788 -1.6094812 0.29411766
-5.834868 0.051745102 -1.1800317 0
-4.4642992 -0.18123965 -0.001553784 0
-5.9308982 -0.24012813 -0.93397379 0.10588235
-6.7010317 0.059323959 -0.86202639 0.023529412
-146.91769 -13.113802 0.83506495 0.10980392
-6.9933372 -0.28277594 -0.76188827 0.031372551
-9.4529438 -0.38151252 -0.66776776 0
-8.2120171 0.07254222 -0.67711085 0
-31.338205 1.8110466 -1.8369309 0.011764706
-7.6732736 -0.31006533 -0.36236498 0
-7.8087845 0.069017 -0.41424936 0
-7.7543583 -0.69668353 -0.32150739 0
-47.052631 2.7174554 -1.6557018 0.031372551
-4.508637 0.040159147 0.83070922 0
-8.9781847 -0.36244723 -0.21261264 0.0078431377
-4.739419 0.059734821 -2.2380927 0.035294119
-87.697876 -7.5057483 -1.5511661 0.24705882
-8.6675367 0.1085074 -0.25608107 0.019607844
-5.679245 -0.20898286 -1.6084028 0.29019609
-5.8542485 0.073580198 -1.1839571 0
-5.9277897 -0.21803857 -0.93335861 0.074509807
-6.6928334 0.083991632 -0.8610152 0.023529412
-8.0111752 0.10036152 -0.048972107 0
-21.517099 1.3239164 -2.0217226 0.015686275
-9.4582663 -0.34680262 -0.6680479 0
-8.1917629 0.10259885 -0.67548078 0
-31.25164 1.9212106 -1.832268 0.011764706
-7.6783509 -0.2818791 -0.36255211 0
-7.7845135 0.097545519 -0.41298994 0
-7.768806 -0.66907376 -0.32199824 0
-46.926647 2.8830009 -1.6516361 0.031372551
-8.9195099 -0.32714599 -0.21120846 0.0078431377
-4.7283092 0.076302193 -2.2330196 0.035294119
-8.6990871 0.13946681 -0.25701687 0.015686275
-5.6876392 -0.18921456 -1.6105608 0.18431373
-5.8421917 0.094024263 -1.1816021 0
-8.3913469 -0.27835643 -0.0021346002 0.0039215689
-5.928515 -0.19714904 -0.93335891 0.05882353
-6.7123375 0.10786527 -0.86354369 0.023529412
-7.0190301 -0.23311009 -0.76446283 0.0078431377
-21.472607 1.3966366 -2.0179989 0.015686275
-9.3796587 -0.31095824 -0.66245598 0
-8.107646 0.13005781 -0.668634 0
-9.6234188 -0.79368705 -0.62474746 0
-31.228806 2.0294509 -1.8313352 0.011764706
-6.0862403 -0.20233306 0.35611001 0
-7.6872759 -0.25514224 -0.36292592 0
-7.7361989 0.12415183 -0.4104709 0
-7.7671118 -0.64142865 -0.32183543 0
-47.05991 3.0563006 -1.656683 0.031372551
-11.236632 0.17983912 2.0565946 0
-8.9485731 -0.29673567 -0.2118644 0.0078431377
-4.738903 0.092377558 -2.2380927 0.039215688
-8.7945175 0.17034373 -0.25982398 0.011764706
-5.6959362 -0.17039414 -1.6127188 0.16470589
-5.8300834 0.11335775 -1.179247 0
-8.1923132 -0.24441281 -0.0021054149 0.0039215689
-5.9291372 -0.1773017 -0.93335921 0.050980393
-6.7159104 0.13038644 -0.86404949 0.019607844
-7.01579 -0.2095284 -0.76403415 0.015686275
-21.444019 1.4663967 -2.0157645 0.023529412
-9.3846264 -0.27978414 -0.662736 0
-8.1191301 0.15735942 -0.66961229 0
-8.6972075 -0.68848747 0.25335491 0
-31.273697 2.136718 -1.8343661 0.011764706
-13.191772 -0.39268109 0.76900911 0
-7.6760993 -0.22910719 -0.36236611 0
-7.8036389 0.15129671 -0.41403997 0
-7.7731805 -0.61579561 -0.32199937 0
-47.141247 3.2187841 -1.6599071 0.031372551
-8.9495096 -0.26687318 -0.21186478 0.0039215689
-4.7349281 0.10903352 -2.2364018 0.039215688
-6.7397113 -0.51061457 -0.12084356 0
-5.7080483 -0.15061617 -1.6159557 0.090196081
-5.8649426 0.13470584 -1.1863127 0
-11.18809 -0.29398382 -0.0025487076 0.0039215689
-5.9376216 -0.15661451 -0.93459046 0.031372551
-6.7193813 0.15411496 -0.8645553 0.019607844
-100.9921 2.2953913 -0.60331768 0.16862746
-7.0204549 -0.18494521 -0.76446342 0.0078431377
-21.414932 1.5397298 -2.0135303 0.015686275
-9.3815584 -0.24672334 -0.66245687 0
-8.1424446 0.18643893 -0.67156875 0
-5.4620528 -0.41456771 0.15934566 0
-31.238167 2.2440691 -1.8327338 0.011764706
-8.2071781 -0.21598077 0.47928327 0
-7.6928296 -0.20253316 -0.36311331 0
-7.7152066 0.17673621 -0.40942153 0
-7.7593408 -0.587264 -0.32134625 0
-47.213459 3.3895202 -1.6628509 0.031372551
-8.9543848 -0.23554049 -0.21195886 0.0039215689
-4.7490153 0.12613653 -2.243166 0.035294119
-57.359669 1.5048628 -1.6809453 0.043137256
-5.7008381 -0.13032049 -1.6137983 0.082352944
-5.8683586 0.1554753 -1.1870978 0
-5.9420843 -0.13578209 -0.93520623 0.031372551
-6.7346697 0.17817955 -0.8665781 0.015686275
-7.0329857 -0.16051398 -0.76575071 0.0078431377
-9.3065681 -0.21206146 -0.65714455 0
-8.1497164 0.21526343 -0.67222095 0
-31.246073 2.3544853 -1.8336662 0.011764706
-7.7014794 -0.17566586 -0.36348709 0
-7.7784338 0.20553479 -0.41278064 0
-7.761344 -0.55998099 -0.32134679 0
-47.20134 3.554492 -1.6628505 0.031372551
-8.9591503 -0.20417914 -0.21205288 0.0039215689
-4.7340269 0.14331664 -2.2364018 0.043137256
-94.59082 -6.43364 -1.6707331 0.24705882
-57.681477 1.7250977 -1.6905365 0.043137256
-5.6935759 -0.10907077 -1.6116406 0.078431375
-5.9623008 -0.11417039 -0.93828392 0.0078431377
-6.7379375 0.20318832 -0.86708385 0.015686275
-7.0335274 -0.13452801 -0.765751 0.0078431377
-7.531168 0.59884351 -0.71247941 0
-9.1398211 -0.17454877 0.21177456 0
-9.2195139 -0.17607333 -0.65099335 0
-7.6826386 0.23141177 -0.63407338 0
-31.225288 2.4682641 -1.8329664 0.011764706
-6.1560502 0.18580948 0.25139177 0
-7.6940813 -0.1470778 -0.36311397 0
-7.7314458 -0.52915436 -0.32003999 0
-47.187992 3.7276878 -1.66285 0.031372551
-8.9878273 -0.17166488 -0.21270877 0.0078431377
-4.7226291 0.15967378 -2.231329 0.043137256
-57.567215 1.9230173 -1.6873796 0.043137256
-5.697773 -0.089060269 -1.6127198 0.094117649
-5.8710165 0.19799757 -1.187883 0.0039215689
-148.50595 12.243388 -1.7584028 0.082352944
-5.9547586 -0.093039848 -0.93705314 0.0078431377
-6.7371879 0.22690158 -0.86708391 0.019607844
-6.2108283 -0.40381017 0.034688279 0
-7.5052171 0.62336034 -0.71024507 0
-148.72173 12.261158 1.714892 0.062745102
-8.158803 -0.1272303 -0.57661575 0
-7.4068561 0.2492483 -0.61157614 0
-31.148829 2.5718601 -1.8290025 0.011764706
-5.9490929 -0.09293782 0.34798992 0
-7.7105293 -0.12027326 -0.36386117 0
-7.7647877 0.26119265 -0.4121511 0
-7.7531881 -0.50325477 -0.32085758 0
-47.222504 3.8965082 -1.6645317 0.031372551
-9.0083637 -0.14040673 -0.21317735 0
-4.722043 0.17635483 -2.231329 0.027450981
-30.757942 -1.8784239 -0.54429412 0.019607844
-57.428299 2.1192901 -1.6835207 0.043137256
-5.7019014 -0.069020435 -1.6137989 0.070588239
-5.9369216 0.22114271 -1.201229 0
-167.74382 -2.0172417 -0.025722181 0.24705882
-6.7442856 0.25090602 -0.86809534 0.015686275
-7.0382719 -0.085078813 -0.76618046 0.0039215689
-7.5109315 0.65043283 -0.71098971 0
-8.938199 0.77306974 0.10287098 0
-8.0514698 -0.097258501 -0.56906646 0
-3.3730969 0.1266354 0.058501828 0
-31.223211 2.6879508 -1.8338982 0.011764706
-6.7399912 -0.081480436 0.39391875 0
-7.6789398 -0.092777379 -0.36236772 0
-34.98774 1.2920536 -1.8439173 0.015686275
-7.762876 -0.47647846 -0.3211849 0
-47.200645 4.0608354 -1.6642507 0.031372551
-9.0287914 -0.10900516 -0.21364591 0
-4.7250891 0.19151212 -2.2330201 0.047058824
-57.585155 2.3064427 -1.6883165 0.043137256
-5.7059422 -0.050962761 -1.6148779 0.078431375
-167.77734 -1.490274 -0.025731722 0.24705882
-6.7474298 0.27242967 -0.86860102 0.015686275
-7.0265751 -0.062682576 -0.76489383 0
-7.5048842 0.67385107 -0.71061724 0
-8.0477476 -0.071749456 -0.56878716 0
-7.4608092 0.30097261 -0.6161409 0.0078431377
-11.093349 0.44631267 0.19222777 0
-31.206659 2.7855053 -1.8334316 0.011764706
-6.8646989 0.27712473 0.28026962 0
-7.7071629 -0.068722732 -0.36367497 0
-7.7683253 -0.4521406 -0.32134876 0
-47.227474 4.2128382 -1.665652 0.031372551
-9.0570822 -0.080709636 -0.21430171 0
-4.7243915 0.20820042 -2.2330203 0.039215688
-30.570049 -1.66317 -0.54077762 0.019607844
-57.69659 2.5128362 -1.6918256 0.043137256
-5.7060857 -0.030849682 -1.6148781 0.078431375
-135.146 -0.72854048 -0.020905105 0.24705882
-5.9909663 -0.032378875 -0.94259322 0.094117649
-6.7662582 0.29703793 -0.87112945 0.019607844
-7.0267515 -0.037960269 -0.76489407 0
-7.5262809 0.70244187 -0.71285129 0
-177.13792 16.410452 2.0444205 0.062745102
-8.0000677 -0.043204736 -0.56543201 0
-31.109268 2.8865087 -1.8283017 0.011764706
-6.880147 -0.037158981 0.40203711 0
-7.7393203 -0.041797362 -0.36516899 0
-34.922531 1.5220165 -1.8409789 0.015686275
-8.0294666 0.35199913 0.65859312 0
-7.7658653 -0.42461032 -0.3211858 0
-47.367718 4.3922305 -1.6711187 0.031372551
-9.1212902 -0.049245037 -0.21580034 0
-4.7307997 0.22689869 -2.236402 0.047058824
-57.86224 2.7428946 -1.6969721 0.043137256
-5.706162 -0.008723503 -1.6148783 0.070588239
-135.04778 -0.20924184 -0.020895066 0.05882353
-5.998951 -0.0091714663 -0.94382447 0.05882353
-6.7729955 0.32360739 -0.87214077 0.015686275
-7.0228677 -0.010757359 -0.76446533 0
-7.5314574 0.73231626 -0.71359587 0
-8.0480556 -0.012345077 -0.56878769 0
-7.3867226 0.3526704 -0.61027217 0
-7.5904307 -0.38564348 -0.49269736 0
-31.157578 3.0119069 -1.8317983 0.011764706
-7.7394242 -0.011864756 -0.36516926 0
-34.920422 1.6565036 -1.841189 0.015686275
-7.7634482 -0.3943716 -0.32102287 0
-47.270931 4.5666156 -1.668314 0.031372551
-9.157403 -0.014061882 -0.21664347 0
-4.7292285 0.24194118 -2.2364194 0.050980393
-31.530878 -1.4943091 -0.55766839 0.019607844
-58.199913 2.9423687 -1.7073956 0.043137256
-5.7245874 0.0094145043 -1.6202943 0.031372551
-6.2772422 0.32012165 -1.2703376 0
-181.41949 18.085682 -2.1518984 0.082352944
-6.0099778 0.0098743923 -0.94569385 0.023529412
-6.7869678 0.3458648 -0.87418967 0.015686275
-9.5282373 -0.45327488 0.053431757 0
-7.0140848 0.011473369 -0.76363462 0
-7.5679207 0.76010299 -0.71734911 0
-10.084393 0.016366474 0.23355295 0
-8.0951099 0.013194794 -0.57217503 0
-7.6067252 -0.36237004 -0.49375293 0
-31.119312 3.1071773 -1.8302974 0.011764706
-10.401473 0.016874151 0.60658777 0
-7.7306042 0.012616722 -0.3648262 0
-34.834423 1.7623427 -1.8371377 0.015686275
-7.7598286 -0.36961114 -0.32089007 0
-47.597607 4.7493587 -1.6805723 0.031372551
-9.1485777 0.014873807 -0.2164927 0
-4.7391238 0.26090944 -2.2414927 0.047058824
-31.552366 -1.3736968 -0.55795199 0.019607844
-58.136288 3.1632314 -1.7058752 0.043137256
-5.7206583 0.031595103 -1.6192157 0.031372551
-6.1780567 0.33912107 -1.2507108 0
-6.0217533 0.033235766 -0.94754058 0.015686275
-6.7895513 0.37235823 -0.87469536 0.011764706
-7.0259199 0.038690761 -0.7649219 0
-7.5768313 0.79060721 -0.71846598 0
-8.31845 0.045711771 -0.58783484 0
-24.17432 1.3172801 -1.9856501 0.031372551
-31.186594 3.2350957 -1.8349597 0.011764706
-7.7304997 0.042520497 -0.36482647 0
-34.84734 1.8973961 -1.8381875 0.015686275
-3.4741821 0.19215715 0.28725877 0
-7.7691774 -0.3399395 -0.32121742 0
-47.670475 4.9417849 -1.6837958 0.031372551
-65.868065 0.35824895 -1.5449984 0.050980393
-4.7310429 0.27556029 -2.2381105 0.054901961
-31.528557 -1.273257 -0.55746055 0.019607844
-57.810719 3.3279045 -1.6966343 0.043137256
-5.7166796 0.049713664 -1.6181369 0.027450981
-6.6628671 0.057837378 -0.0019072166 0
-6.0255718 0.052366819 -0.94815624 0.011764706
-6.8081555 0.39500481 -0.87722373 0.0078431377
-7.0098567 0.060806192 -0.76320601 0
-7.5663896 0.81374085 -0.7177211 0
-8.3302345 0.072126716 -0.58867389 0
-24.170063 1.3934001 -1.9856501 0.039215688
-31.18025 3.3336601 -1.8351923 0.011764706
-7.7303281 0.066985607 -0.36482665 0
-34.869122 2.0086491 -1.8396572 0.015686275
-7.7662144 -0.31519002 -0.32105434 0
-47.710361 5.097641 -1.6857578 0.031372551
-7.7671447 0.067320026 2.0943589 0
-65.526733 0.56244659 -1.5370388 0.050980393
-4.7372379 0.29355004 -2.2414927 0.047058824
-32.456238 -1.1913239 -0.57372874 0.023529412
-58.097443 3.5582781 -1.7054071 0.043137256
-5.7164588 0.070874155 -1.618137 0.027450981
-6.0213871 0.074610628 -0.94754094 0.0078431377
-6.8502278 0.42282826 -0.88278621 0
-181.40056 11.102312 -1.0852451 0.16862746
-7.0851426 0.087630183 -0.77135718 0
-7.5831499 0.84386027 -0.7195828 0
-8.5573397 0.10564818 -0.60461336 0
-24.085207 1.4773135 -1.9791287 0.031372551
-9.5887423 -0.35327256 -0.62094688 0
-31.263079 3.4586401 -1.8407874 0.011764706
-7.734026 0.095574118 -0.3650136 0
-34.861526 2.1366391 -1.8396572 0.015686275
-7.7673168 -0.28651634 -0.32105476 0
-47.472824 5.2485418 -1.678045 0.031372551
-65.824104 0.80647522 -1.5440651 0.050980393
-4.736239 0.30944762 -2.2414927 0.039215688
-32.460018 -1.0834987 -0.57373029 0.023529412
-58.360638 3.7688692 -1.7134782 0.043137256
-5.7238955 0.090139672 -1.6202949 0.023529412
-164.77608 18.754816 -1.9575227 0.082352944
-6.0408673 0.09507452 -0.95061857 0.011764706
-7.1022081 0.46208006 -0.91514963 0
-8.1344347 -0.27276817 0.045505896 0
-7.0649328 0.1110049 -0.76921231 0
-24.123938 1.5601885 -1.9827152 0.023529412
-7.1201205 -0.23896089 0.20701216 0
-31.366501 3.5755758 -1.8475484 0.011764706
-8.946847 0.1402863 0.52215791 0
