# .PCD v0.7 - Point Cloud Data file format
VERSION 0.7
FIELDS x y z intensity
SIZE 4 4 4 4
TYPE F F F F
COUNT 1 1 1 1
WIDTH 1096
HEIGHT 1
VIEWPOINT 0 0 0 1 0 0 0
POINTS 1096
DATA ascii
9.2916269 -15.659434 -0.73945361 0.047058824
7.4098663 -18.081976 -0.68084723 0.062745102
11.195439 -24.008076 4.8215852 0.054901961
9.2518396 -17.498278 -0.45927942 0.035294119
2.20316 -4.5755515 -2.3463328 0.035294119
10.017272 -17.032993 -0.34382766 0.047058824
8.3122826 -17.928205 -0.57366502 0.019607844
4.0465569 -7.5996952 -2.3959227 0.05882353
4.8339362 -10.325609 -2.2709632 0.019607844
12.18848 -23.317059 0.00015451667 0.10196079
10.001773 -24.750502 -0.31015933 0.054901961
6.650887 -12.627151 -2.2123532 0.035294119
6.9987326 -15.057178 -2.1075683 0.10980392
13.262595 -22.612352 0.15219866 0.11764706
9.0029078 -19.437702 -0.12411056 0.019607844
7.8915176 -15.022095 -1.8222573 0.047058824
6.8423543 -16.845425 -1.6933361 0.050980393
12.196243 -23.332052 0.61160296 0.14117648
10.003253 -24.754215 0.31049675 0.070588239
8.3983383 -16.000477 -1.259969 0.078431375
7.1026082 -15.284226 -1.3720284 0.047058824
13.267298 -22.620441 0.76174927 0.13333334
11.119878 -24.064741 0.46208048 0.035294119
9.0029955 -15.289244 -1.1334701 0.070588239
7.1995606 -17.739185 -1.1124389 0.086274512
12.191916 -23.323708 1.5299085 0.1254902
11.117412 -24.059361 1.078079 0.047058824
8.6099043 -16.408892 -0.86071146 0.047058824
7.8973455 -17.02128 -0.98087353 0.047058824
12.198866 -23.337137 3.2272553 0.10196079
9.252984 -15.719028 -0.74075627 0.054901961
7.3437366 -18.099928 -0.6805684 0.039215688
4.1883087 -7.8733768 2.3760235 0
9.1943817 -17.537186 -0.45946574 0.035294119
2.1901686 -4.5894356 -2.3497138 0.027450981
9.9637508 -17.077868 -0.34403726 0.043137256
7.0181727 -15.240077 -0.48687395 0.015686275
4.0235243 -7.6202431 -2.3980796 0.050980393
4.7962437 -10.338463 -2.2701788 0.019607844
10.10228 -19.455799 0.00013152169 0.054901961
9.9212008 -24.799755 -0.31034592 0.062745102
6.6067696 -12.649905 -2.2123532 0.035294119
6.9870863 -15.171484 -2.1201949 0.043137256
13.179583 -22.651196 0.15215176 0.12941177
7.0028124 -15.206196 -0.096934296 0.023529412
7.8572021 -15.084542 -1.8265414 0.047058824
6.7952323 -16.898451 -1.6963105 0.043137256
12.118379 -23.381214 0.61178881 0.14117648
9.92414 -24.807196 0.31072924 0.074509807
8.3697796 -16.082552 -1.2641543 0.074509807
7.0047712 -15.210505 -1.3632418 0.023529412
13.186257 -22.662767 0.7616325 0.15686275
6.9985747 -15.196853 0.29134718 0.031372551
8.955555 -15.330565 -1.1342376 0.06666667
7.1449404 -17.782391 -1.1136018 0.090196081
12.119549 -23.383499 1.5310711 0.14509805
7.0054617 -15.212049 0.68056452 0.019607844
8.5744801 -16.481115 -0.86294496 0.043137256
12.120956 -23.386253 3.22823 0.10196079
6.9915867 -15.181447 1.3608408 0.023529412
9.2220268 -15.792388 -0.74271023 0.050980393
7.3275714 -18.244019 -0.68503529 0.035294119
9.1312828 -17.565233 -0.459373 0.035294119
2.1696796 -4.5867486 -2.3446426 0.031372551
9.914011 -17.129519 -0.34438649 0.047058824
6.9354467 -15.198448 -0.48478004 0.027450981
3.9951518 -7.6304259 -2.3970013 0.050980393
4.761734 -10.358339 -2.2709637 0.019607844
10.028858 -19.47987 0.00013115042 0.054901961
9.8433228 -24.856197 -0.31062558 0.050980393
6.5679531 -12.683075 -2.2141981 0.035294119
6.9487162 -15.227976 -2.1247404 0.086274512
13.108383 -22.710569 0.15224449 0.12941177
7.8081079 -15.118583 -1.8273982 0.043137256
6.742013 -16.93652 -1.6977979 0.043137256
12.043946 -23.437244 0.61216068 0.12941177
9.8418617 -24.852474 0.31086856 0.074509807
8.3298845 -16.143291 -1.2666658 0.070588239
6.936934 -15.20175 -1.3603132 0.027450981
13.115014 -22.72216 0.76209772 0.14901961
6.930737 -15.18797 0.29071841 0.043137256
8.9138832 -15.382138 -1.1357727 0.06666667
7.0959291 -17.840305 -1.115695 0.086274512
12.03785 -23.425282 1.5310707 0.13725491
6.9293947 -15.184983 0.67828429 0.027450981
8.5277758 -16.531927 -0.86406189 0.047058824
6.9355259 -15.19862 -0.87307209 0.027450981
12.048257 -23.445732 3.2306669 0.10196079
9.2144928 -15.907351 -0.74661791 0.050980393
7.3206906 -18.414272 -0.6904791 0.035294119
6.9130125 -15.148533 3.0278473 0.031372551
8.6362362 -16.744932 -0.43713865 0.027450981
2.1521831 -4.5905991 -2.342952 0.035294119
9.8916759 -17.229719 -0.34571275 0.039215688
6.8677254 -15.189302 -0.48373315 0.027450981
3.9684935 -7.6439414 -2.3970015 0.047058824
4.7223597 -10.367346 -2.2693949 0.019607844
9.7282696 -19.05374 0.00012819376 0.039215688
9.7637291 -24.908672 -0.31085879 0.062745102
6.5289855 -12.716125 -2.216043 0.035294119
6.8906803 -15.240877 -2.1232257 0.043137256
13.031005 -22.759283 0.15226741 0.13333334
6.8688445 -15.191821 -0.096539915 0.043137256
7.7696266 -15.173764 -1.8308254 0.043137256
6.6814146 -16.955853 -1.6974262 0.043137256
11.963866 -23.482328 0.61225343 0.12156863
9.7651711 -24.912401 0.31119421 0.082352944
8.2770824 -16.17901 -1.267224 0.054901961
13.039569 -22.77437 0.76233011 0.14117648
8.868021 -15.426663 -1.1367962 0.062745102
7.0480442 -17.901815 -1.1180207 0.086274512
11.959609 -23.473906 1.5315355 0.1254902
8.4736204 -16.568346 -0.86443436 0.062745102
6.8694425 -15.193157 -0.87139779 0.035294119
11.968134 -23.490805 3.231154 0.10196079
6.8659868 -15.185412 1.3569345 0.054901961
9.1727238 -15.963365 -0.74775779 0.043137256
7.2549257 -18.435604 -0.6903398 0.023529412
6.8536954 -15.157804 3.024977 0.035294119
9.0030298 -17.617077 -0.45909446 0.039215688
2.1405323 -4.6076527 -2.3480237 0.023529412
9.8412848 -17.281179 -0.34606192 0.043137256
3.9366157 -7.6470313 -2.3937666 0.05882353
4.6829791 -10.376206 -2.2678261 0.019607844
9.6062078 -18.976309 0.00012725494 0.070588239
9.6838846 -24.96089 -0.31109193 0.06666667
6.4880967 -12.745524 -2.217273 0.031372551
6.8774471 -15.35523 -2.1358521 0.070588239
12.955406 -22.811214 0.1523136 0.14117648
7.7344112 -15.235976 -1.8351094 0.043137256
6.6250401 -16.986126 -1.6981701 0.050980393
11.888984 -23.537868 0.6126253 0.086274512
9.6838808 -24.96089 0.31138012 0.074509807
8.2509136 -16.268084 -1.2719673 0.070588239
6.819386 -15.223504 -1.3580356 0.062745102
12.961954 -22.822847 0.76244611 0.13333334
6.8164763 -15.216921 0.29036877 0.074509807
8.8258705 -15.478009 -1.1383313 0.050980393
7.0026741 -17.970667 -1.1208115 0.082352944
11.886533 -23.53298 1.5326979 0.10588235
6.8151603 -15.213939 0.67746961 0.043137256
8.4228868 -16.611732 -0.865179 0.094117649
11.886063 -23.532055 3.2311535 0.054901961
6.8177619 -15.21985 1.3579109 0.043137256
9.1444016 -16.043657 -0.75003731 0.035294119
7.2148676 -18.523886 -0.69271302 0.023529412
6.8039179 -15.188457 3.026412 0.031372551
8.9414806 -17.648014 -0.45909476 0.047058824
2.1333499 -4.6206412 -2.3514028 0.035294119
9.7952938 -17.318615 -0.3461968 0.043137256
6.7760782 -15.244752 -0.48407868 0.027450981
3.9186969 -7.6624475 -2.3948429 0.074509807
4.6547785 -10.390501 -2.2678232 0.019607844
9.4531565 -18.808964 0.00013091569 0.05882353
9.6141529 -25.002022 -0.31122616 0.035294119
6.4506946 -12.761933 -2.2166548 0.035294119
6.8510895 -15.416383 -2.1414042 0.06666667
12.892046 -22.858391 0.15236615 0.13333334
6.7835894 -15.261943 -0.096698962 0.027450981
7.708631 -15.295442 -1.8393888 0.043137256
6.5874047 -17.036268 -1.7011403 0.043137256
11.82478 -23.585459 0.61291033 0.090196081
9.6169891 -25.009499 0.31161842 0.074509807
8.1314497 -16.147015 -1.2605238 0.074509807
6.7823491 -15.259091 -1.3593334 0.027450981
12.898556 -22.870043 0.76268494 0.14901961
6.7842846 -15.263539 0.29086137 0.035294119
8.8030643 -15.543609 -1.1411408 0.05882353
6.9605584 -18.018333 -1.122435 0.086274512
11.822336 -23.580547 1.5334015 0.13725491
6.7813697 -15.256872 0.67845052 0.027450981
8.3751001 -16.637733 -0.86517471 0.090196081
6.7825632 -15.259588 -0.87265015 0.023529412
11.717666 -23.369755 3.2038598 0.074509807
6.7823319 -15.259084 1.359542 0.023529412
9.1061935 -16.085878 -0.75068408 0.050980393
7.209363 -18.67314 -0.69745451 0.035294119
6.7763619 -15.245441 3.0335903 0.023529412
8.8993292 -17.693544 -0.45955533 0.05882353
2.1120818 -4.6180291 -2.3463316 0.039215688
9.7356291 -17.360975 -0.34633663 0.043137256
6.7360334 -15.305761 -0.48524237 0.023529412
3.8854854 -7.6659718 -2.391608 0.05882353
4.6135497 -10.399874 -2.2662547 0.019607844
9.412406 -18.900492 0.00013092399 0.05882353
7.5766172 -19.858585 -0.24685496 0.047058824
6.4038763 -12.785072 -2.216655 0.035294119
6.7000041 -15.222464 -2.1111012 0.027450981
12.80818 -22.905073 0.15236576 0.12156863
6.7403116 -15.315654 -0.096885063 0.019607844
7.663053 -15.344586 -1.8419594 0.043137256
6.5277214 -17.067335 -1.7018839 0.043137256
11.747081 -23.64616 0.61337531 0.098039217
9.5337029 -25.066626 0.31189743 0.082352944
8.0739756 -16.179873 -1.2608031 0.098039217
6.7390413 -15.312702 -1.3619373 0.023529412
12.812709 -22.91325 0.76256818 0.15686275
6.7441764 -15.324592 0.2915594 0.019607844
8.7653856 -15.610266 -1.1436992 0.05882353
6.9029002 -18.065737 -1.1238306 0.094117649
11.739355 -23.630466 1.5338663 0.13725491
6.7444482 -15.325224 0.68040437 0.019607844
8.319356 -16.678656 -0.86573339 0.086274512
6.7408633 -15.31692 -0.87453437 0.019607844
11.633686 -23.415689 3.2043467 0.094117649
9.0801096 -16.178156 -0.75345212 0.027450981
7.1507182 -18.725214 -0.69843185 0.047058824
10.668949 -24.396288 4.8467011 0.039215688
8.8361864 -17.729212 -0.45964873 0.05882353
2.0959499 -4.6249752 -2.3463316 0.035294119
9.6865282 -17.415485 -0.34675565 0.031372551
7.9628825 -18.316654 -0.57982856 0.0078431377
3.8637683 -7.689476 -2.3948431 0.06666667
4.5787649 -10.419121 -2.2670393 0.019607844
9.3305969 -18.900476 0.00013041735 0.05882353
7.5058589 -19.880764 -0.24680877 0.047058824
6.3626752 -12.814054 -2.217885 0.031372551
6.6280746 -15.201594 -2.1050408 0.054901961
12.735856 -22.963263 0.15245846 0.12941177
8.3457508 -19.210159 -0.12134381 0.027450981
7.6251326 -15.403014 -1.8458149 0.047058824
6.4750471 -17.108286 -1.7037431 0.043137256
11.669729 -23.697405 0.61365414 0.10980392
9.455905 -25.125595 0.31222308 0.082352944
8.1153898 -16.408407 -1.2764276 0.098039217
7.3717484 -16.937113 -1.5041537 0.031372551
12.738427 -22.967947 0.76291692 0.14901961
8.7319946 -15.678849 -1.1465133 0.062745102
6.8509302 -18.119263 -1.1256912 0.098039217
11.662051 -23.681671 1.5345638 0.13725491
8.2628384 -16.710785 -0.86591971 0.090196081
7.5888662 -17.443804 -0.99447715 0.027450981
11.560582 -23.4736 3.206784 0.086274512
9.0582352 -16.2724 -0.75638288 0.027450981
7.0922785 -18.768398 -0.69913012 0.047058824
10.585279 -24.436602 4.8474183 0.054901961
8.7795048 -17.770332 -0.4599281 0.062745102
2.0806012 -4.6315222 -2.3463318 0.035294119
9.645956 -17.478733 -0.34738398 0.031372551
3.8315406 -7.6879959 -2.3905299 0.070588239
4.5426555 -10.43026 -2.2662549 0.019607844
9.1755819 -18.740078 0.00012900069 0.05882353
9.3794441 -25.175205 -0.31215841 0.035294119
6.3201475 -12.834705 -2.2178853 0.031372551
6.6861806 -15.478781 -2.1403947 0.035294119
12.665382 -23.01553 0.15252793 0.14509805
10.492424 -24.443434 -0.1541878 0.047058824
7.596519 -15.474384 -1.8513839 0.043137256
6.4224052 -17.140497 -1.7048588 0.043137256
11.592822 -23.739197 0.61374688 0.10980392
9.3794403 -25.175205 0.31245559 0.074509807
8.0817766 -16.477955 -1.279776 0.094117649
12.666021 -23.016706 0.76314938 0.14901961
10.498831 -24.458527 0.46396866 0.12941177
8.6971521 -15.73888 -1.1488158 0.06666667
6.8087363 -18.19022 -1.1287146 0.086274512
11.58867 -23.730618 1.535261 0.13725491
10.502732 -24.467726 1.0831301 0.086274512
8.2125959 -16.748508 -0.8664782 0.094117649
11.486134 -23.518576 3.2077584 0.094117649
10.41143 -24.252705 2.1511037 0.10980392
9.0310144 -16.351093 -0.75866246 0.027450981
7.0438075 -18.828947 -0.70052624 0.047058824
10.510336 -24.485678 4.8502874 0.054901961
8.737937 -17.834974 -0.4608587 0.050980393
2.0593989 -4.6286731 -2.3412607 0.039215688
9.6027498 -17.552254 -0.34815195 0.031372551
7.5497799 -17.692774 -0.55842227 0.0078431377
3.8000095 -7.6946235 -2.3883734 0.078431375
4.4967985 -10.428341 -2.2623329 0.019607844
9.1033792 -18.765947 0.00012862725 0.05882353
6.2764792 -12.864495 -2.219115 0.031372551
6.6709118 -15.601532 -2.1540313 0.090196081
12.582843 -23.064898 0.1525508 0.14901961
7.5552154 -15.533986 -1.8552395 0.043137256
6.3622627 -17.170988 -1.7056025 0.035294119
11.510919 -23.791927 0.61402565 0.1254902
9.2884731 -25.212753 0.31250167 0.074509807
8.0247765 -16.514246 -1.2803344 0.10196079
7.2672286 -17.020445 -1.5070833 0.06666667
12.58538 -23.069592 0.76338178 0.14117648
10.415314 -24.511173 0.46424749 0.14117648
8.6545954 -15.798327 -1.1508626 0.062745102
6.7556758 -18.252163 -1.1310402 0.082352944
11.505066 -23.779718 1.5357257 0.13725491
10.417629 -24.516693 1.0836183 0.086274512
8.1632376 -16.803303 -0.86778128 0.094117649
7.4839258 -17.53607 -0.99678028 0.05882353
11.403287 -23.567261 3.2087328 0.094117649
10.327106 -24.301311 2.1520798 0.13725491
9.0109377 -16.457499 -0.76208168 0.023529412
6.9761167 -18.857979 -0.70066619 0.047058824
10.42357 -24.530874 4.8517218 0.054901961
8.6966953 -17.916952 -0.46216148 0.047058824
2.0432293 -4.6354351 -2.3412609 0.05882353
9.5565395 -17.613464 -0.34871054 0.027450981
3.7747786 -7.7109213 -2.389452 0.074509807
4.4558482 -10.432712 -2.2599797 0.019607844
9.1064358 -18.94175 0.00012914679 0.05882353
9.2071848 -25.263443 -0.31243864 0.054901961
6.2281446 -12.878786 -2.2178855 0.027450981
6.5935426 -15.569373 -2.1464558 0.070588239
12.506034 -23.115328 0.15259697 0.14901961
10.335689 -24.56139 -0.15446742 0.10588235
7.5197058 -15.599383 -1.8599519 0.047058824
6.3063321 -17.203936 -1.706718 0.035294119
11.429515 -23.83518 0.61411828 0.12156863
9.2085352 -25.267206 0.31278074 0.070588239
7.9773493 -16.563385 -1.2820086 0.10196079
7.2093043 -17.048994 -1.5074091 0.078431375
12.508553 -23.120031 0.76361412 0.14117648
10.343519 -24.580217 0.46487555 0.15686275
8.6144857 -15.856189 -1.1529094 0.05882353
6.7054458 -18.312807 -1.1333659 0.074509807
11.428839 -23.833765 1.5366557 0.1254902
10.338129 -24.56727 1.0842693 0.098039217
8.113102 -16.849346 -0.86871207 0.094117649
7.4334111 -17.587505 -0.99824578 0.070588239
11.327763 -23.620871 3.2106824 0.086274512
10.24681 -24.347855 2.1530557 0.11372549
9.0006437 -16.576515 -0.76615214 0.023529412
6.9278474 -18.930716 -0.70248109 0.047058824
10.345437 -24.584879 4.8553095 0.054901961
8.6426754 -17.964865 -0.46262687 0.047058824
2.0311804 -4.6521959 -2.3463321 0.031372551
9.5043869 -17.663975 -0.34905979 0.062745102
3.7494805 -7.727138 -2.3905301 0.06666667
4.4194055 -10.447803 -2.2599797 0.019607844
8.9380941 -18.755857 0.00012757501 0.043137256
9.1256523 -25.313868 -0.31267181 0.06666667
6.1831532 -12.900051 -2.2178857 0.027450981
6.5089216 -15.518521 -2.1363552 0.062745102
12.427151 -23.161976 0.15261985 0.14509805
10.255987 -24.611712 -0.15456074 0.10588235
7.4872203 -15.671923 -1.8655208 0.050980393
6.2529216 -17.244205 -1.7085772 0.043137256
11.354758 -23.892626 0.61458325 0.1254902
9.1310139 -25.328941 0.31315294 0.062745102
7.9330754 -16.619619 -1.284241 0.10588235
7.1619015 -17.103144 -1.5100129 0.078431375
12.42965 -23.166685 0.76373011 0.14901961
10.25461 -24.608376 0.46473545 0.14901961
8.5796967 -15.924534 -1.1557235 0.054901961
6.6562152 -18.377085 -1.1359241 0.05882353
11.348976 -23.880342 1.5371203 0.1254902
10.26145 -24.624979 1.0852458 0.098039217
8.0678463 -16.906088 -0.87020117 0.098039217
7.3887172 -17.653572 -1.0005487 0.086274512
11.257074 -23.685019 3.2140946 0.094117649
10.166317 -24.394135 2.1540318 0.12156863
8.9896288 -16.69566 -0.7702226 0.035294119
6.875133 -18.992043 -0.70387715 0.062745102
10.267056 -24.638634 4.8588963 0.054901961
8.5850229 -18.005383 -0.4629063 0.062745102
2.0130019 -4.6518149 -2.3429511 0.039215688
9.4532204 -17.709166 -0.34933919 0.062745102
7.6286125 -18.40881 -0.5785504 0.027450981
3.7254639 -7.7426424 -2.391609 0.06666667
4.3832526 -10.458392 -2.2591956 0.019607844
8.899518 -18.835766 0.00012756368 0.050980393
9.0469723 -25.358704 -0.3128584 0.06666667
6.1403399 -12.920105 -2.217886 0.031372551
6.4439273 -15.506579 -2.1318097 0.086274512
12.352139 -23.206221 0.15264276 0.14117648
10.177339 -24.652617 -0.15460762 0.10588235
7.4486566 -15.72512 -1.8689481 0.050980393
6.2023191 -17.283251 -1.7104363 0.043137256
11.280535 -23.940639 0.61486214 0.12941177
9.0509558 -25.370022 0.31329226 0.070588239
7.8914108 -16.674387 -1.2864732 0.10980392
7.1096654 -17.137493 -1.5109894 0.06666667
12.358355 -23.21801 0.76407892 0.14901961
10.177483 -24.652979 0.46494454 0.12941177
8.5473251 -15.99136 -1.1585376 0.047058824
6.6045241 -18.425043 -1.1375523 0.05882353
11.274787 -23.928324 1.5378177 0.12941177
10.185773 -24.673296 1.085897 0.098039217
8.0218725 -16.954098 -0.87131804 0.094117649
7.3407021 -17.703487 -1.0020143 0.070588239
11.181825 -23.729034 3.2150693 0.094117649
10.091393 -24.442099 2.1553333 0.10980392
8.9547205 -16.763887 -0.77201372 0.035294119
6.830709 -19.067144 -0.70583159 0.039215688
10.189754 -24.683096 4.8610482 0.054901961
8.5337181 -18.051493 -0.46337178 0.06666667
1.9986545 -4.6654663 -2.3463321 0.031372551
9.4049234 -17.775181 -0.3499676 0.047058824
3.6954453 -7.7523293 -2.3905303 0.05882353
4.3434224 -10.470332 -2.2584114 0.019607844
8.969655 -19.169235 0.00012894758 0.050980393
8.964488 -25.421494 -0.31323126 0.074509807
6.0946026 -12.945694 -2.2185011 0.031372551
6.3944807 -15.548072 -2.1343355 0.074509807
12.272561 -23.261555 0.15271217 0.14117648
10.092905 -24.704168 -0.15470098 0.10588235
7.40765 -15.788001 -1.873232 0.05882353
6.1415501 -17.312973 -1.7111801 0.043137256
11.194389 -23.985037 0.61495477 0.12156863
8.9671144 -25.429049 0.31361786 0.070588239
7.8436317 -16.73176 -1.2887056 0.10588235
7.0572572 -17.188894 -1.5132678 0.070588239
12.276876 -23.269817 0.76431125 0.15686275
10.096045 -24.711946 0.46536306 0.14117648
8.5200911 -16.082306 -1.1628865 0.047058824
6.5513911 -18.490194 -1.1401105 0.050980393
11.190358 -23.976322 1.5382825 0.13725491
10.098268 -24.717459 1.0862222 0.098039217
7.9647069 -16.993851 -0.87187678 0.086274512
7.2877345 -17.759485 -1.0036892 0.078431375
11.099774 -23.780254 3.2165313 0.086274512
10.0107 -24.500683 2.1572857 0.12156863
8.9043274 -16.81743 -0.77299082 0.039215688
6.804153 -19.216223 -0.71043807 0.031372551
3.8829925 -8.1583567 2.4081187 0
10.105113 -24.734453 4.8639178 0.054901961
8.477561 -18.104013 -0.46393028 0.043137256
1.982357 -4.6720166 -2.3463323 0.035294119
9.3630619 -17.846563 -0.35073555 0.047058824
7.2576785 -17.864401 -0.55981994 0.011764706
3.669966 -7.7682872 -2.3916092 0.06666667
4.3039351 -10.477749 -2.2568426 0.019607844
9.0075731 -19.429169 0.00012992257 0.023529412
8.887413 -25.486271 -0.31365064 0.06666667
6.0543118 -12.977272 -2.220346 0.035294119
6.3431149 -15.577268 -2.1353457 0.070588239
12.196811 -23.314508 0.15278161 0.13725491
10.014036 -24.757421 -0.15481755 0.11764706
7.0893092 -15.238394 -1.8051219 0.043137256
6.0862641 -17.34897 -1.7126675 0.043137256
11.118921 -24.04175 0.61541975 0.062745102
8.8835049 -25.474926 0.31380373 0.070588239
7.7984653 -16.787664 -1.2909379 0.086274512
7.0060959 -17.235239 -1.5152206 0.06666667
12.197415 -23.315681 0.76442724 0.14901961
10.014177 -24.757782 0.46557212 0.14117648
8.4804335 -16.14345 -1.1651891 0.043137256
6.4972067 -18.542759 -1.1419711 0.050980393
11.113246 -24.029362 1.5392123 0.098039217
10.020828 -24.774424 1.0871987 0.098039217
7.9136539 -17.039316 -0.8728075 0.05882353
7.2345963 -17.806675 -1.0049455 0.074509807
11.021655 -23.829287 3.2179935 0.094117649
9.931036 -24.549889 2.1585872 0.12941177
8.8400526 -16.837366 -0.77250278 0.039215688
6.7903814 -19.39443 -0.71616113 0.039215688
2.7288256 -5.7122598 1.6834111 0
10.027478 -24.791103 4.8682227 0.054901961
8.4309587 -18.169456 -0.46486089 0.019607844
1.966853 -4.6781859 -2.3463323 0.031372551
8.6986132 -16.699781 -0.32763597 0.023529412
7.2499247 -18.018099 -0.56389225 0.019607844
3.6441848 -7.780036 -2.3916092 0.082352944
4.269165 -10.491585 -2.2568429 0.019607844
7.032506 -15.247728 0.00010578509 0.011764706
8.806715 -25.526583 -0.31379071 0.06666667
6.007977 -12.989701 -2.2191164 0.031372551
6.2885017 -15.59046 -2.134336 0.054901961
12.123084 -23.361563 0.15282777 0.12156863
9.9377728 -24.804991 -0.15491088 0.10980392
7.0190177 -15.21798 -1.7999817 0.0078431377
6.033834 -17.383759 -1.7141547 0.035294119
7.0174122 -15.214466 0.38887918 0.015686275
8.8105793 -25.537941 0.31422254 0.062745102
7.0239029 -15.228755 -1.1692917 0.019607844
6.9533062 -17.269117 -1.5161974 0.070588239
12.121856 -23.35918 0.76454329 0.14901961
9.940856 -24.812784 0.46599066 0.14901961
8.4432764 -16.203056 -1.1674917 0.047058824
6.4485517 -18.601622 -1.1442968 0.047058824
7.0141969 -15.207387 0.97265518 0.023529412
9.9489183 -24.833149 1.0883383 0.098039217
7.0167623 -15.21302 -0.77808094 0.019607844
7.1858025 -17.856184 -1.006411 0.05882353
9.8525047 -24.589718 2.1592379 0.12156863
8.7658949 -16.830664 -0.77087492 0.039215688
6.7453589 -19.473227 -0.71825522 0.039215688
9.9568033 -24.853109 4.8739619 0.054901961
7.0141125 -15.207186 -0.38848194 0.023529412
1.9505121 -4.6846251 -2.3463323 0.043137256
8.6366367 -16.722519 -0.32749665 0.011764706
7.5138569 -18.87674 -0.58995324 0.047058824
3.615427 -7.7887969 -2.3905308 0.074509807
4.2325187 -10.506023 -2.2568431 0.023529412
8.7277699 -25.587097 -0.31416354 0.062745102
5.9658408 -13.017405 -2.2203465 0.031372551
6.2325969 -15.608224 -2.1338313 0.050980393
12.046915 -23.414032 0.15289718 0.027450981
9.8569689 -24.854025 -0.15500423 0.10980392
6.9397674 -15.183953 -1.7931281 0.035294119
5.9820132 -17.430738 -1.7167574 0.035294119
6.9413099 -15.187408 0.38757592 0.035294119
8.72649 -25.583307 0.31440842 0.062745102
6.941257 -15.187273 -1.16427 0.031372551
6.9002604 -17.311441 -1.5178248 0.06666667
12.047509 -23.415203 0.76500845 0.14901961
9.8585653 -24.858103 0.4661997 0.14117648
8.4011679 -16.260485 -1.1695384 0.062745102
6.3975978 -18.665249 -1.1468551 0.047058824
6.9348774 -15.173105 0.96893376 0.035294119
9.8680124 -24.88221 1.0889893 0.10588235
6.9406838 -15.186002 -0.77547574 0.023529412
7.1350951 -17.910513 -1.008086 0.054901961
6.934567 -15.172426 2.0426352 0.027450981
9.7782555 -24.653254 2.1618409 0.10980392
8.6762438 -16.800228 -0.76810753 0.039215688
6.7041297 -19.575817 -0.7211867 0.047058824
9.8786087 -24.909296 4.8782668 0.054901961
6.9396744 -15.183762 -0.38727278 0.031372551
1.9351153 -4.6845522 -2.3429499 0.035294119
9.208972 -17.999517 -0.35184816 0.039215688
7.4736533 -18.967075 -0.59192681 0.043137256
3.5944076 -7.8085976 -2.3926852 0.05882353
4.1998305 -10.524685 -2.2576246 0.023529412
6.8821182 -15.194492 0.00010873125 0.031372551
8.6472483 -25.645027 -0.31448424 0.062745102
5.9273496 -13.049571 -2.2221875 0.031372551
6.1769242 -15.623116 -2.1328175 0.039215688
9.9891825 -19.544376 0.12739925 0.031372551
9.7760735 -24.904446 -0.15509179 0.10588235
6.8755755 -15.179772 -1.7896973 0.047058824
5.927567 -17.467218 -1.7182407 0.035294119
8.6485062 -25.648821 0.31483278 0.05882353
6.8835001 -15.197582 -1.1631502 0.047058824
6.848424 -17.354753 -1.519448 0.06666667
11.971489 -23.46944 0.76536334 0.14117648
9.781991 -24.919712 0.46669385 0.14901961
8.3675575 -16.333469 -1.172604 0.070588239
6.3462029 -18.726019 -1.1491766 0.047058824
6.8852868 -15.20162 0.96917009 0.062745102
9.7898979 -24.940113 1.0899715 0.098039217
6.8861709 -15.203588 -0.77509969 0.047058824
7.0969639 -17.995684 -1.0114311 0.054901961
6.8768969 -15.182787 2.0406892 0.039215688
9.7009573 -24.710772 2.1637993 0.12941177
8.5938349 -16.781515 -0.76582378 0.039215688
6.6695967 -19.698437 -0.72481167 0.039215688
6.8684535 -15.163845 4.4476552 0.027450981
9.793148 -24.948545 4.8789892 0.054901961
6.8770375 -15.183074 -0.38661778 0.050980393
1.9161538 -4.6840963 -2.3395691 0.039215688
9.160409 -18.05975 -0.35240677 0.047058824
7.4188604 -19.022499 -0.59285796 0.043137256
3.5624657 -7.8101101 -2.3894506 0.086274512
4.1672826 -10.549853 -2.2599783 0.023529412
6.8241959 -15.20703 0.00010839584 0.090196081
8.563921 -25.693638 -0.31471744 0.062745102
5.880167 -13.066152 -2.2215734 0.035294119
6.1180873 -15.633059 -2.1313026 0.035294119
9.6666155 -19.070822 0.12409461 0.027450981
9.6991119 -24.964148 -0.15525484 0.11764706
6.8193369 -15.195991 -1.788841 0.078431375
5.8740206 -17.510092 -1.7204716 0.035294119
6.8256059 -15.210232 0.3869279 0.05882353
8.5676641 -25.705038 0.31515837 0.05882353
6.8255792 -15.210153 -1.1623136 0.082352944
6.7935166 -17.39303 -1.5207502 0.062745102
11.891283 -23.514248 0.76547933 0.10588235
9.7035427 -24.975697 0.46711239 0.15686275
8.3230019 -16.387152 -1.1743948 0.070588239
6.2209444 -18.565554 -1.138015 0.074509807
6.8176804 -15.192265 0.9670766 0.082352944
9.7085085 -24.988647 1.0906225 0.10588235
6.8314462 -15.223464 -0.77491385 0.090196081
7.0512781 -18.064688 -1.0139433 0.054901961
6.8238573 -15.206285 2.0406888 0.054901961
9.6246386 -24.770126 2.1660771 0.14117648
8.5191011 -16.778833 -0.76435882 0.043137256
6.8108039 -15.176712 4.4445491 0.027450981
9.7172794 -25.011557 4.8847289 0.054901961
1.9027171 -4.6931095 -2.34126 0.047058824
9.1071844 -18.095232 -0.3525466 0.047058824
7.3704286 -19.075241 -0.59378892 0.047058824
3.5425415 -7.83148 -2.3926857 0.082352944
4.1285434 -10.547857 -2.2568407 0.023529412
6.7763872 -15.228023 0.00010815048 0.035294119
8.4905796 -25.742867 -0.31499714 0.054901961
5.8390889 -13.084188 -2.2215734 0.031372551
6.064713 -15.640702 -2.1297877 0.031372551
11.813213 -23.542784 0.15294874 0.070588239
9.6291637 -25.016556 -0.15539463 0.11764706
6.7779355 -15.231543 -1.7905548 0.078431375
5.8226752 -17.539448 -1.7215872 0.035294119
6.7857971 -15.249548 0.38739303 0.031372551
8.4905758 -25.742867 0.31529766 0.050980393
6.7777605 -15.231149 -1.1623138 0.031372551
6.7473416 -17.436275 -1.5227032 0.05882353
11.824466 -23.565441 0.76594454 0.11372549
9.6307144 -25.020641 0.46739128 0.14117648
8.115202 -16.098246 -1.151884 0.06666667
6.2280426 -18.785898 -1.1503398 0.047058824
6.7811155 -15.238848 0.96870434 0.035294119
9.6356363 -25.033596 1.0912735 0.098039217
6.7787848 -15.233496 -0.77435589 0.027450981
7.0015888 -18.105047 -1.0149903 0.039215688
6.7760506 -15.227277 2.0406885 0.035294119
9.5524406 -24.814777 2.1673787 0.10196079
8.455677 -16.783667 -0.76338226 0.054901961
6.6302938 -20.022768 -0.73514116 0.070588239
6.7661862 -15.204741 4.4466195 0.027450981
9.6428509 -25.052626 4.8868814 0.054901961
6.7874031 -15.253213 -0.3872695 0.035294119
1.8859584 -4.7033191 -2.3429501 0.031372551
9.0411692 -18.136789 -0.35268655 0.047058824
7.3111968 -19.140371 -0.59495276 0.050980393
3.512445 -7.8445697 -2.3926857 0.05882353
4.0935311 -10.577862 -2.2599788 0.023529412
6.7289848 -15.279172 0.0001079969 0.027450981
8.3977852 -25.793867 -0.31523043 0.062745102
5.7872372 -13.102431 -2.2209589 0.027450981
6.0004258 -15.652274 -2.1282728 0.031372551
9.4626141 -18.99345 0.12316316 0.086274512
9.5400724 -25.071608 -0.15551126 0.11764706
6.7272973 -15.275251 -1.792697 0.043137256
5.761373 -17.580183 -1.7234462 0.035294119
6.7462478 -15.319077 0.38850963 0.019607844
8.4026709 -25.809099 0.31571642 0.05882353
6.7334871 -15.289566 -1.1648251 0.027450981
6.6803422 -17.461599 -1.5227035 0.05882353
11.737424 -23.61739 0.76617682 0.14117648
9.5444202 -25.083185 0.46787959 0.15686275
8.0656643 -16.153902 -1.1536751 0.06666667
6.1839352 -18.896671 -1.1556886 0.047058824
6.7384095 -15.300969 0.97102982 0.023529412
9.5464735 -25.088657 1.0920873 0.086274512
6.7392821 -15.302964 -0.77658939 0.019607844
6.9502864 -18.179953 -1.0177118 0.062745102
6.730144 -15.281878 2.0445883 0.023529412
9.462698 -24.865744 2.1686797 0.10196079
8.3858795 -16.804796 -0.76289415 0.062745102
6.5704694 -20.100914 -0.73709571 0.070588239
6.7292323 -15.279798 4.4611135 0.019607844
9.5535059 -25.107428 4.8904681 0.054901961
6.7414889 -15.308069 -0.38801408 0.023529412
1.8682668 -4.7060623 -2.34126 0.035294119
8.9795599 -18.171419 -0.35275665 0.047058824
7.2568817 -19.199089 -0.59600019 0.050980393
3.48049 -7.845746 -2.389451 0.054901961
4.0565839 -10.591673 -2.2599788 0.023529412
6.7071204 -15.375686 0.00010814171 0.011764706
8.3161621 -25.849295 -0.31555673 0.062745102
5.7430239 -13.125771 -2.2215738 0.027450981
5.9402237 -15.657835 -2.1262529 0.027450981
9.3050947 -18.838997 0.12195281 0.070588239
9.4608641 -25.126839 -0.15565111 0.10980392
6.6974335 -15.353058 -1.7991226 0.015686275
5.7096047 -17.630142 -1.7264208 0.035294119
10.586269 -24.428373 0.6185872 0.098039217
8.3209953 -25.864546 0.31604198 0.062745102
7.4706154 -17.157419 -1.3051649 0.023529412
6.6304655 -17.514292 -1.5253073 0.05882353
11.661925 -23.672178 0.76664197 0.13333334
9.4623842 -25.130934 0.46815845 0.14901961
8.1719437 -16.515223 -1.1774654 0.062745102
6.1288018 -18.951982 -1.1577818 0.039215688
9.465806 -25.140148 1.0929011 0.086274512
7.6001892 -17.459808 -0.8847158 0.027450981
6.9007063 -18.241129 -1.0198054 0.062745102
10.484455 -24.190804 3.2316463 0.082352944
9.3827925 -24.916895 2.1703069 0.10196079
8.3306732 -16.840734 -0.76322001 0.078431375
6.5401444 -20.249058 -0.7417022 0.054901961
9.469924 -25.151274 4.8926201 0.054901961
7.5763464 -17.404173 -0.44048417 0.011764706
1.8497149 -4.7013297 -2.3361886 0.047058824
8.9293928 -18.213568 -0.35303608 0.047058824
7.2186365 -19.281454 -0.59786201 0.047058824
3.4558246 -7.8562698 -2.3894513 0.082352944
4.0246449 -10.607675 -2.2607636 0.023529412
8.2420959 -25.897821 -0.31583646 0.06666667
5.7017598 -13.143376 -2.2215741 0.031372551
5.8882608 -15.668599 -2.1252432 0.023529412
9.2354116 -18.846163 0.12181289 0.039215688
9.3860254 -25.167326 -0.1557212 0.10980392
6.9554882 -16.094757 -1.8835113 0.043137256
5.6553826 -17.651423 -1.7267929 0.043137256
10.509473 -24.46114 0.61858684 0.10588235
8.2480774 -25.916903 0.31636763 0.05882353
6.5836759 -17.557108 -1.5272603 0.05882353
11.596205 -23.726326 0.76722348 0.14117648
9.3916769 -25.18268 0.46857703 0.12941177
8.1252356 -16.551226 -1.1782331 0.078431375
6.0775986 -18.997444 -1.1594099 0.047058824
10.504066 -24.448425 1.5471226 0.12941177
9.3950663 -25.191891 1.0938777 0.10588235
7.5609226 -17.520006 -0.88657713 0.06666667
6.85993 -18.307327 -1.0223175 0.054901961
10.41151 -24.23056 3.232621 0.10196079
9.3072233 -24.953358 2.1709573 0.10196079
8.2812061 -16.873648 -0.76354593 0.086274512
6.5351253 -20.456036 -0.74854195 0.062745102
9.3990202 -25.202686 4.8969245 0.054901961
1.8357753 -4.7141571 -2.3395696 0.035294119
8.8761387 -18.265846 -0.35345513 0.047058824
7.1649747 -19.343689 -0.59902579 0.039215688
3.4253938 -7.8607702 -2.3872945 0.062745102
3.9889362 -10.624929 -2.2615483 0.023529412
10.417514 -24.481771 0.00015893047 0.10588235
8.1634865 -25.964224 -0.31630242 0.06666667
5.6543155 -13.159142 -2.2209594 0.035294119
5.8253837 -15.666275 -2.1222131 0.027450981
9.0761909 -18.683104 0.12055602 0.06666667
9.3063354 -25.222071 -0.15586103 0.098039217
6.9100623 -16.144184 -1.8865101 0.043137256
5.5960927 -17.678249 -1.7275367 0.043137256
10.425578 -24.500948 0.61867946 0.12156863
8.1670341 -25.975685 0.31673977 0.062745102
7.3721352 -17.242582 -1.3079555 0.082352944
6.5278096 -17.594553 -1.5285623 0.05882353
11.518501 -23.777058 0.76757228 0.16470589
9.3091936 -25.229927 0.46885586 0.12941177
8.0794926 -16.604269 -1.1800241 0.074509807
6.0230684 -19.056273 -1.1617358 0.047058824
10.424859 -24.49925 1.5480524 0.12941177
9.3084421 -25.227873 1.0940402 0.098039217
7.5121169 -17.575338 -0.88806623 0.074509807
6.8110251 -18.372034 -1.0246205 0.050980393
10.334567 -24.284639 3.2350578 0.11372549
9.2309809 -25.015247 2.1735609 0.11372549
8.2084341 -16.873207 -0.76224375 0.082352944
8.163867 -25.965441 -0.94911748 0.043137256
9.3177252 -25.253414 4.9005117 0.054901961
7.4452486 -17.416395 -0.43955445 0.039215688
1.8205377 -4.7235336 -2.3412604 0.039215688
8.8346376 -18.343267 -0.35436267 0.047058824
7.1177387 -19.424589 -0.60077125 0.043137256
3.3994155 -7.8758216 -2.3883731 0.05882353
3.9518237 -10.638375 -2.2615485 0.023529412
10.336607 -24.528648 0.00015854881 0.11764706
8.0809965 -26.018921 -0.31662872 0.06666667
5.6098661 -13.182033 -2.2215745 0.031372551
5.7639365 -15.667434 -2.119688 0.027450981
8.9834509 -18.656452 0.12018337 0.050980393
9.2236595 -25.269039 -0.15595442 0.10588235
6.8490777 -16.156778 -1.8852252 0.043137256
5.5413423 -17.720114 -1.7297677 0.043137256
10.343064 -24.544159 0.61886513 0.12156863
8.0821629 -26.022745 0.31697223 0.062745102
7.3195744 -17.286217 -1.3093508 0.082352944
6.4731097 -17.635572 -1.5301899 0.062745102
11.442298 -23.831152 0.76803738 0.15686275
9.2264891 -25.276903 0.46913469 0.12941177
8.0317631 -16.653589 -1.1815592 0.074509807
5.9717035 -19.126406 -1.164759 0.070588239
10.343882 -24.546135 1.5487498 0.12941177
9.2311621 -25.289879 1.0953424 0.10588235
7.4660864 -17.637926 -0.88992757 0.082352944
6.7576852 -18.425348 -1.0262954 0.047058824
10.25584 -24.33481 3.2370074 0.10196079
9.1503601 -25.065655 2.1751878 0.10196079
8.1752148 -16.95549 -0.76468617 0.098039217
6.375783 -20.446817 -0.74658859 0.039215688
9.2415228 -25.318689 4.9069686 0.054901961
7.4228511 -17.534145 -0.44188052 0.035294119
1.8019967 -4.726325 -2.3395698 0.039215688
8.78438 -18.411278 -0.35506091 0.047058824
7.0666218 -19.506613 -0.60251689 0.050980393
3.3705266 -7.887795 -2.3883731 0.062745102
3.9154382 -10.659743 -2.2631176 0.023529412
10.252734 -24.580729 0.00015816346 0.11764706
7.9902043 -26.063248 -0.31681544 0.06666667
5.560008 -13.19842 -2.2209601 0.035294119
5.7038116 -15.680544 -2.1186783 0.027450981
9.0325499 -18.938536 0.12178862 0.06666667
9.1376934 -25.321083 -0.15607107 0.10588235
6.7913308 -16.185019 -1.8856541 0.043137256
5.4832664 -17.762747 -1.7319986 0.043137256
10.262181 -24.603653 0.61942309 0.12941177
7.9936695 -26.074734 0.31725118 0.070588239
7.2668147 -17.338318 -1.3113042 0.074509807
6.4164557 -17.681278 -1.5321429 0.062745102
11.358281 -23.879732 0.76826966 0.15686275
9.1404943 -25.328957 0.46948335 0.12941177
7.9876704 -16.718597 -1.1841177 0.074509807
5.9154167 -19.193605 -1.1675498 0.062745102
10.258412 -24.594522 1.5494469 0.13725491
9.1491365 -25.353228 1.0966448 0.10588235
7.4090052 -17.683208 -0.89085847 0.082352944
6.7061925 -18.494713 -1.0288078 0.054901961
10.174147 -24.390158 3.2394445 0.086274512
9.0664568 -25.121126 2.17714 0.10196079
8.1198235 -16.999372 -0.76533771 0.086274512
9.1579065 -25.377907 4.9119902 0.054901961
7.3722548 -17.594074 -0.44271818 0.035294119
1.7887245 -4.7387199 -2.3429506 0.039215688
8.7351179 -18.465282 -0.35554972 0.054901961
7.0138597 -19.563486 -0.6035642 0.047058824
3.3472645 -7.9056664 -2.3905299 0.050980393
3.8813727 -10.675977 -2.2639022 0.023529412
10.175704 -24.625309 0.00015779994 0.11764706
7.9105954 -26.112202 -0.31709519 0.062745102
5.5162115 -13.216391 -2.2209601 0.035294119
5.6438689 -15.676527 -2.1156483 0.027450981
9.0221338 -19.08036 0.12250965 0.06666667
9.0629845 -25.377262 -0.15623412 0.10588235
6.7361193 -16.203373 -1.8852258 0.043137256
5.4300284 -17.799519 -1.7338575 0.043137256
10.185076 -24.648262 0.61970192 0.14117648
7.9163103 -26.131367 0.31762338 0.05882353
7.219841 -17.387785 -1.3132576 0.074509807
6.3657403 -17.724627 -1.5340958 0.050980393
11.284104 -23.927742 0.7686184 0.14117648
9.0630989 -25.377596 0.469832 0.14117648
7.9423146 -16.766306 -1.1856527 0.062745102
5.8631554 -19.250986 -1.1698756 0.062745102
10.182839 -24.642801 1.5503768 0.13725491
9.0716572 -25.401884 1.0974585 0.098039217
7.3593917 -17.729483 -0.8919754 0.082352944
6.6673994 -18.580502 -1.0323665 0.062745102
10.100718 -24.441744 3.2418814 0.086274512
8.9910555 -25.173222 2.1790926 0.12156863
8.0718594 -17.043921 -0.76615202 0.086274512
6.2031655 -20.390406 -0.74296039 0.13333334
9.0828581 -25.433725 4.9170127 0.054901961
7.3486462 -17.70318 -0.44485819 0.027450981
1.7677664 -4.734539 -2.3378794 0.047058824
8.6791248 -18.522156 -0.3560386 0.054901961
6.9565754 -19.630161 -0.60484439 0.039215688
3.3168223 -7.9138761 -2.389452 0.050980393
3.8447971 -10.697104 -2.2654715 0.023529412
10.089872 -24.673134 0.0001573894 0.13725491
7.8250003 -26.175119 -0.31751466 0.062745102
5.4706941 -13.243415 -2.2221899 0.031372551
5.5824561 -15.685431 -2.1141336 0.031372551
8.9638853 -19.138283 0.12267219 0.054901961
8.975172 -25.424984 -0.15632753 0.098039217
6.6751933 -16.223833 -1.8847978 0.035294119
5.3703752 -17.837971 -1.7357167 0.043137256
10.100656 -24.699821 0.62007368 0.1254902
7.8272552 -26.182791 0.3179023 0.05882353
7.1620421 -17.428495 -1.314374 0.074509807
6.3099122 -17.773758 -1.5363742 0.050980393
11.203035 -23.983025 0.76908356 0.14117648
8.9792318 -25.436644 0.47032031 0.12941177
7.8925314 -16.820234 -1.1874436 0.082352944
5.8060899 -19.317881 -1.1726664 0.062745102
10.099929 -24.698034 1.5515393 0.13725491
8.9903231 -25.468494 1.0989236 0.098039217
7.3078318 -17.789244 -0.89365065 0.078431375
6.616334 -18.653418 -1.0350881 0.054901961
10.017014 -24.492891 3.2438312 0.094117649
8.9092197 -25.235691 2.1816959 0.11372549
8.022748 -17.10198 -0.76745486 0.086274512
6.1238704 -20.39723 -0.74240243 0.10980392
8.9934597 -25.477558 4.9191647 0.054901961
7.6478152 -18.630503 -0.46746531 0.06666667
1.7547716 -4.7505503 -2.3429508 0.047058824
8.6277399 -18.581013 -0.35659721 0.054901961
6.9062414 -19.706833 -0.60647357 0.035294119
3.2863169 -7.9178395 -2.3872952 0.050980393
3.807435 -10.710046 -2.2654717 0.023529412
10.014089 -24.733786 0.00015708141 0.1254902
7.7414012 -26.228746 -0.31784099 0.06666667
5.4244342 -13.262016 -2.2221901 0.031372551
5.5263796 -15.700658 -2.1136286 0.031372551
9.0552425 -19.514528 0.12488241 0.054901961
8.8954887 -25.482218 -0.15649059 0.098039217
6.6185231 -16.24662 -1.884798 0.035294119
5.3125248 -17.871492 -1.7372041 0.035294119
10.020321 -24.749367 0.62044555 0.12941177
7.7425132 -26.232588 0.31818131 0.05882353
7.1145029 -17.486319 -1.3168854 0.070588239
6.2543254 -17.81411 -1.5380018 0.047058824
11.13257 -24.050652 0.77001417 0.047058824
8.9008083 -25.497671 0.47087848 0.12941177
7.8470674 -16.876301 -1.1894904 0.043137256
5.7519979 -19.383633 -1.1754572 0.062745102
10.022557 -24.754971 1.5529343 0.13725491
8.9065752 -25.514425 1.0995746 0.086274512
7.2531142 -17.832779 -0.8945815 0.06666667
6.5654931 -18.717531 -1.0373911 0.054901961
9.9403086 -24.549412 3.2467556 0.094117649
8.8301678 -25.29261 2.1839738 0.10196079
7.9846358 -17.176704 -0.7695716 0.027450981
6.0381322 -20.368166 -0.74058831 0.094117649
8.9134436 -25.534424 4.9241867 0.054901961
7.6822619 -18.90543 -0.47369879 0.047058824
1.7422471 -4.7525048 -2.3412616 0.047058824
7.0281272 -15.211357 -0.2914803 0.023529412
6.8569217 -19.763262 -0.6075182 0.047058824
3.2673006 -7.9354429 -2.3894513 0.043137256
3.7775941 -10.725911 -2.2662554 0.023529412
9.9423904 -24.781294 0.00016327482 0.13725491
7.6699047 -26.29229 -0.31830508 0.074509807
5.3863225 -13.283186 -2.2228029 0.027450981
5.4761744 -15.710963 -2.112617 0.031372551
7.0207925 -15.195207 0.097103655 0.023529412
8.8283224 -25.549002 -0.15671912 0.098039217
6.5719938 -16.27545 -1.8856516 0.035294119
5.2631845 -17.907732 -1.7390627 0.035294119
9.9500399 -24.80061 0.62091702 0.13725491
7.6676917 -26.284599 0.31850871 0.062745102
7.0682826 -17.527935 -1.3182766 0.070588239
6.2073889 -17.85697 -1.5399524 0.047058824
7.0146809 -15.181748 0.48534441 0.031372551
8.8271389 -25.54554 0.47123137 0.12156863
7.0282464 -15.211608 -1.0705349 0.035294119
5.7064734 -19.452076 -1.1784798 0.062745102
9.9522467 -24.806194 1.5541033 0.14901961
8.8341341 -25.566088 1.1005555 0.086274512
7.2131147 -17.893452 -0.89643878 0.062745102
6.5207291 -18.776583 -1.0394821 0.050980393
9.8647823 -24.585495 3.2472491 0.10196079
8.755868 -25.336412 2.1852794 0.094117649
7.0251102 -15.204704 -0.68018562 0.027450981
5.9717135 -20.376127 -0.74016899 0.070588239
8.8395405 -25.582033 4.9277773 0.054901961
7.6460843 -18.986139 -0.47509012 0.050980393
1.7248169 -4.7584085 -2.3412616 0.050980393
6.7831645 -19.784021 -0.60740238 0.047058824
3.2353821 -7.9397421 -2.3872948 0.035294119
3.7395077 -10.742951 -2.2670403 0.023529412
9.8617144 -24.843185 0.00016276872 0.1254902
7.5789332 -26.339014 -0.31853852 0.074509807
5.33183 -13.287668 -2.2203436 0.023529412
5.4185538 -15.730479 -2.1126173 0.031372551
6.9453721 -15.176609 0.096824013 0.039215688
8.7384501 -25.592112 -0.1567895 0.098039217
6.5122967 -16.298977 -1.8856521 0.035294119
5.2018518 -17.941776 -1.7405502 0.035294119
9.8692904 -24.862522 0.6215679 0.12941177
7.5832853 -26.35441 0.31902042 0.070588239
7.0170975 -17.586706 -1.320788 0.070588239
6.1469855 -17.894262 -1.5412545 0.047058824
6.9393182 -15.163146 0.4839474 0.047058824
8.741106 -25.600016 0.47164965 0.11372549
6.9478951 -15.182202 -1.0666981 0.062745102
5.6492786 -19.522358 -1.1815034 0.054901961
9.8685455 -24.860643 1.5552654 0.14901961
8.744195 -25.609205 1.1010432 0.086274512
7.1693573 -17.975119 -0.89923072 0.054901961
6.4671602 -18.845335 -1.0419945 0.050980393
9.7818499 -24.639519 3.249686 0.10196079
8.6693068 -25.386774 2.1869063 0.094117649
6.946393 -15.178866 -0.67790669 0.035294119
5.8980789 -20.401274 -0.74030912 0.047058824
8.7545071 -25.639917 4.9327993 0.054901961
7.5954175 -19.061985 -0.4763 0.086274512
1.7093418 -4.7674103 -2.3429518 0.047058824
6.8833065 -15.180004 -0.28994575 0.050980393
6.7670894 -19.96649 -0.61228931 0.027450981
3.2090423 -7.9541497 -2.3883734 0.050980393
3.7057021 -10.766675 -2.2693937 0.027450981
9.7807245 -24.891945 0.00016222615 0.13725491
7.4955583 -26.395699 -0.31891161 0.074509807
5.2868466 -13.309454 -2.2209589 0.027450981
5.3598547 -15.737574 -2.1111026 0.031372551
6.8825912 -15.178405 0.096684009 0.098039217
8.6579075 -25.648596 -0.15695275 0.10588235
6.4553647 -16.32118 -1.8856524 0.035294119
5.1424088 -17.970905 -1.741666 0.035294119
9.7896776 -24.91503 0.62203264 0.14117648
7.5009322 -26.414961 0.31943896 0.062745102
6.961442 -17.625546 -1.3219045 0.070588239
6.0895238 -17.930313 -1.5425568 0.047058824
8.6592722 -25.65271 0.47206798 0.12156863
6.8851142 -15.184052 -1.0651636 0.082352944
5.5918431 -19.579988 -1.1838292 0.047058824
9.7889309 -24.913124 1.5564278 0.16470589
8.6648483 -25.669483 1.1023455 0.078431375
7.1282501 -18.055483 -0.90202272 0.05882353
6.4152141 -18.909058 -1.0442975 0.054901961
9.7000933 -24.684185 3.251148 0.10196079
8.5869341 -25.435366 2.1885328 0.094117649
6.8901162 -15.195289 -0.67758149 0.078431375
5.8289833 -20.429008 -0.74058878 0.039215688
8.6736546 -25.696028 4.9378209 0.054901961
7.5317278 -19.095407 -0.47648653 0.070588239
1.6909546 -4.7620416 -2.3378806 0.047058824
6.8291192 -15.186534 -0.28966695 0.14509805
6.7418442 -20.101196 -0.61578 0.023529412
3.1798916 -7.9530191 -2.3851388 0.050980393
3.6743126 -10.785331 -2.270963 0.027450981
9.7110863 -24.944565 0.00016178722 0.1254902
7.4232345 -26.457289 -0.31937766 0.06666667
5.2464252 -13.329302 -2.2215741 0.027450981
5.3128686 -15.761488 -2.112113 0.035294119
6.8316407 -15.192251 0.09663713 0.10196079
8.5822897 -25.690481 -0.15704626 0.098039217
6.4040585 -16.340996 -1.8856528 0.043137256
5.0944004 -18.017302 -1.7446405 0.031372551
9.7214003 -24.971409 0.62268358 0.12941177
7.4242926 -26.461143 0.31971785 0.05882353
6.9131927 -17.665565 -1.3232999 0.070588239
6.0406446 -17.971693 -1.5445098 0.043137256
6.8337569 -15.197047 0.48359755 0.070588239
8.5848923 -25.698397 0.47241655 0.11372549
6.8325405 -15.194268 -1.0643966 0.074509807
5.5430484 -19.643267 -1.1866201 0.047058824
9.7163467 -24.958279 1.5573573 0.15294118
8.5929108 -25.722767 1.1034847 0.078431375
7.0786605 -18.096052 -0.90295362 0.070588239
6.3670211 -18.962881 -1.0461818 0.062745102
9.6310434 -24.736389 3.2540724 0.094117649
8.5182047 -25.495914 2.1914616 0.054901961
6.8342714 -15.198195 -0.67676783 0.13333334
5.7785964 -20.496931 -0.74240381 0.031372551
8.5990372 -25.741455 4.9414082 0.054901961
7.4788737 -19.137253 -0.47695214 0.078431375
1.6734897 -4.7677569 -2.3378808 0.050980393
6.6557579 -20.087299 -0.61461717 0.019607844
3.1493526 -7.9605708 -2.3840609 0.047058824
3.6371834 -10.805733 -2.272532 0.031372551
9.6267023 -24.998236 0.0001612293 0.13725491
7.3325114 -26.507027 -0.31965768 0.074509807
5.1961312 -13.344296 -2.2209597 0.023529412
5.2575183 -15.78795 -2.1131234 0.031372551
6.7823215 -15.231396 0.096729808 0.047058824
8.4930201 -25.73653 -0.15713987 0.10588235
6.348362 -16.375059 -1.8869383 0.043137256
5.0325098 -18.050772 -1.7461278 0.031372551
9.6354933 -25.02137 0.62305522 0.1254902
7.3346052 -26.514746 0.32004321 0.05882353
6.858325 -17.716444 -1.3252534 0.06666667
5.9858308 -18.027382 -1.5474392 0.047058824
6.7876215 -15.243523 0.48429549 0.047058824
8.496829 -25.748257 0.47276503 0.12156863
6.7927952 -15.255332 -1.066955 0.023529412
5.4877839 -19.724653 -1.1903414 0.039215688
9.6304808 -25.008204 1.5582871 0.14901961
8.5035181 -25.768841 1.1041354 0.078431375
7.0250659 -18.155035 -0.90462899 0.062745102
6.1541672 -18.544996 -1.0219008 0.062745102
9.5516014 -24.80076 3.2579718 0.086274512
8.5122442 -25.795694 2.21457 0.10196079
6.7913303 -15.251987 -0.6780706 0.050980393
5.7202196 -20.579241 -0.74463767 0.031372551
8.5155849 -25.806028 4.9478645 0.054901961
7.4285765 -19.216417 -0.47825509 0.062745102
1.6579462 -4.7765918 -2.3395715 0.054901961
6.7377582 -15.274505 -0.2904354 0.78039217
8.4083347 -25.781767 -0.78796756 0.043137256
3.1188326 -7.9638758 -2.3819044 0.050980393
3.5994425 -10.817934 -2.2725325 0.035294119
9.5436077 -25.04249 0.00016065771 0.1254902
7.2482295 -26.562935 -0.32003075 0.074509807
5.1453443 -13.350826 -2.2191153 0.023529412
5.1999478 -15.798223 -2.1121137 0.035294119
6.7465987 -15.294926 0.096985407 0.027450981
8.415369 -25.803671 -0.1573728 0.10588235
6.293963 -16.404133 -1.8877954 0.035294119
4.9735975 -18.083187 -1.7476155 0.035294119
9.5523176 -25.065655 0.62333387 0.11764706
7.2482238 -26.562935 0.32032198 0.05882353
6.8020606 -17.754787 -1.3263699 0.06666667
5.9314055 -18.074306 -1.5497178 0.043137256
6.758204 -15.321731 0.48604083 0.023529412
8.416688 -25.807789 0.47332299 0.14117648
6.7601256 -15.326141 -1.0702809 0.015686275
5.4323478 -19.793402 -1.1933649 0.039215688
9.5515614 -25.063663 1.5596819 0.14901961
8.4232988 -25.828375 1.1054376 0.086274512
6.975719 -18.216421 -0.90649056 0.06666667
6.259274 -19.094545 -1.0509974 0.054901961
9.471962 -24.852102 3.2604086 0.082352944
8.4294672 -25.847593 2.216522 0.10196079
6.7650509 -15.337522 -0.68083876 0.019607844
5.6690626 -20.675875 -0.74742979 0.031372551
8.4326773 -25.857645 4.9521689 0.054901961
7.3797579 -19.290459 -0.47946498 0.050980393
1.6399026 -4.7747455 -2.3361907 0.06666667
6.713882 -15.358835 -0.29162213 0.090196081
8.3373241 -25.854828 -0.78936428 0.10196079
3.0897186 -7.9665465 -2.3797479 0.050980393
3.5647385 -10.833142 -2.2733173 0.027450981
9.467494 -25.092333 0.00016015818 0.1254902
7.1682944 -26.617352 -0.32040378 0.074509807
5.0941472 -13.348887 -2.2160408 0.027450981
5.1475329 -15.81497 -2.1121142 0.035294119
10.580965 -24.370228 0.15429945 0.070588239
8.3370247 -25.853901 -0.15751281 0.10588235
6.2436962 -16.435686 -1.8890809 0.035294119
4.9187021 -18.118423 -1.7494748 0.035294119
9.4775209 -25.11927 0.62389171 0.12156863
7.1682887 -26.617352 0.320694 0.05882353
6.755681 -17.81049 -1.3288813 0.062745102
5.8786817 -18.116266 -1.5516708 0.043137256
10.592479 -24.397066 0.77281225 0.14901961
8.3407507 -25.865644 0.47388095 0.12941177
7.5215511 -17.240915 -1.2022781 0.035294119
5.3809881 -19.864943 -1.1966208 0.023529412
9.4739714 -25.10976 1.5606117 0.13725491
8.3448658 -25.878613 1.106414 0.086274512
6.9334025 -18.28772 -0.90891033 0.05882353
6.2189035 -19.187122 -1.054975 0.050980393
9.3991995 -24.90901 3.2638204 0.082352944
8.3509531 -25.897795 2.2184741 0.094117649
7.6613984 -17.566807 -0.77868593 0.050980393
5.6188831 -20.763712 -0.74994272 0.039215688
8.3540354 -25.90756 4.9564734 0.054901961
7.3324966 -19.359386 -0.48058182 0.05882353
1.6256469 -4.7906513 -2.3412623 0.05882353
7.3924828 -17.112972 -0.32442251 0.047058824
8.2460957 -25.896208 -0.78971398 0.078431375
3.0604994 -7.9773669 -2.3797481 0.043137256
3.5285308 -10.856912 -2.2756708 0.035294119
9.380991 -25.14143 0.00015957098 0.11764706
