# .PCD v0.7 - Point Cloud Data file format
VERSION 0.7
FIELDS x y z intensity
SIZE 4 4 4 4
TYPE F F F F
COUNT 1 1 1 1
WIDTH 1065
HEIGHT 1
VIEWPOINT 0 0 0 1 0 0 0
POINTS 1065
DATA ascii
-11.310993 -9.6293516 -1.4125865 0.023529412
-12.732018 -13.155653 0.42618036 0.023529412
-15.080469 -12.754525 0.22802898 0.019607844
-9.8696823 -10.267102 -1.0150577 0.082352944
-10.673282 -10.045094 -1.2189946 0.050980393
-11.187299 -12.790424 0.49568316 0.019607844
-13.127651 -12.291171 0.31325233 0.019607844
-9.0155115 -10.373165 -0.89807445 0.05882353
-12.236376 -10.396578 -0.95293355 0.062745102
-11.523303 -10.82338 0.64902633 0.0039215689
-10.01848 -10.417339 -0.687446 0.06666667
-11.189809 -10.517809 -0.82082224 0.050980393
-13.392846 -13.82303 2.3846152 0.0078431377
-9.2699776 -10.656438 -0.58801502 0.050980393
-12.933199 -10.974311 -0.6047895 0.039215688
-11.747478 -11.029191 2.9746654 0.035294119
-10.924841 -11.331957 -0.37568185 0.027450981
-3.2752504 -3.2530854 -2.2592361 0.015686275
-9.9818201 -11.368614 -0.27209309 0.031372551
-12.065991 -11.240473 -0.49084991 0.031372551
-4.6073589 -4.9226089 -1.9502776 0.12156863
-5.6096315 -5.3741932 -1.6017034 0.10196079
-11.809406 -12.139545 -0.0045928736 0.047058824
-13.945219 -11.729641 -0.21930575 0.031372551
-6.0143533 -6.3325648 -1.3953583 0.05882353
-7.4846678 -7.0778408 -1.3433156 0.023529412
-10.807159 -12.280764 0.091604397 0.043137256
-8.9500628 -9.2740946 -1.415446 0.015686275
-11.38759 -9.6241713 -1.4177876 0.023529412
-12.743966 -13.076093 0.42508575 0.05882353
-15.189752 -12.754113 0.22901052 0.019607844
-9.9421082 -10.268232 -1.018683 0.082352944
-10.752543 -10.046916 -1.2238742 0.050980393
-11.124566 -12.631636 0.49106985 0.027450981
-14.076266 -13.067165 0.33443397 0.035294119
-9.0784531 -10.370156 -0.90062988 0.05882353
-12.306508 -10.380645 -0.95548499 0.062745102
-15.814208 -16.152702 1.3235044 0.027450981
-12.992732 -12.082834 0.72754115 0.0039215689
-10.099946 -10.426483 -0.69042379 0.06666667
-11.25898 -10.50716 -0.82311982 0.039215688
-13.446624 -13.780742 2.3856034 0.015686275
-13.65893 -12.688354 1.5357107 0.031372551
-9.3339386 -10.652576 -0.58964014 0.047058824
-13.026987 -10.973755 -0.60729903 0.039215688
-14.969071 -15.307249 5.7890892 0.015686275
-11.750954 -10.955289 2.9660757 0.027450981
-11.01518 -11.34363 -0.37735704 0.031372551
-3.2854562 -3.2418163 -2.2592328 0.015686275
-10.044413 -11.365807 -0.27278835 0.031372551
-12.14576 -11.24174 -0.49259308 0.027450981
-4.6500983 -4.9343238 -1.9610624 0.098039217
-5.6497788 -5.3766055 -1.6079785 0.098039217
-11.898505 -12.152227 -0.004593404 0.035294119
-14.068692 -11.755708 -0.22061259 0.039215688
-6.0202131 -6.2987332 -1.3922745 0.06666667
-7.5009766 -7.0480113 -1.3422968 0.031372551
-10.92648 -12.334511 0.092291102 0.050980393
-12.28441 -11.367036 -0.10296042 0.015686275
-8.9763336 -9.2421646 -1.4150082 0.019607844
-11.467097 -9.6277256 -1.4237343 0.019607844
-12.824652 -13.074533 0.42639154 0.027450981
-15.300957 -12.763608 0.23008257 0.031372551
-10.00542 -10.266954 -1.0217499 0.086274512
-10.819565 -10.044183 -1.2277768 0.050980393
-11.045738 -12.46559 0.48599249 0.019607844
-14.170681 -13.070158 0.33569282 0.035294119
-9.1405516 -10.373087 -0.90344274 0.05882353
-12.397791 -10.388999 -0.95990282 0.06666667
-12.457914 -12.709557 1.0443339 0.035294119
-14.576182 -13.436403 0.81205869 0.0078431377
-10.160966 -10.421934 -0.69228184 0.078431375
-11.324547 -10.500219 -0.82541853 0.031372551
-12.150687 -12.403985 2.1538961 0.015686275
-13.680966 -12.628388 1.5337751 0.070588239
-9.3861942 -10.642924 -0.59077555 0.047058824
-13.107817 -10.969773 -0.60938925 0.039215688
-14.915777 -15.158308 5.7508235 0.0078431377
-11.671396 -10.814504 2.9381299 0.019607844
-11.11877 -11.375724 -0.37959561 0.039215688
-3.2978826 -3.2279992 -2.2592285 0.015686275
-10.133952 -11.376069 -0.27397501 0.031372551
-12.233505 -11.233861 -0.49433348 0.027450981
-4.6854529 -4.9314957 -1.9675304 0.10588235
-5.6995988 -5.3798647 -1.6158223 0.11372549
-11.993449 -12.153067 -0.0045905206 0.039215688
-13.980175 -11.592057 -0.21856871 0.050980393
-6.0527916 -6.2827263 -1.3941138 0.06666667
-7.5309405 -7.020627 -1.3427936 0.027450981
-10.922376 -12.235293 0.091876276 0.098039217
-12.417344 -11.398678 -0.1036621 0.015686275
-9.017417 -9.2120419 -1.4158554 0.027450981
-11.550371 -9.6200857 -1.4293061 0.019607844
-12.954408 -13.102714 0.42899361 0.023529412
-15.408864 -12.751469 0.23097414 0.023529412
-10.073153 -10.255326 -1.0245346 0.086274512
-10.899624 -10.038629 -1.2323291 0.039215688
-11.961326 -13.367527 0.52312934 0.031372551
-14.280337 -13.067846 0.33709323 0.027450981
-9.2100039 -10.369086 -0.90625358 0.05882353
-12.477902 -10.372849 -0.96291906 0.05882353
-16.062927 -16.17449 1.3346695 0.023529412
-15.187302 -13.880538 0.84256983 0.0078431377
-10.232175 -10.412554 -0.69432431 0.05882353
-11.406434 -10.492796 -0.82834476 0.027450981
-14.847224 -14.973653 2.6105392 0.027450981
-13.717475 -12.563945 1.5324918 0.043137256
-9.4486103 -10.629182 -0.59207243 0.047058824
-13.183988 -10.945891 -0.61091584 0.035294119
-11.396294 -10.484822 2.8607233 0.015686275
-11.216416 -11.38517 -0.38136297 0.035294119
-3.3037162 -3.2105789 -2.2558427 0.023529412
-10.214319 -11.383613 -0.27502155 0.031372551
-12.332393 -11.243171 -0.49666005 0.031372551
-4.7301364 -4.9410143 -1.9783145 0.094117649
-5.7535119 -5.3901482 -1.6252371 0.11372549
-12.084336 -12.157681 -0.0045887977 0.035294119
-14.356938 -11.813122 -0.22364545 0.023529412
-6.0803304 -6.2660251 -1.3953381 0.074509807
-7.5850506 -7.019599 -1.3478422 0.031372551
-11.038321 -12.275336 0.092496857 0.039215688
-12.403265 -11.306338 -0.10321897 0.023529412
-9.0779076 -9.2072906 -1.420136 0.027450981
-11.621101 -9.6086216 -1.433762 0.019607844
-12.746031 -12.807076 0.42078558 0.015686275
-15.50623 -12.73919 0.23177226 0.031372551
-10.145919 -10.255361 -1.0281595 0.098039217
-10.970345 -10.031246 -1.2362303 0.043137256
-11.410902 -12.678614 0.49769908 0.023529412
-14.382641 -13.067356 0.33842313 0.023529412
-9.2732382 -10.365118 -0.90880871 0.05882353
-12.557571 -10.363232 -0.9661696 0.05882353
-11.778315 -11.857708 0.98152065 0.011764706
-12.491459 -11.385036 0.69352049 0.0039215689
-10.322649 -10.428871 -0.69786209 0.05882353
-11.490745 -10.494325 -0.83169186 0.023529412
-9.523634 -10.636156 -0.59435147 0.050980393
-13.278151 -10.943875 -0.61342502 0.039215688
-11.756227 -10.731639 2.93959 0.015686275
-11.287489 -11.375686 -0.38238165 0.035294119
-3.2323041 -3.1272023 -2.2051082 0.031372551
-10.293611 -11.397358 -0.27613968 0.031372551
-12.409594 -11.24048 -0.49828586 0.027450981
-4.7566695 -4.9359207 -1.9826254 0.17647059
-5.7880521 -5.3866682 -1.6299419 0.10196079
-12.16543 -12.16058 -0.0045869285 0.035294119
-14.450187 -11.811986 -0.22448024 0.027450981
-6.1084776 -6.2542057 -1.3971788 0.082352944
-7.6308503 -7.0157933 -1.3518803 0.031372551
-11.147654 -12.315786 0.09309388 0.047058824
-13.388723 -12.106152 -0.11077382 0.027450981
-9.1495018 -9.2194071 -1.4265627 0.019607844
-11.694762 -9.6059437 -1.4389637 0.019607844
-12.436903 -12.425409 0.40952688 0.023529412
-10.209516 -10.253115 -1.0312263 0.098039217
-11.049599 -10.038014 -1.2414368 0.047058824
-11.382604 -12.568541 0.49481907 0.023529412
-14.49254 -13.082066 0.34002835 0.039215688
-9.3410978 -10.372969 -0.91213441 0.05882353
-12.621243 -10.347719 -0.96848887 0.050980393
-11.672557 -11.680289 0.96993768 0.011764706
-15.365861 -13.854237 0.84730482 0.023529412
-10.403996 -10.442847 -0.70102739 0.05882353
-11.565558 -10.494247 -0.83462024 0.023529412
-13.047385 -13.021242 2.2853765 0.05882353
-15.485135 -13.959937 1.7157283 0.023529412
-9.5869427 -10.637411 -0.59614092 0.043137256
-13.362401 -10.941113 -0.615655 0.035294119
-11.61305 -11.623327 4.4565463 0.0039215689
-11.459677 -10.40176 2.859313 0.011764706
-11.380435 -11.395039 -0.38424492 0.047058824
-3.2628219 -3.1309443 -2.2169414 0.035294119
-10.381801 -11.408047 -0.27732643 0.035294119
-12.489779 -11.228079 -0.49979255 0.027450981
-4.7719641 -4.9146504 -1.9815407 0.14117648
-5.8254485 -5.3798137 -1.6346456 0.10588235
-12.25016 -12.153733 -0.0045822887 0.043137256
-14.56228 -11.812556 -0.22550113 0.023529412
-6.1569214 -6.2553887 -1.4027116 0.074509807
-7.6744123 -7.0023556 -1.3549056 0.035294119
-11.255619 -12.340858 0.093625285 0.043137256
-13.478106 -12.095447 -0.11111668 0.031372551
-9.2089529 -9.2095785 -1.4304135 0.019607844
-11.77355 -9.5965738 -1.4441634 0.019607844
-12.439262 -12.3369 0.40815523 0.023529412
-15.777349 -12.778055 0.23451786 0.062745102
-10.269965 -10.236702 -1.033452 0.094117649
-11.131269 -10.035765 -1.2463154 0.047058824
-11.436793 -12.534366 0.49517921 0.023529412
-14.594503 -13.075217 0.34129012 0.035294119
-9.39816 -10.357928 -0.91391927 0.062745102
-12.684099 -10.320137 -0.97033978 0.043137256
-11.663645 -11.586312 0.96577698 0.019607844
-16.585127 -14.822152 0.91042191 0.023529412
-10.485269 -10.445203 -0.70381719 0.047058824
-11.651986 -10.492816 -0.8379665 0.023529412
-13.06079 -12.939073 2.2795496 0.082352944
-15.470272 -13.844112 1.7085992 0.0039215689
-9.6504622 -10.627329 -0.59760153 0.047058824
-13.443104 -10.923265 -0.61746234 0.027450981
-11.545047 -10.400093 2.8707957 0.0078431377
-11.470971 -11.399405 -0.38582501 0.043137256
-3.3140583 -3.1595709 -2.2457027 0.027450981
-10.47156 -11.43367 -0.27877831 0.031372551
-12.575558 -11.23291 -0.501858 0.027450981
-4.7743073 -4.8897748 -1.9783093 0.11764706
-5.864265 -5.3826489 -1.6417103 0.094117649
-12.327999 -12.153652 -0.0045529413 0.039215688
-14.645968 -11.802881 -0.22620377 0.023529412
-6.1748719 -6.2366681 -1.4033244 0.074509807
-7.7099242 -6.9915094 -1.357928 0.035294119
-11.362189 -12.378142 0.094245605 0.039215688
-13.419024 -11.96824 -0.11033174 0.027450981
-9.2624865 -9.2055607 -1.4346828 0.019607844
-11.843455 -9.5910387 -1.4493411 0.019607844
-12.82324 -12.629984 0.41937661 0.023529412
-15.801427 -12.714799 0.2343922 0.023529412
-10.324112 -10.226493 -1.0359418 0.090196081
-11.188912 -10.02401 -1.2495441 0.039215688
-12.328548 -13.402933 0.53130436 0.023529412
-14.677352 -13.065202 0.34238037 0.039215688
-9.4651699 -10.36637 -0.91748774 0.074509807
-12.765913 -10.319098 -0.9742623 0.086274512
-13.78609 -13.556035 1.1341801 0
-16.622496 -14.760865 0.91016126 0.031372551
-10.58046 -10.473083 -0.70808423 0.043137256
-11.741309 -10.505631 -0.84213048 0.035294119
-13.06076 -12.85894 2.2732646 0.050980393
-11.558471 -10.346906 1.281468 0.0039215689
-9.7019539 -10.617537 -0.59888542 0.043137256
-13.52069 -10.914801 -0.61951983 0.035294119
-11.841416 -11.687166 4.5135016 0.015686275
-11.763669 -10.526265 2.9167106 0.0039215689
-11.537661 -11.393582 -0.38691494 0.043137256
-3.3228779 -3.1438873 -2.2440078 0.039215688
-10.554717 -11.437559 -0.27982342 0.031372551
-12.662004 -11.224842 -0.50359809 0.027450981
-4.808918 -4.8870544 -1.984777 0.090196081
-5.8928542 -5.3676729 -1.6440586 0.098039217
-12.410077 -12.143147 -0.0045470283 0.035294119
-14.758408 -11.802233 -0.22722381 0.023529412
-6.2091274 -6.2237644 -1.405779 0.074509807
-7.7445035 -6.9698486 -1.3594362 0.031372551
-11.437787 -12.367168 0.094507143 0.050980393
-13.638242 -12.069627 -0.11169948 0.027450981
-9.3335648 -9.2061024 -1.4402494 0.023529412
-11.916159 -9.5758886 -1.4537956 0.019607844
-13.390125 -13.078761 0.43602526 0.019607844
-15.829028 -12.640855 0.23413393 0.019607844
-10.39905 -10.223256 -1.0395654 0.090196081
-11.273817 -10.023523 -1.2547483 0.039215688
-12.429915 -13.411589 0.53351671 0.027450981
-14.785629 -13.062512 0.34378132 0.047058824
-9.5250978 -10.353615 -0.91952866 0.086274512
-12.835089 -10.295714 -0.97657889 0.078431375
-16.628128 -14.656857 0.90758455 0.023529412
-10.679473 -10.491026 -0.71199405 0.043137256
-11.831089 -10.505813 -0.84568596 0.039215688
-13.084826 -12.787909 2.2693851 0.047058824
-9.7710857 -10.612634 -0.6006726 0.047058824
-13.614109 -10.90593 -0.62188709 0.027450981
-13.516346 -13.200679 5.117754 0.0039215689
-12.031307 -10.680207 2.9719245 0.011764706
-11.622734 -11.391492 -0.38830703 0.050980393
-3.3255851 -3.1240919 -2.2389309 0.035294119
-10.644344 -11.451572 -0.28108045 0.035294119
-12.746599 -11.218565 -0.50533861 0.027450981
-4.8455205 -4.8876953 -1.9923239 0.12941177
-5.932385 -5.3638706 -1.6495475 0.098039217
-12.527871 -12.170208 -0.0045499923 0.035294119
-14.865824 -11.801109 -0.22819735 0.023529412
-6.2394228 -6.2091198 -1.4076188 0.090196081
-7.7778163 -6.9494386 -1.3609446 0.031372551
-11.491947 -12.337637 0.094610162 0.043137256
-13.043156 -11.47347 -0.10667768 0.019607844
-9.4002829 -9.205205 -1.4453874 0.027450981
-11.993531 -9.5673666 -1.4589952 0.019607844
-12.919091 -12.541166 0.41959041 0.015686275
-15.983571 -12.670362 0.23576142 0.019607844
-10.47522 -10.224233 -1.0434693 0.086274512
-11.369218 -10.034976 -1.2612569 0.039215688
-12.523641 -13.41614 0.53549701 0.035294119
-14.864506 -13.038398 0.34455875 0.047058824
-9.5832596 -10.342287 -0.92157012 0.086274512
-12.899322 -10.271816 -0.97866297 0.074509807
-15.230381 -14.732231 1.2420529 0.019607844
-16.709503 -14.623676 0.90922481 0.015686275
-10.768229 -10.502069 -0.71534401 0.039215688
-11.940408 -10.525831 -0.85071164 0.039215688
-13.109213 -12.721946 2.2659914 0.047058824
-9.8439894 -10.614912 -0.60278732 0.047058824
-13.696277 -10.8916 -0.62383449 0.027450981
-14.667162 -14.199686 5.5254245 0.0039215689
-15.984569 -14.001771 3.912497 0.0039215689
-11.711768 -11.396527 -0.38988695 0.047058824
-10.735744 -11.474719 -0.28247952 0.031372551
-12.833475 -11.221618 -0.50731438 0.027450981
-4.8748736 -4.8846712 -1.9977136 0.10980392
-5.9700894 -5.362052 -1.6550368 0.10588235
-12.635922 -12.195631 -0.0045528738 0.031372551
-14.975626 -11.809612 -0.22926657 0.023529412
-6.2732849 -6.202054 -1.4106901 0.10196079
-7.8146996 -6.9368701 -1.3634651 0.035294119
-11.602778 -12.375413 0.095208466 0.05882353
-13.021333 -11.382113 -0.10621196 0.019607844
-9.458106 -9.2019138 -1.4496683 0.027450981
-12.061351 -9.5578794 -1.4634514 0.019607844
-12.847811 -12.395345 0.41609141 0.011764706
-16.099262 -12.677795 0.23688126 0.043137256
-10.542143 -10.223123 -1.0468148 0.06666667
-11.443137 -10.034469 -1.2658105 0.031372551
-12.069345 -12.86016 0.5148024 0.035294119
-14.938852 -13.019221 0.34533465 0.047058824
-9.6433878 -10.339905 -0.92412549 0.05882353
-12.95997 -10.252234 -0.98074847 0.078431375
-16.870869 -14.668742 0.91540617 0.0078431377
-10.879702 -10.541178 -0.7203759 0.035294119
-12.018986 -10.526191 -0.85384887 0.039215688
-9.910553 -10.617505 -0.60473949 0.043137256
-13.777878 -10.884199 -0.6259234 0.027450981
-11.782444 -11.391599 -0.39099962 0.043137256
-3.3440089 -3.0969145 -2.2372322 0.050980393
-10.827849 -11.485826 -0.28373569 0.054901961
-12.926377 -11.217302 -0.50928789 0.027450981
-4.9152555 -4.8866701 -2.0063386 0.12156863
-6.0076594 -5.3542023 -1.6597401 0.10588235
-12.741896 -12.205463 -0.0045515969 0.031372551
-15.104514 -11.819206 -0.2305216 0.019607844
-6.3017516 -6.1832747 -1.4119138 0.086274512
-7.8461308 -6.9121666 -1.3644674 0.035294119
-11.684262 -12.368988 0.095515475 0.054901961
-13.087379 -11.353854 -0.10638781 0.015686275
-9.4888659 -9.1633253 -1.4492282 0.023529412
-12.131071 -9.5391178 -1.4675333 0.019607844
-12.735426 -12.199541 0.41111556 0.027450981
-16.247196 -12.695435 0.23837204 0.023529412
-10.594117 -10.196898 -1.0482007 0.082352944
-11.528509 -10.032551 -1.2710141 0.035294119
-12.675907 -13.391606 0.53806937 0.035294119
-15.035292 -13.004604 0.34645912 0.039215688
-9.7284689 -10.352059 -0.92847478 0.062745102
-13.035489 -10.232675 -0.983531 0.05882353
-11.532641 -11.075059 0.94012088 0.015686275
-12.088537 -10.507691 0.65811145 0.0039215689
-10.962043 -10.541019 -0.72316456 0.039215688
-12.112345 -10.527406 -0.85761398 0.047058824
-14.259776 -13.625487 2.4446931 0.011764706
-11.275964 -9.8193102 1.2360367 0
-9.9744453 -10.605784 -0.60619938 0.043137256
-13.868442 -10.871399 -0.62815017 0.027450981
-10.826568 -10.41582 4.082099 0
-11.873775 -11.393622 -0.39257866 0.043137256
-3.3598108 -3.0894406 -2.2406108 0.054901961
-10.921757 -11.506054 -0.2851339 0.054901961
-13.006332 -11.209385 -0.51091182 0.027450981
-4.9427257 -4.8797927 -2.0106492 0.11372549
-6.0373893 -5.3433175 -1.662874 0.10196079
-12.846777 -12.221995 -0.0045521809 0.031372551
-15.20727 -11.816477 -0.23144832 0.019607844
-6.325119 -6.1639972 -1.4125224 0.074509807
-7.8872247 -6.9004045 -1.3674932 0.031372551
-11.755953 -12.36062 0.095776141 0.054901961
-9.5017195 -9.1145353 -1.4466442 0.019607844
-12.200662 -9.5267525 -1.4719886 0.019607844
-12.85199 -12.226965 0.41353181 0.015686275
-16.254202 -12.613795 0.23788227 0.047058824
-10.651264 -10.182399 -1.050427 0.082352944
-11.610518 -10.034306 -1.2762189 0.031372551
-12.20352 -12.819183 0.5166803 0.027450981
-15.154828 -13.018023 0.34820518 0.031372551
-9.7989979 -10.355837 -0.93179899 0.074509807
-13.107476 -10.217383 -0.98631471 0.06666667
-11.850182 -11.296616 0.96239781 0.015686275
-16.719069 -14.334804 0.90197635 0.0078431377
-11.058419 -10.560678 -0.72707498 0.043137256
-12.202199 -10.532446 -0.86138022 0.047058824
-13.234397 -12.582728 2.2655463 0.0039215689
-10.029107 -10.591633 -0.6073333 0.039215688
-13.955304 -10.86306 -0.63037819 0.027450981
-16.300081 -13.98307 3.9541276 0.011764706
-11.970093 -11.407579 -0.39443994 0.039215688
-3.3766789 -3.0806084 -2.2439888 0.05882353
-11.014334 -11.516126 -0.28638974 0.050980393
-13.105629 -11.209198 -0.51311898 0.027450981
-4.9775715 -4.8761635 -2.0171168 0.14509805
-6.0749955 -5.3350954 -1.6675771 0.10196079
-12.950303 -12.227911 -0.0045499308 0.031372551
-15.34621 -11.831856 -0.23284425 0.019607844
-6.3505774 -6.1423073 -1.4131308 0.074509807
-7.9216008 -6.8779364 -1.3690009 0.031372551
-11.829226 -12.344822 0.096015632 0.054901961
-13.764901 -11.760111 -0.11100623 0.035294119
-9.5467596 -9.0892859 -1.4483491 0.019607844
-12.267276 -9.5048361 -1.4756979 0.019607844
-12.86438 -12.148814 0.41252995 0.015686275
-16.344999 -12.58675 0.2385449 0.035294119
-10.714917 -10.166487 -1.0529314 0.070588239
-11.696172 -10.031432 -1.2814223 0.031372551
-12.0766 -12.596478 0.5095216 0.027450981
-15.306793 -13.048426 0.3505761 0.031372551
-9.8564825 -10.338629 -0.9335829 0.078431375
-13.18307 -10.197016 -0.98909706 0.062745102
-15.679599 -13.360037 0.84423524 0.0078431377
-11.149929 -10.567683 -0.73042375 0.047058824
-12.28364 -10.52236 -0.8643052 0.050980393
-11.990316 -11.343398 2.0503719 0.011764706
-14.507752 -12.381236 1.5719845 0.023529412
-10.104293 -10.590701 -0.60944706 0.043137256
-14.039679 -10.844434 -0.6323244 0.027450981
-11.359172 -10.762135 4.2497392 0.0078431377
-12.044165 -11.392302 -0.39545655 0.039215688
-3.3840892 -3.0660431 -2.2422941 0.05882353
-11.103112 -11.529658 -0.28764668 0.054901961
-13.198113 -11.210598 -0.51521045 0.027450981
-4.9993987 -4.8637977 -2.019269 0.11372549
-6.1137857 -5.3314161 -1.673066 0.094117649
-13.049775 -12.237897 -0.0045489375 0.031372551
-15.471738 -11.844684 -0.2341003 0.023529412
-6.3913164 -6.1388636 -1.4174325 0.074509807
-7.9596353 -6.8632617 -1.3715209 0.035294119
-11.923568 -12.358497 0.096457139 0.050980393
-13.816137 -11.72358 -0.11108739 0.054901961
-9.582716 -9.0619135 -1.4491972 0.019607844
-12.343328 -9.4965324 -1.4808977 0.019607844
-14.175579 -13.269179 0.45238006 0.019607844
-16.466627 -12.591463 0.23971225 0.019607844
-10.839792 -10.213411 -1.0615894 0.082352944
-11.778462 -10.032289 -1.2866267 0.035294119
-12.20551 -12.64341 0.51312095 0.023529412
-15.494633 -13.116597 0.35384566 0.039215688
-9.9300318 -10.344562 -0.93716341 0.074509807
-13.242368 -10.171383 -0.99094844 0.086274512
-11.590112 -10.901253 0.93575162 0.015686275
-11.229112 -10.570096 -0.73321331 0.043137256
-12.36765 -10.521343 -0.86765128 0.062745102
-11.960527 -11.240859 2.0391867 0.015686275
-11.677124 -9.948967 1.2679113 0.011764706
-10.187161 -10.604381 -0.61221582 0.043137256
-14.120329 -10.830372 -0.63427198 0.027450981
-14.295711 -12.122626 3.4566305 0.011764706
-12.120213 -11.386374 -0.39666182 0.047058824
-3.3953071 -3.0524745 -2.24229 0.062745102
-11.196134 -11.538713 -0.28890225 0.05882353
-13.276149 -11.191509 -0.5165987 0.027450981
-5.0285954 -4.8546605 -2.0235786 0.11764706
-6.1575069 -5.327775 -1.6793391 0.094117649
-15.598452 -11.848868 -0.23530737 0.019607844
-6.4196243 -6.1195688 -1.418656 0.06666667
-8.0031166 -6.8480325 -1.3745456 0.035294119
-12.01398 -12.358884 0.096832372 0.043137256
-14.248034 -11.992138 -0.11407346 0.043137256
-9.6276398 -9.0362873 -1.4509021 0.015686275
-12.419578 -9.4810085 -1.4857237 0.015686275
-14.306966 -13.291314 0.45498443 0.019607844
-17.215183 -13.053084 0.24981228 0.023529412
-10.918489 -10.210047 -1.0654919 0.06666667
-11.861315 -10.025923 -1.2915038 0.039215688
-12.093657 -12.438901 0.50665599 0.043137256
-15.613605 -13.117055 0.35545558 0.054901961
-9.9932537 -10.332389 -0.93946022 0.078431375
-13.305182 -10.140716 -0.99279821 0.090196081
-11.535443 -10.77159 0.928343 0.015686275
-14.31947 -12.051246 0.76784766 0.0039215689
-11.306214 -10.562666 -0.73562801 0.039215688
-12.446215 -10.507812 -0.87036622 0.050980393
-11.895895 -11.099646 2.0216734 0.0078431377
-14.649221 -12.323095 1.5778639 0.0078431377
-10.265473 -10.605444 -0.61449271 0.035294119
-14.224053 -10.825158 -0.63705862 0.027450981
-12.377872 -10.452689 2.9935231 0.019607844
-12.224003 -11.397223 -0.39861497 0.047058824
-3.4082201 -3.0424578 -2.2439771 0.054901961
-11.279673 -11.545644 -0.29001799 0.054901961
-13.381274 -11.202084 -0.51915759 0.027450981
-5.050386 -4.8420844 -2.0257308 0.14117648
-6.1812162 -5.3112578 -1.6809027 0.094117649
-15.746995 -11.876906 -0.23689267 0.019607844
-6.4545512 -6.110456 -1.4217268 0.06666667
-8.0442123 -6.835494 -1.3775711 0.039215688
-12.10024 -12.363104 0.097206399 0.047058824
-14.392985 -12.029903 -0.11486875 0.027450981
-9.6723118 -9.0166006 -1.4530369 0.015686275
-12.482972 -9.4624166 -1.4894341 0.019607844
-14.437028 -13.32049 0.45767987 0.019607844
-10.987826 -10.20484 -1.0688362 0.06666667
-11.940785 -10.023364 -1.2963821 0.035294119
-12.639075 -12.899953 0.52726358 0.015686275
-15.678688 -13.081898 0.35595623 0.062745102
-10.067058 -10.337597 -0.94304049 0.074509807
-13.367633 -10.116871 -0.9948824 0.05882353
-11.574062 -10.734916 0.92858696 0.015686275
-16.035955 -13.374336 0.85580558 0.0078431377
-11.391591 -10.569605 -0.73879081 0.039215688
-12.50573 -10.485681 -0.87203276 0.043137256
-12.29504 -11.386425 2.0815699 0.0078431377
-15.893414 -13.257976 1.7045848 0.0039215689
-10.337399 -10.606975 -0.61660725 0.035294119
-14.295228 -10.80304 -0.63858551 0.023529412
-11.131026 -10.335759 4.1276836 0
-13.161708 -11.023568 3.1698964 0.031372551
-12.309215 -11.398471 -0.40010101 0.039215688
-3.4300778 -3.0385926 -2.250737 0.050980393
-11.371091 -11.555735 -0.29127389 0.070588239
-13.469951 -11.19455 -0.52101403 0.027450981
-5.0701284 -4.8259072 -2.0268042 0.090196081
-6.2118983 -5.2984495 -1.6840359 0.082352944
-13.329077 -12.233502 -0.004537337 0.027450981
-15.875409 -11.884686 -0.23814723 0.023529412
-6.4846706 -6.0947146 -1.4235661 0.062745102
-8.1080647 -6.8388042 -1.3841356 0.035294119
-12.194511 -12.370331 0.09762641 0.047058824
-14.50009 -12.031458 -0.11535338 0.027450981
-9.7214937 -8.9976244 -1.4556004 0.019607844
-12.554454 -9.4459782 -1.4938884 0.023529412
-14.551908 -13.330331 0.45982167 0.019607844
-17.345547 -12.964249 0.25044662 0.031372551
-11.082795 -10.218615 -1.074417 0.06666667
-12.009743 -10.008181 -1.2999554 0.035294119
-12.010328 -12.188273 0.4998557 0.0039215689
-15.730464 -13.031041 0.35611162 0.062745102
-10.134302 -10.33218 -0.94585067 0.06666667
-13.464025 -10.113956 -0.99929655 0.047058824
-16.17561 -13.392787 0.86069059 0.0078431377
-11.476012 -10.57137 -0.74176621 0.031372551
-12.582563 -10.473614 -0.87474805 0.039215688
-14.167202 -12.985897 2.3834412 0.011764706
-10.419827 -10.614703 -0.61921155 0.031372551
-14.387631 -10.792202 -0.64095229 0.023529412
-15.133509 -13.853491 5.5545235 0.015686275
-16.489666 -13.648825 3.9420285 0.035294119
-12.396563 -11.397062 -0.4015862 0.043137256
-3.4378455 -3.0232351 -2.2490425 0.039215688
-11.45701 -11.559721 -0.29238871 0.062745102
-13.558743 -11.186531 -0.5228703 0.027450981
-5.1042061 -4.8224583 -2.033272 0.10980392
-6.2456236 -5.2879534 -1.6879539 0.082352944
-12.860896 -11.730907 -0.0044182264 0.023529412
-16.026695 -11.908209 -0.23973116 0.023529412
-6.5118117 -6.0762076 -1.4247899 0.05882353
-8.1473322 -6.8218236 -1.3866549 0.039215688
-12.280422 -12.368642 0.097978786 0.043137256
-14.650972 -12.067567 -0.11617123 0.027450981
-9.7676945 -8.975769 -1.4577346 0.015686275
-12.63241 -9.4338465 -1.499087 0.023529412
-14.643147 -13.318258 0.46122417 0.027450981
-17.532913 -13.00619 0.25249103 0.0078431377
-11.163096 -10.218579 -1.0785993 0.050980393
-12.081846 -9.9951391 -1.3038546 0.039215688
-15.775857 -12.974959 0.35612854 0.054901961
-10.193091 -10.318027 -0.94789129 0.070588239
-13.567017 -10.115199 -1.0041767 0.047058824
-12.09007 -11.044732 0.96294039 0.054901961
-15.19876 -12.50965 0.80732334 0.0039215689
-11.563572 -10.57533 -0.74492812 0.035294119
-12.647032 -10.451105 -0.87662369 0.039215688
-11.893919 -10.870362 2.0027239 0.0078431377
-15.991786 -13.149517 1.7052689 0.015686275
-10.510992 -10.630388 -0.62230617 0.035294119
-14.463984 -10.769078 -0.64261836 0.023529412
-11.073063 -10.139973 4.0811472 0
-16.583149 -13.627149 3.9527998 0.023529412
-12.490026 -11.400501 -0.40325862 0.043137256
-3.4342926 -3.0033252 -2.2439823 0.05882353
-11.53172 -11.557704 -0.29333976 0.05882353
-13.660719 -11.193079 -0.52539587 0.027450981
-5.1355996 -4.8213868 -2.040827 0.035294119
-6.2798657 -5.2822022 -1.6934457 0.086274512
-13.444452 -12.169816 -0.0044838982 0.023529412
-16.172686 -11.930884 -0.24127106 0.023529412
-6.5480909 -6.0706887 -1.4290929 0.062745102
-8.1840582 -6.8071547 -1.3896737 0.035294119
-12.369401 -12.374927 0.09842594 0.047058824
-14.75916 -12.072824 -0.11666562 0.027450981
-9.8290825 -8.9721708 -1.4628576 0.019607844
-12.691895 -9.4119959 -1.5027691 0.023529412
-14.734805 -13.311062 0.46284947 0.027450981
-18.207674 -13.403441 0.2615886 0.019607844
-11.276751 -10.25251 -1.0863956 0.035294119
-12.160813 -9.9917297 -1.3090328 0.05882353
-12.650446 -12.649199 0.52258968 0.027450981
-15.824754 -12.926289 0.35639584 0.047058824
-10.246263 -10.303624 -0.94991535 0.074509807
-13.65807 -10.111216 -1.0085588 0.062745102
-12.110928 -10.990832 0.96205091 0.027450981
-16.347275 -13.344872 0.86515182 0.0078431377
-11.645654 -10.578847 -0.74806702 0.031372551
-12.730798 -10.448298 -0.88015074 0.039215688
-10.599608 -10.64839 -0.62554592 0.031372551
-14.550897 -10.757325 -0.64494884 0.023529412
-16.661789 -13.597675 3.9614675 0.023529412
-12.563037 -11.390225 -0.40443522 0.043137256
-3.4499104 -2.9953778 -2.2473605 0.047058824
-11.607325 -11.554525 -0.29424325 0.05882353
-13.744703 -11.183994 -0.52713537 0.027450981
-6.3126984 -5.2725 -1.697364 0.082352944
-16.322601 -11.955482 -0.24285467 0.023529412
-6.5830355 -6.0609279 -1.4321634 0.05882353
-8.2407484 -6.8060908 -1.3952268 0.031372551
-12.467824 -12.388455 0.098891333 0.043137256
-14.880508 -12.087496 -0.11726898 0.023529412
-9.8976278 -8.9725924 -1.4684238 0.019607844
-12.758618 -9.3943624 -1.5068511 0.023529412
-14.841956 -13.316494 0.46480659 0.027450981
-11.391633 -10.285105 -1.0939333 0.050980393
-12.234445 -9.9825525 -1.3132582 0.05882353
-12.712425 -12.625601 0.52341324 0.019607844
-15.867532 -12.872683 0.35641217 0.039215688
-10.320512 -10.307424 -0.95349491 0.062745102
-13.74017 -10.099762 -1.0120405 0.074509807
-12.174309 -10.973273 0.96415126 0.011764706
-13.723304 -11.167356 0.7267397 0.011764706
-11.728703 -10.581307 -0.75104213 0.035294119
-12.802891 -10.434803 -0.8826561 0.039215688
-13.545812 -12.178458 2.261313 0.039215688
-12.218736 -9.9708538 1.3037515 0.0039215689
-10.692269 -10.66775 -0.62880385 0.031372551
-14.638436 -10.74528 -0.64717555 0.023529412
-11.864738 -10.702374 4.3409023 0.0039215689
-16.811501 -13.624581 3.9858606 0.0039215689
-12.642801 -11.384396 -0.40573305 0.039215688
-3.4608693 -2.9815471 -2.2473564 0.050980393
-11.70148 -11.56064 -0.29549754 0.05882353
-13.842094 -11.176966 -0.52922392 0.027450981
-3.8975067 -3.6745176 -1.5682715 0
-6.3535357 -5.2651711 -1.7028515 0.074509807
-16.47053 -11.968709 -0.24434213 0.023529412
-6.6230836 -6.0511765 -1.4358486 0.05882353
-8.2936735 -6.7968001 -1.3997678 0.031372551
-12.565039 -12.391421 0.099313051 0.031372551
-15.006344 -12.096144 -0.1178705 0.023529412
-9.9394436 -8.9429283 -1.4696993 0.023529412
-12.838369 -9.3787346 -1.5120485 0.023529412
-14.944921 -13.308144 0.46648809 0.027450981
-18.626478 -13.505972 0.2662347 0.031372551
-11.477378 -10.284074 -1.0983939 0.050980393
-12.305377 -9.9636488 -1.3168302 0.05882353
-12.669288 -12.491828 0.51984054 0.023529412
-15.939723 -12.833094 0.35698441 0.039215688
-10.3985 -10.307101 -0.95707315 0.062745102
-13.806364 -10.069029 -1.0141225 0.090196081
-12.196389 -10.911663 0.96277356 0.011764706
-13.701403 -11.066285 0.72350961 0.019607844
-11.82463 -10.586972 -0.75457609 0.039215688
-12.878679 -10.41634 -0.88516009 0.035294119
-12.233294 -9.9075422 1.301491 0.0078431377
-10.788908 -10.682734 -0.63206047 0.027450981
-14.749332 -10.741439 -0.65024102 0.023529412
-11.269053 -10.104025 4.1153493 0.0039215689
-17.130037 -13.773846 4.0482531 0.0039215689
-12.741713 -11.386745 -0.40749756 0.043137256
-3.470741 -2.9689996 -2.2473526 0.043137256
-11.791802 -11.570451 -0.29675302 0.054901961
-13.948309 -11.184218 -0.53178138 0.027450981
-6.4049187 -5.2696371 -1.7114799 0.023529412
-16.614594 -11.986926 -0.24583113 0.023529412
-6.6520796 -6.0358891 -1.437688 0.05882353
-8.3567638 -6.8000307 -1.406332 0.023529412
-12.66101 -12.401133 0.099756129 0.039215688
-15.096743 -12.084748 -0.11823561 0.023529412
-9.9810724 -8.9192791 -1.4714047 0.023529412
-12.914908 -9.3672714 -1.517247 0.023529412
-15.06756 -13.325527 0.46890789 0.019607844
-11.562694 -10.28931 -1.1031351 0.054901961
-12.37914 -9.9537067 -1.3210554 0.050980393
-12.756896 -12.492886 0.52170569 0.023529412
-16.038845 -12.823526 0.35824767 0.031372551
-10.473032 -10.310114 -0.96065253 0.06666667
-13.878791 -10.049824 -1.016905 0.086274512
-15.667457 -13.84536 1.2267716 0.023529412
-16.94931 -13.537518 0.8892234 0.0078431377
-11.91404 -10.593735 -0.75792444 0.039215688
-12.95402 -10.40456 -0.8878752 0.039215688
-15.554123 -13.747609 2.5734441 0.011764706
-16.366669 -13.080963 1.7261763 0.011764706
-10.893626 -10.712108 -0.63597196 0.035294119
-14.837078 -10.728374 -0.65246737 0.015686275
-11.244086 -10.014947 4.0946674 0
-13.332527 -10.702551 3.158541 0.019607844
-12.833813 -11.390501 -0.40916967 0.035294119
-3.481086 -2.9557571 -2.2473485 0.043137256
-11.866933 -11.56115 -0.29758507 0.074509807
-14.037745 -11.173649 -0.53363663 0.027450981
-3.8552585 -3.5879774 -1.5434488 0
-12.977125 -11.43378 -0.0043037292 0.015686275
-16.777414 -12.01284 -0.24755426 0.023529412
-6.6880922 -6.0244083 -1.4407578 0.05882353
-8.4242878 -6.8038306 -1.4134012 0.027450981
-12.762251 -12.410821 0.10022268 0.039215688
-15.239839 -12.10949 -0.11898027 0.019607844
-10.00913 -8.8806839 -1.4709647 0.019607844
-12.996408 -9.3553734 -1.5228169 0.023529412
-15.189777 -13.336933 0.4712362 0.0078431377
-20.020422 -14.292004 0.28461224 0.015686275
-11.622743 -10.268595 -1.1053593 0.062745102
-12.451561 -9.9387121 -1.3249536 0.050980393
-16.156096 -12.822859 0.35985839 0.023529412
-10.537912 -10.299862 -0.96320534 0.05882353
-13.95626 -10.030057 -1.0199196 0.06666667
-11.967623 -10.565839 0.93960226 0.015686275
-11.996386 -10.590055 -0.76071185 0.039215688
-13.034389 -10.392521 -0.8907994 0.039215688
-15.647164 -13.73096 2.580765 0.011764706
-12.246963 -9.7802486 1.2959933 0.0039215689
-10.994736 -10.733432 -0.63955581 0.027450981
-14.943121 -10.723677 -0.65539318 0.023529412
-16.015612 -14.048825 5.7678142 0.0039215689
-13.363591 -10.650003 3.1571219 0.035294119
-12.925035 -11.388852 -0.41074732 0.035294119
-3.4942536 -2.9446945 -2.2490356 0.039215688
-11.947969 -11.55694 -0.29855788 0.070588239
-14.1431 -11.174811 -0.53607613 0.027450981
-3.8443289 -3.5533788 -1.5348136 0
-4.4583664 -3.6900909 -1.2098567 0
-16.940624 -12.037756 -0.24927707 0.023529412
-6.7241116 -6.0127487 -1.4438277 0.05882353
-8.4699659 -6.790257 -1.4169312 0.031372551
-12.869543 -12.425433 0.10073464 0.035294119
-15.373797 -12.126041 -0.11965335 0.019607844
-10.046121 -8.8497448 -1.4718114 0.019607844
-13.061654 -9.331625 -1.5265255 0.023529412
-15.339633 -13.371017 0.474397 0.0078431377
-20.158764 -14.282705 0.28587776 0.015686275
-11.69493 -10.257946 -1.1087017 0.082352944
-12.533498 -9.930644 -1.3298299 0.050980393
-12.727397 -12.291622 0.51710451 0.043137256
-16.302023 -12.843534 0.36209276 0.023529412
-10.608667 -10.294753 -0.96627092 0.047058824
-14.066518 -10.03271 -1.0252645 0.047058824
-15.775872 -13.743799 1.2277337 0.0039215689
-13.542652 -10.711154 0.70959604 0.0039215689
-12.094051 -10.598901 -0.76443261 0.047058824
-13.111675 -10.377603 -0.89351356 0.039215688
-13.735636 -12.001749 2.2647812 0.011764706
-16.448116 -12.956851 1.7252369 0.023529412
-11.093223 -10.751432 -0.64297599 0.035294119
-15.049318 -10.718366 -0.65831894 0.015686275
-12.681429 -10.04628 2.9915204 0.0078431377
-13.007286 -11.378914 -0.41204396 0.039215688
-3.5073907 -2.9335756 -2.2507222 0.039215688
-12.043725 -11.565972 -0.29988271 0.05882353
-14.23595 -11.165642 -0.53804791 0.027450981
-3.827332 -3.5139186 -1.5240204 0
-14.038984 -12.173705 -0.0044601308 0.035294119
-17.100927 -12.059406 -0.25095257 0.023529412
-6.7601328 -6.0009117 -1.4468975 0.06666667
-8.5125074 -6.7740321 -1.4199554 0.031372551
-12.985856 -12.447648 0.10131466 0.039215688
-15.508064 -12.141806 -0.12032621 0.023529412
-10.131552 -8.8598108 -1.4795216 0.023529412
-13.133443 -9.3120689 -1.5309787 0.023529412
-14.187578 -12.299847 0.43806979 0.0078431377
-20.2644 -14.249848 0.2866827 0.0039215689
-11.770232 -10.249499 -1.1123235 0.074509807
-12.60288 -9.9124184 -1.3334022 0.050980393
-13.073857 -12.530124 0.52915603 0.019607844
-10.679518 -10.289277 -0.96933645 0.047058824
-14.176967 -10.034719 -1.0306091 0.05882353
-13.082129 -10.280737 0.68412942 0.0039215689
-12.176689 -10.594275 -0.76721984 0.047058824
-13.182683 -10.357408 -0.89580798 0.043137256
-16.6166 -12.992899 1.737927 0.039215688
-11.189052 -10.766148 -0.64623255 0.031372551
-15.158948 -10.714721 -0.66138452 0.015686275
-12.311924 -10.710546 4.4330583 0.047058824
-12.585294 -9.9002285 2.961422 0.015686275
-13.104875 -11.381471 -0.41380852 0.035294119
-3.5176122 -2.9202054 -2.2507181 0.031372551
-12.12211 -11.558145 -0.30078486 0.047058824
-14.332092 -11.158383 -0.54013646 0.023529412
-3.7806449 -3.4498141 -1.5024389 0
-4.4496965 -3.6305156 -1.2012117 0.0078431377
-14.173184 -12.200808 -0.0044618803 0.019607844
-17.261587 -12.080082 -0.25262779 0.023529412
-6.8022051 -5.9939876 -1.4511982 0.05882353
-8.5487299 -6.7527852 -1.4219685 0.031372551
-13.061455 -12.431084 0.10157803 0.035294119
-15.648992 -12.161626 -0.12104636 0.027450981
-10.223262 -8.8745117 -1.4880896 0.027450981
-13.218385 -9.3011484 -1.5369204 0.023529412
-14.261015 -12.274896 0.43901017 0.0078431377
-21.995171 -15.333241 0.31020886 0.0039215689
-11.848672 -10.243223 -1.116225 0.070588239
-12.675464 -9.8962469 -1.3373002 0.05882353
-14.555674 -13.819623 0.58600175 0.015686275
-17.132578 -13.291862 0.37827146 0.054901961
-10.773854 -10.305171 -0.97445345 0.043137256
-14.373168 -10.094881 -1.0420126 0.062745102
-15.98445 -13.726278 1.2363518 0.011764706
-12.256388 -10.586626 -0.76982021 0.047058824
-13.253714 -10.336847 -0.89810216 0.054901961
-13.846411 -11.92636 2.2691936 0.023529412
-16.772854 -13.018266 1.7493178 0.015686275
-11.282193 -10.777607 -0.64932549 0.027450981
-15.281917 -10.719499 -0.66501015 0.015686275
-12.566556 -9.8145876 2.9492474 0.0039215689
-13.196527 -11.378335 -0.41538578 0.039215688
-3.5157149 -2.8987234 -2.2439506 0.039215688
-12.213274 -11.565653 -0.30203965 0.039215688
-14.442356 -11.165219 -0.54281002 0.023529412
-3.7772927 -3.4238491 -1.4970405 0
-4.442945 -3.6004879 -1.1964971 0.011764706
-14.225842 -12.162951 -0.0044494113 0.027450981
-17.420494 -12.102877 -0.25430366 0.015686275
-6.8402381 -5.9855561 -1.4548838 0.06666667
-8.5805712 -6.7305255 -1.4234762 0.031372551
-13.187847 -12.465323 0.10224821 0.039215688
-15.791316 -12.185832 -0.12179092 0.031372551
-10.283144 -8.8650198 -1.4923685 0.027450981
-13.291926 -9.2853889 -1.5417461 0.015686275
-15.706553 -13.401494 0.481383 0.015686275
-21.976517 -15.211819 0.30926317 0.0039215689
-11.919306 -10.233539 -1.1195678 0.062745102
-12.755904 -9.8891792 -1.3421768 0.05882353
-13.167652 -12.446815 0.52953154 0.0078431377
-17.275438 -13.308719 0.38043696 0.047058824
-10.849037 -10.306234 -0.97803223 0.047058824
-14.531913 -10.131632 -1.0508531 0.035294119
-12.044753 -10.339085 0.93455076 0.019607844
-13.247421 -10.261626 0.6890263 0.0078431377
-12.343532 -10.588445 -0.77298111 0.047058824
-13.329333 -10.323112 -0.9008168 0.054901961
-13.879793 -11.874228 2.2682343 0.039215688
-16.968542 -13.076971 1.7649319 0.011764706
-11.370737 -10.787873 -0.65225554 0.031372551
-15.393332 -10.719531 -0.66821635 0.015686275
-16.240349 -13.849555 5.7792654 0.019607844
-13.129396 -10.173063 3.0704269 0.0039215689
-13.295538 -11.384765 -0.4172444 0.035294119
-3.5292184 -2.8868277 -2.2456372 0.043137256
-12.308662 -11.568274 -0.30329293 0.050980393
-14.534348 -11.14945 -0.54466373 0.023529412
-4.4310203 -3.5641756 -1.190212 0.011764706
-14.341115 -12.168324 -0.0044460562 0.027450981
-17.570724 -12.109527 -0.25578922 0.023529412
-6.8803806 -5.9744253 -1.4585687 0.05882353
-8.6115332 -6.7026281 -1.4244776 0.035294119
-12.596428 -11.832063 0.097373813 0.023529412
-15.931842 -12.198748 -0.122486 0.031372551
-10.306391 -8.8184824 -1.4910696 0.027450981
-13.365451 -9.2622328 -1.5461982 0.023529412
-15.792491 -13.373319 0.48251083 0.023529412
-22.134802 -15.19951 0.31071663 0.0039215689
-11.996652 -10.221747 -1.1231886 0.090196081
-12.836706 -9.8747025 -1.3467261 0.047058824
-14.878795 -13.92343 0.59494704 0.023529412
-17.295322 -13.222531 0.37983289 0.031372551
-10.933834 -10.30838 -0.98212254 0.043137256
-14.740902 -10.193539 -1.0629541 0.062745102
-12.04877 -10.265642 0.93201268 0.027450981
-13.5758 -10.430198 0.70381176 0.0039215689
-12.425303 -10.577696 -0.77558053 0.047058824
-13.402223 -10.299398 -0.90311003 0.050980393
-13.376421 -11.36816 2.181092 0.019607844
-16.994043 -12.996766 1.7626765 0.011764706
-11.460299 -10.790854 -0.65502071 0.031372551
-15.535138 -10.731341 -0.67254114 0.015686275
-16.305862 -13.80111 5.7844577 0.019607844
-15.123991 -11.593354 3.5163946 0.0039215689
-13.389487 -11.378212 -0.41882062 0.031372551
-3.5392761 -2.8733819 -2.2456331 0.043137256
-12.393342 -11.564507 -0.30433553 0.047058824
-14.624469 -11.135769 -0.54651803 0.023529412
-4.4214211 -3.5311718 -1.1847122 0.011764706
-14.36807 -12.104361 -0.0044275783 0.019607844
-17.712486 -12.113934 -0.25718147 0.035294119
-6.9194951 -5.9643459 -1.4622537 0.050980393
-8.6635122 -6.69276 -1.4290184 0.043137256
-12.758954 -11.897281 0.098316059 0.019607844
-16.073746 -12.216053 -0.12320543 0.027450981
-10.31256 -8.7611094 -1.4876268 0.027450981
-13.447288 -9.2477312 -1.5517675 0.015686275
-15.888448 -13.357699 0.48400795 0.019607844
-12.075365 -10.214231 -1.1270896 0.094117649
-12.909454 -9.8573132 -1.3506236 0.047058824
-14.97758 -13.916047 0.59693134 0.015686275
-17.315712 -13.141852 0.37929714 0.054901961
-11.022896 -10.317397 -0.98672622 0.043137256
-14.783023 -10.145367 -1.0634043 0.06666667
-11.964354 -10.123356 0.9229781 0.0078431377
-12.502232 -10.566187 -0.77799386 0.039215688
-13.466919 -10.272931 -0.9049843 0.039215688
-17.08725 -12.971998 1.7675689 0.015686275
-11.557019 -10.80347 -0.65827668 0.043137256
-15.715182 -10.771807 -0.67854732 0.015686275
-16.46126 -13.831477 5.8217258 0.0078431377
-13.475409 -11.368448 -0.42021018 0.031372551
-3.5492878 -2.8599 -2.2456291 0.043137256
-12.490019 -11.571004 -0.30565962 0.047058824
-14.733965 -11.135859 -0.54907346 0.023529412
-3.7777548 -3.3507838 -1.4840811 0.027450981
-4.4274163 -3.5099411 -1.1831372 0.011764706
-14.546436 -12.164491 -0.0044364445 0.023529412
-17.704752 -12.017635 -0.25645718 0.027450981
-6.9647441 -5.9590707 -1.4671696 0.047058824
-8.7059641 -6.6755266 -1.4320425 0.035294119
-13.468201 -12.454906 0.10342512 0.047058824
-16.232048 -12.244408 -0.12404343 0.023529412
-10.303072 -8.691205 -1.4820391 0.023529412
-13.515939 -9.2239285 -1.5558478 0.015686275
-15.996873 -13.351702 0.48587513 0.015686275
-12.151093 -10.20376 -1.1307111 0.090196081
-13.004679 -9.8561316 -1.3568031 0.043137256
-15.100234 -13.929581 0.59984177 0.015686275
-17.515804 -13.194401 0.38264212 0.031372551
-11.121048 -10.333943 -0.99209905 0.027450981
-14.748583 -10.046069 -1.0584952 0.043137256
-11.947085 -10.037424 0.91904718 0.0078431377
-12.569963 -10.546678 -0.77984697 0.039215688
-13.531598 -10.24613 -0.90685838 0.039215688
-14.029986 -11.742517 2.272176 0.027450981
-11.648044 -10.81018 -0.66120565 0.047058824
-15.895701 -10.81114 -0.68455309 0.015686275
-16.500469 -13.76548 5.8186398 0.015686275
-13.583094 -11.37595 -0.42225486 0.035294119
-3.5351408 -2.8348517 -2.2355051 0.035294119
-12.568285 -11.573502 -0.30678138 0.043137256
-14.814787 -11.126461 -0.55092871 0.019607844
-3.7946231 -3.3476164 -1.4884175 0.011764706
-4.4170237 -3.4834018 -1.1792309 0.019607844
-14.668937 -12.190974 -0.0044398671 0.027450981
-17.523355 -11.819674 -0.25342241 0.027450981
-7.0023575 -5.9561229 -1.4721044 0.047058824
-8.7468596 -6.6659656 -1.4360918 0.035294119
-13.442089 -12.358136 0.10297971 0.027450981
-16.429161 -12.313234 -0.12523527 0.031372551
-10.300021 -8.6377525 -1.4786084 0.031372551
-13.575752 -9.2046604 -1.5599304 0.015686275
-16.119959 -13.371085 0.48848227 0.011764706
-22.025087 -14.801476 0.30725369 0.0039215689
-12.211514 -10.19227 -1.1337813 0.078431375
-13.094199 -9.861495 -1.3633132 0.043137256
-15.203719 -13.939897 0.60240132 0.023529412
-18.051003 -13.505527 0.39340845 0.039215688
-11.236938 -10.377991 -0.99979109 0.047058824
-14.771112 -9.9965363 -1.0582463 0.043137256
-12.099948 -10.102182 0.92856401 0
-13.555886 -10.201488 0.69784611 0.0039215689
-12.650105 -10.549035 -0.78301412 0.035294119
-13.599932 -10.233373 -0.90957564 0.050980393
-15.93087 -13.217964 2.5677552 0.015686275
-17.218645 -12.894125 1.772809 0.062745102
-11.726871 -10.817962 -0.66398156 0.039215688
-16.070599 -10.857337 -0.69069558 0.015686275
-14.730397 -12.24256 5.194706 0.0039215689
-14.676862 -11.026283 3.3902545 0.0039215689
-13.668975 -11.377683 -0.42393017 0.027450981
-3.5391603 -2.8170919 -2.2321188 0.05882353
-12.659358 -11.573672 -0.30796406 0.043137256
-14.918134 -11.120684 -0.55324966 0.023529412
-3.7733209 -3.3066065 -1.4765459 0.011764706
-4.4133158 -3.4552741 -1.1753011 0.015686275
-14.798542 -12.208923 -0.0044389255 0.023529412
-17.424131 -11.665032 -0.25142899 0.035294119
-7.0415587 -5.9454112 -1.4757893 0.050980393
-8.7925148 -6.6506348 -1.439621 0.039215688
-13.643389 -12.451087 0.10419556 0.031372551
-16.536665 -12.301835 -0.12569228 0.047058824
-10.385809 -8.6455841 -1.4863176 0.031372551
-13.641082 -9.1779604 -1.5636379 0.015686275
-16.368773 -13.476895 0.49451303 0.0078431377
-22.347351 -14.901332 0.31101272 0.0039215689
-12.278065 -10.173517 -1.1365634 0.082352944
-13.176854 -9.8498478 -1.3681883 0.047058824
-15.311975 -13.938825 0.60473371 0.023529412
-17.254814 -12.826013 0.37533763 0.0078431377
-11.270118 -10.334918 -0.99952203 0.035294119
-14.922709 -10.020551 -1.0663854 0.043137256
-17.010441 -12.647848 0.86977065 0.023529412
-12.724156 -10.533804 -0.78523999 0.043137256
-13.66784 -10.208252 -0.91165924 0.086274512
-15.97691 -13.161143 2.5677729 0.015686275
-17.295753 -12.856312 1.7760773 0.039215688
-11.806327 -10.813066 -0.66625625 0.043137256
-16.288788 -10.918613 -0.69824076 0.015686275
-16.014557 -13.192484 5.6220741 0.0039215689
-13.770834 -11.379011 -0.42578697 0.027450981
-3.5465283 -2.8007915 -2.2304237 0.054901961
-12.761591 -11.579024 -0.30935714 0.043137256
-15.030037 -11.116337 -0.55580342 0.023529412
-4.425952 -3.4378908 -1.1752958 0.015686275
-14.946196 -12.235965 -0.0044396506 0.023529412
-17.339455 -11.516891 -0.24962299 0.035294119
-7.0879779 -5.9381499 -1.4807044 0.050980393
-8.832902 -6.6288157 -1.4421387 0.035294119
-12.907125 -11.707944 0.098297417 0.027450981
-16.643198 -12.284534 -0.12612447 0.039215688
-10.473289 -8.651041 -1.4940262 0.047058824
-13.711328 -9.1506481 -1.5677168 0.015686275
-16.599047 -13.56067 0.4998976 0.023529412
-22.56263 -14.923009 0.31325155 0.011764706
-12.35575 -10.159702 -1.1401834 0.094117649
-13.264532 -9.8377113 -1.3733883 0.050980393
-14.018565 -12.691671 0.55276895 0.015686275
-11.367706 -10.345265 -1.004637 0.023529412
-15.039616 -10.016953 -1.0719606 0.043137256
-14.253471 -11.68117 1.083578 0.0039215689
-17.428953 -12.853797 0.88845867 0.0078431377
-12.800095 -10.515897 -0.78746521 0.039215688
-13.753695 -10.192047 -0.91479111 0.078431375
-16.105587 -13.165868 2.5804517 0.027450981
-11.902744 -10.818861 -0.66934729 0.043137256
-16.519566 -10.982115 -0.70620477 0.023529412
-13.877978 -11.379794 -0.42773649 0.027450981
-3.5557995 -2.7879422 -2.2304199 0.050980393
-12.847982 -11.577815 -0.31046987 0.039215688
-15.134992 -11.114378 -0.55824178 0.023529412
-4.4341455 -3.4198318 -1.1745059 0.011764706
-15.077452 -12.2575 -0.0044396129 0.027450981
-17.471565 -11.519112 -0.25092143 0.015686275
-7.1230965 -5.9258456 -1.4837741 0.050980393
-8.8612804 -6.6030469 -1.4431405 0.035294119
-13.838125 -12.448349 0.10504199 0.031372551
-16.810497 -12.319269 -0.12703305 0.027450981
-10.520593 -8.6300488 -1.4965886 0.043137256
-13.761661 -9.1170397 -1.569936 0.015686275
-16.706503 -13.554285 0.50176525 0.019607844
-22.403828 -14.712269 0.31041488 0.0039215689
-12.433084 -10.152389 -1.1440843 0.078431375
-13.35535 -9.8344898 -1.3792416 0.047058824
-15.231733 -13.673582 0.59793711 0.015686275
-20.457911 -14.942087 0.44185224 0.031372551
-11.437929 -10.338064 -1.0077019 0.031372551
-15.166613 -10.026711 -1.0784689 0.043137256
-13.421833 -9.8829241 0.68587762 0.0039215689
-12.875541 -10.504666 -0.78987843 0.039215688
-13.839309 -10.182618 -0.91813409 0.12156863
-16.28894 -13.222579 2.6023808 0.039215688
-16.028843 -11.757766 1.6399528 0.0039215689
-11.983587 -10.817839 -0.67178583 0.039215688
-16.700195 -11.019612 -0.71220958 0.031372551
-13.031104 -9.6026793 2.9952395 0.0039215689
-13.965703 -11.372482 -0.42921939 0.027450981
-3.5689487 -2.775809 -2.2321062 0.050980393
-12.944577 -11.57679 -0.3117218 0.043137256
-15.25049 -11.111053 -0.56091201 0.023529412
-3.7599437 -3.2246029 -1.4592714 0.027450981
-4.4690032 -3.4183152 -1.1799953 0
-15.203888 -12.265434 -0.0044360827 0.027450981
-18.378613 -12.009251 -0.26298127 0.015686275
-7.1633797 -5.9132094 -1.4874581 0.050980393
-8.8951168 -6.5762496 -1.444647 0.035294119
-13.202532 -11.802008 0.099935651 0.031372551
-16.989044 -12.351637 -0.127987 0.027450981
-10.574003 -8.6074991 -1.4995787 0.031372551
-16.80628 -13.531434 0.50326473 0.023529412
-22.582129 -14.708832 0.31214672 0.015686275
-12.507789 -10.135242 -1.1474247 0.070588239
-13.443234 -9.821331 -1.3844414 0.043137256
-15.72159 -14.00028 0.61485887 0.011764706
-17.465258 -12.691566 0.37698936 0.023529412
-11.514851 -10.329002 -1.0110216 0.023529412
-15.206625 -9.9720221 -1.0786848 0.035294119
-12.951584 -10.485937 -0.79210335 0.035294119
-13.905807 -10.151517 -0.92000681 0.070588239
-16.306145 -13.136986 2.5975301 0.047058824
-16.175686 -11.77185 1.6503704 0.0039215689
-12.080376 -10.822579 -0.67487645 0.043137256
-16.87166 -11.04138 -0.71765214 0.031372551
-14.613411 -10.657689 3.3415637 0.0039215689
-14.070054 -11.369607 -0.43107495 0.031372551
-3.6131473 -2.788718 -2.2523937 0.039215688
-13.041315 -11.587451 -0.31311655 0.039215688
-15.3473 -11.106001 -0.56311715 0.019607844
-3.7670267 -3.2093813 -1.4581885 0.0039215689
-4.444521 -3.3782966 -1.1713563 0.0039215689
