# .PCD v0.7 - Point Cloud Data file format
VERSION 0.7
FIELDS x y z intensity
SIZE 4 4 4 4
TYPE F F F F
COUNT 1 1 1 1
WIDTH 1136
HEIGHT 1
VIEWPOINT 0 0 0 1 0 0 0
POINTS 1136
DATA ascii
96.457664 109.59045 -2.5661776 0.24705882
35.539085 33.275894 -1.4248006 0.023529412
5.3611312 5.654984 -2.2085612 0.031372551
8.4439707 8.0034666 -2.3477778 0.019607844
102.26089 105.32209 -0.016361319 0.24705882
120.77548 102.20245 -1.8607693 0.082352944
10.552147 10.99425 -2.3869154 0.023529412
13.581209 12.795122 -2.3894465 0.015686275
115.87901 131.62471 1.0001072 0.10980392
35.211456 32.97031 -0.2858457 0.023529412
12.309659 12.801955 -1.9248219 0.035294119
21.424358 18.224657 -2.6380737 0.0078431377
12.857459 13.365399 -1.3050591 0.05882353
13.66361 12.871984 -1.5421927 0.0039215689
35.203831 32.963207 0.83868301 0.031372551
33.387581 28.336725 -2.5608544 0.027450981
4.7920308 5.0696282 0.41175202 0
35.258923 33.014603 1.9671185 0.043137256
13.1815 13.698694 -0.89155138 0.031372551
35.589893 33.323277 -2.5654426 0.039215688
35.211807 32.970669 3.9412794 0.031372551
120.77383 102.201 -5.5462518 0.24705882
3.5017188 3.3639283 -2.309042 0.031372551
97.048569 109.47948 -2.5705276 0.24705882
35.532715 33.031483 -1.4193439 0.023529412
5.3766732 5.6247749 -2.2042241 0.031372551
8.4784822 7.9734755 -2.3477268 0.019607844
102.84772 105.18075 -0.015384136 0.24705882
121.3776 101.97973 -1.8633171 0.082352944
10.597102 10.956871 -2.3868401 0.019607844
13.644088 12.757928 -2.3913672 0.015686275
116.59196 131.49657 1.0034227 0.10980392
35.189274 32.713394 -0.28437081 0.023529412
12.422131 12.820937 -1.9341626 0.043137256
21.460972 18.121059 -2.6338077 0.0078431377
12.952557 13.36271 -1.309152 0.035294119
13.770679 12.875185 -1.5482824 0.0078431377
35.187515 32.711769 0.83573675 0.031372551
12.360513 14.071961 -1.2073525 0.0039215689
33.50832 28.232239 -2.5617335 0.027450981
4.4670882 4.6957388 0.38275361 0
35.24873 32.768486 1.9601256 0.043137256
13.191161 13.606419 -0.88846427 0.023529412
66.050163 61.297131 -4.7367573 0.23921569
35.193005 32.716881 3.925993 0.031372551
121.3942 101.99361 -5.5568967 0.24705882
104.72195 107.09505 -3.5032866 0.10196079
3.5166955 3.3530438 -2.3107328 0.031372551
97.6091 109.30144 -2.5747447 0.24705882
35.518139 32.776062 -1.4139699 0.023529412
5.3972545 5.6045508 -2.2042241 0.031372551
8.5134258 7.947176 -2.3492966 0.019607844
103.38418 104.95641 -0.015406886 0.24705882
122.02097 101.759 -1.8674458 0.082352944
10.639966 10.920292 -2.3874557 0.023529412
13.693676 12.71004 -2.3918722 0.015686275
117.17442 131.18118 1.0042872 0.10980392
35.173485 32.45919 -0.28328016 0.023529412
12.516513 12.822978 -1.9414525 0.035294119
21.456861 17.983171 -2.6252456 0.0078431377
12.976229 13.2891 -1.3066368 0.054901961
13.873536 12.875415 -1.5544739 0.0039215689
35.174679 32.460297 0.83261609 0.031372551
12.390718 14.002277 -1.2053026 0.0039215689
33.737358 28.213552 -2.5712843 0.027450981
35.236195 32.516865 1.9528191 0.043137256
66.171455 60.959541 -4.729413 0.23921569
35.183537 32.468475 3.9116931 0.031372551
5.0984116 5.8473353 -0.31980583 0
122.04362 101.77783 -5.5694923 0.24705882
10.997004 11.282308 -0.36981335 0
3.5337365 3.3451765 -2.3141146 0.027450981
98.107841 109.09033 -2.5778372 0.24705882
35.466991 32.500446 -1.407428 0.023529412
5.4167895 5.585216 -2.2042239 0.035294119
8.5440178 7.9195938 -2.350081 0.019607844
103.94162 104.7874 -0.015435586 0.24705882
122.67133 101.5767 -1.8719505 0.082352944
10.664101 10.868602 -2.3843787 0.023529412
14.280075 13.156648 -2.4853902 0.015686275
35.147755 32.208988 -0.28216586 0.023529412
12.592031 12.809787 -1.9461695 0.043137256
21.537924 17.922928 -2.6274776 0.0078431377
35.146011 32.207409 0.82928741 0.031372551
12.375417 13.887287 -1.1991525 0.0039215689
34.195656 28.392931 -2.598542 0.027450981
35.228481 32.282715 1.9461621 0.043137256
42.672359 43.096909 -2.8354106 0.035294119
66.035774 60.409897 -4.7046566 0.23921569
35.146511 32.207901 3.895118 0.031372551
122.52139 101.45261 -5.5750861 0.24705882
3.5415454 3.3312106 -2.3124235 0.031372551
98.624619 108.97383 -2.5824049 0.24705882
35.432701 32.264877 -1.4020542 0.023529412
5.4343109 5.56776 -2.2042239 0.039215688
8.5717602 7.8949375 -2.3508656 0.019607844
104.45974 104.64951 -0.015463779 0.24705882
123.30809 101.45201 -1.876785 0.082352944
10.681429 10.817862 -2.3806865 0.023529412
14.059791 12.874022 -2.4403996 0.0078431377
35.112495 31.974377 -0.28107524 0.023529412
12.682815 12.820387 -1.9538881 0.043137256
21.56951 17.834539 -2.6244988 0.0078431377
5.468802 5.6022787 0.18415633 0
111.41494 91.677261 1.6659615 0.062745102
14.067874 12.881365 -1.5665308 0.031372551
35.1078 31.970129 0.82602793 0.031372551
34.303196 28.300171 -2.5999382 0.027450981
35.190601 32.045265 1.9385308 0.043137256
42.663486 42.818104 -2.8258955 0.035294119
65.988556 59.987026 -4.6878724 0.23921569
118.52512 97.520897 -5.3794565 0.24705882
6.5853806 6.7194905 -0.22144608 0
3.5489244 3.3122332 -2.3090415 0.027450981
35.443405 32.026428 -1.3976145 0.023529412
5.4556518 5.5463495 -2.2042239 0.035294119
8.5990992 7.858839 -2.3500805 0.019607844
2.502878 2.6145062 0.00027868414 0
123.91369 101.15426 -1.8800666 0.082352944
10.703257 10.756772 -2.376379 0.023529412
14.085528 12.798201 -2.4363551 0.0078431377
99.981178 109.62191 0.84731835 0.10980392
35.095284 31.713034 -0.27996072 0.023529412
12.779924 12.818729 -1.9611779 0.043137256
21.582272 17.705784 -2.6177976 0.0078431377
35.090595 31.708824 0.82276881 0.031372551
5.206738 5.8441243 -0.50749135 0
34.430172 28.182888 -2.6013339 0.027450981
35.173779 31.783726 1.9308997 0.043137256
42.78788 42.614063 -2.8232832 0.035294119
66.037308 59.569687 -4.6750731 0.23921569
35.100876 31.718109 3.8655434 0.06666667
6.1449614 5.6494536 1.5394669 0
107.07671 106.4474 -3.5313289 0.10196079
3.5604687 3.299365 -2.3090413 0.031372551
35.414898 31.776802 -1.3921235 0.023529412
5.4722409 5.5241065 -2.2031448 0.035294119
8.623559 7.8256993 -2.3492951 0.019607844
105.60289 104.25352 -0.015518736 0.24705882
124.60799 100.99747 -1.8852286 0.082352944
10.74356 10.721658 -2.3769941 0.035294119
14.138998 12.756426 -2.437871 0.0039215689
99.754036 108.60934 0.84218472 0.10980392
35.080536 31.4779 -0.27896461 0.023529412
12.861415 12.809876 -1.9667525 0.031372551
21.609903 17.602304 -2.6137021 0.0078431377
14.260005 12.864615 -1.5772842 0.0039215689
35.066902 31.465725 0.81964839 0.031372551
34.571796 28.097246 -2.6045933 0.027450981
35.150436 31.540417 1.9235934 0.043137256
43.027431 42.553745 -2.8292522 0.035294119
66.280594 59.370274 -4.677588 0.23921569
35.071693 31.470041 3.8502688 0.031372551
99.845566 108.70888 -6.0326242 0.24705882
3.5735285 3.2901587 -2.3107321 0.031372551
100.2629 108.47672 -2.5954037 0.24705882
35.391994 31.556108 -1.3873336 0.023529412
5.4895697 5.5064759 -2.2031446 0.039215688
8.6510353 7.8007627 -2.3500798 0.019607844
125.20824 100.83325 -1.8894984 0.082352944
10.780014 10.690209 -2.3776095 0.023529412
14.223502 12.751063 -2.4454532 0.0039215689
99.34758 107.4877 0.83591068 0.10980392
35.041691 31.24493 -0.2778739 0.023529412
12.947043 12.813531 -1.9736133 0.023529412
21.677513 17.543905 -2.6151896 0.0078431377
13.141764 13.004327 -1.3007673 0.0039215689
14.371883 12.882888 -1.5851052 0.0039215689
6.6473937 7.3234839 0.29003432 0
35.037006 31.240784 0.81666654 0.031372551
34.734566 28.048162 -2.610183 0.027450981
6.1323891 6.1363435 0.5104202 0
35.1119 31.307327 1.9161246 0.043137256
43.286476 42.540997 -2.8374603 0.035294119
65.93222 58.686489 -4.6400352 0.23921569
11.452264 12.515234 -0.69596958 0.0039215689
3.5861399 3.275908 -2.3107321 0.031372551
4.2522974 4.6992064 -0.11220186 0
35.368946 31.292561 -1.3817257 0.023529412
5.5162005 5.490222 -2.205302 0.039215688
8.6779871 7.7643876 -2.3492944 0.019607844
106.70382 103.87811 -0.015572133 0.24705882
125.87276 100.5733 -1.8936721 0.082352944
10.812487 10.639965 -2.3757629 0.027450981
99.181229 106.48478 0.83107388 0.10980392
35.047398 31.00913 -0.27697232 0.023529412
13.056032 12.821436 -1.9826182 0.015686275
21.769625 17.479908 -2.6181657 0.0078431377
5.7892504 5.7557302 0.19193646 0
13.260266 13.020023 -1.3074741 0.0039215689
14.469101 12.869284 -1.5903188 0.0039215689
9.4679546 10.291586 0.40874222 0
35.030708 30.994434 0.8137545 0.031372551
35.054241 28.083464 -2.6260238 0.027450981
35.10294 31.058121 1.9091432 0.043137256
43.632854 42.552227 -2.8493991 0.039215688
66.004265 58.297661 -4.6293335 0.23921569
5.9061761 5.8694253 1.0337048 0
35.042313 31.0047 3.8232946 0.06666667
99.110977 106.40947 -5.9433198 0.24705882
110.92619 88.643143 -4.9768381 0.24705882
98.162399 95.573006 -3.2044864 0.10196079
3.6030123 3.2676852 -2.3141136 0.031372551
35.336571 31.044672 -1.3762347 0.023529412
5.5381069 5.4731493 -2.2063806 0.043137256
8.7109442 7.7387538 -2.3508637 0.019607844
107.29601 103.72681 -0.015604852 0.24705882
126.54282 100.3862 -1.8984575 0.082352944
10.829665 10.58248 -2.3714554 0.035294119
14.528585 12.831042 -2.4813426 0.027450981
99.653679 106.24532 0.83191735 0.10980392
35.026012 30.77285 -0.2759524 0.023529412
13.149352 12.822285 -1.9899081 0.0078431377
21.821152 17.395926 -2.6170475 0.0078431377
14.585937 12.881253 -1.5981394 0.0039215689
35.015312 30.7635 0.81091172 0.031372551
41.755558 33.193619 -3.117626 0.043137256
35.072811 30.813841 1.9016746 0.043137256
43.933491 42.546295 -2.8592863 0.039215688
66.04808 57.926994 -4.6182122 0.23921569
35.021339 30.76881 3.80932 0.031372551
99.695251 106.2896 -5.9560552 0.24705882
111.52947 88.488304 -4.989994 0.24705882
7.2862668 6.4917598 1.796888 0
3.6061909 3.2474968 -2.3090408 0.031372551
100.12553 106.00381 -2.5620387 0.24705882
35.31797 30.810518 -1.3713275 0.023529412
5.5571795 5.4533272 -2.2063804 0.043137256
8.7319851 7.7026978 -2.3492937 0.019607844
107.83641 103.52284 -0.015629508 0.24705882
127.1502 100.14623 -1.9023026 0.082352944
10.886509 10.563303 -2.3757625 0.035294119
14.603232 12.805822 -2.4863968 0.027450981
100.16135 106.04169 0.83305752 0.10980392
35.015472 30.547611 -0.27502719 0.023529412
13.237087 12.817137 -1.99634 0.019607844
21.909908 17.341362 -2.6203959 0.0078431377
14.697009 12.887343 -1.6053084 0.0039215689
35.007774 30.540939 0.80827707 0.031372551
13.262326 14.160507 -1.2506628 0.0039215689
41.858616 33.037334 -3.1166911 0.043137256
35.044407 30.572794 1.8943684 0.043137256
6.4098754 6.2709374 -0.42243496 0
66.120239 57.582962 -4.6091886 0.23921569
34.981079 30.517775 3.7933955 0.062745102
100.21397 106.09731 -5.9648719 0.24705882
3.6191213 3.2381084 -2.3107316 0.027450981
2.8879488 3.1713161 -0.076235846 0
35.290524 30.591852 -1.3665373 0.047058824
5.5742865 5.4354291 -2.2063804 0.043137256
8.7561436 7.6748152 -2.3492932 0.015686275
108.38117 103.39287 -0.015660333 0.24705882
127.8297 100.03165 -1.9077463 0.082352944
10.911057 10.520461 -2.3739164 0.043137256
14.637387 12.754284 -2.4853854 0.027450981
100.66494 105.90573 0.83447164 0.10980392
35.020454 30.358614 -0.27431521 0.074509807
13.334873 12.829945 -2.0049162 0.015686275
21.885839 17.210711 -2.6110892 0.0078431377
14.80682 12.90063 -1.6128032 0.0039215689
32.6469 25.623106 -2.4268126 0.027450981
33.261642 28.83955 -2.3165228 0.039215688
35.094883 30.422953 3.795347 0.031372551
112.74374 88.238228 -5.0179849 0.24705882
110.59238 105.49973 -3.5747888 0.10196079
3.6309693 3.2243395 -2.3107314 0.027450981
35.208145 30.295263 -1.3590605 0.023529412
5.599772 5.4197721 -2.2085376 0.043137256
8.7812414 7.6396341 -2.3485079 0.019607844
108.99773 103.21982 -0.015693171 0.24705882
128.46729 99.772797 -1.9117785 0.082352944
10.94955 10.479915 -2.3739161 0.047058824
14.681028 12.697481 -2.484879 0.027450981
101.24069 105.7319 0.83602279 0.10980392
35.134533 30.23217 -0.27433708 0.023529412
13.430932 12.826959 -2.0122058 0.019607844
16.517673 12.916157 -1.9686598 0.0078431377
35.286301 33.499111 1.1297725 0.019607844
14.956917 12.934012 -1.6238827 0.0039215689
35.117691 30.217747 0.80606031 0.031372551
12.463338 13.135432 -1.1676326 0.0039215689
32.617561 25.40732 -2.4177237 0.027450981
35.305717 33.517487 2.8360386 0.019607844
35.166737 30.259813 1.8898247 0.043137256
35.355953 33.564968 -2.2800138 0.015686275
33.333771 28.688362 -2.3142138 0.039215688
35.130489 30.228764 3.7872233 0.031372551
86.955795 67.565872 -3.8603523 0.24705882
35.379101 33.586861 -1.1420267 0.019607844
3.6460323 3.2088759 -2.3090379 0.031372551
103.78568 107.62386 -2.6259196 0.24705882
35.162094 30.036823 -1.3526843 0.023529412
5.6308732 5.405036 -2.2106721 0.039215688
8.8144703 7.608489 -2.3484561 0.019607844
129.12289 99.554527 -1.9150828 0.082352944
10.981171 10.430347 -2.3713789 0.047058824
14.759096 12.668829 -2.4893203 0.019607844
101.79964 105.56682 0.83853483 0.10980392
35.20697 30.075041 -0.27372596 0.023529412
13.540239 12.833977 -2.0206811 0.019607844
35.244896 30.107342 0.80671084 0.031372551
12.571201 13.148811 -1.1726619 0.0039215689
32.617855 25.219635 -2.4104655 0.027450981
35.257561 30.118139 1.8889917 0.043137256
35.401028 33.366894 -2.2746603 0.015686275
33.458687 28.586788 -2.3151858 0.039215688
35.303211 30.157028 3.794028 0.031372551
90.620644 93.98822 -5.3354077 0.24705882
87.429245 67.439148 -3.8697994 0.24705882
3.6594245 3.1986952 -2.3107288 0.031372551
35.328674 29.976444 -1.3552513 0.023529412
5.6515841 5.3885493 -2.2117505 0.043137256
8.8336649 7.57374 -2.3468862 0.015686275
35.3046 33.05592 -0.0042834915 0.043137256
129.79855 99.390305 -1.9201928 0.082352944
11.015699 10.393465 -2.3713784 0.054901961
14.797999 12.616843 -2.4888139 0.019607844
102.32754 105.41183 0.83999777 0.10980392
120.7109 102.17084 -0.93508428 0.16862746
13.635064 12.837432 -2.0283992 0.019607844
16.77317 12.925917 -1.9875189 0.047058824
35.260002 33.014317 1.1218449 0.019607844
13.896895 13.081737 -1.3423008 0.0039215689
24.199415 20.566147 -2.6029863 0.011764706
32.647385 25.069675 -2.4065025 0.027450981
35.276985 33.030182 2.8154633 0.043137256
12.116686 10.349728 0.65213358 0.0039215689
35.575745 33.30888 -2.2787626 0.015686275
33.455692 28.392738 -2.3084722 0.039215688
67.031876 69.096245 -3.9348326 0.24705882
87.807953 67.267464 -3.876653 0.24705882
35.517147 33.254223 -1.1386238 0.062745102
3.6677947 3.1831341 -2.3090377 0.031372551
121.17962 101.84303 -4.6249614 0.15686275
5.6703634 5.3683515 -2.2117503 0.043137256
8.8600531 7.5424209 -2.3468857 0.015686275
35.276009 32.798824 -0.0042622252 0.043137256
130.48874 99.197426 -1.9252551 0.082352944
11.049018 10.351823 -2.3707628 0.047058824
14.848032 12.569774 -2.4898241 0.019607844
102.87677 105.23936 0.84148377 0.10980392
121.28741 101.93359 -0.93678033 0.16862746
13.714807 12.821754 -2.0335441 0.023529412
16.929201 12.951157 -2.0005438 0.0078431377
35.225437 32.751987 1.1171212 0.019607844
13.869305 12.964908 -1.3353144 0.0039215689
24.43594 20.619534 -2.6205814 0.011764706
3.0411818 3.2337794 0.13191029 0
32.779228 24.988935 -2.4097614 0.027450981
35.248543 32.773407 2.8040891 0.06666667
66.458214 61.689964 -4.2367797 0.074509807
33.505661 28.234243 -2.3051143 0.039215688
67.202805 68.789986 -3.9307506 0.24705882
88.487946 67.298592 -3.8962462 0.24705882
35.471684 32.980114 -1.1334822 0.019607844
3.6766543 3.1668923 -2.3073466 0.031372551
121.82237 101.62303 -4.6352291 0.15686275
5.6928372 5.3496838 -2.2128289 0.043137256
8.887639 7.5094409 -2.346885 0.019607844
35.257607 32.541595 -0.0042416546 0.043137256
131.14528 98.939552 -1.9295653 0.082352944
11.069431 10.294749 -2.3670707 0.043137256
14.887908 12.509735 -2.4888122 0.019607844
103.44993 105.052 0.84301567 0.10980392
121.95824 101.73631 -0.93906701 0.16862746
13.808542 12.814022 -2.0404043 0.019607844
17.052885 12.946097 -2.0094745 0.0078431377
35.192184 32.481441 1.1123052 0.019607844
14.09882 13.08101 -1.3526387 0.0039215689
24.428658 20.460468 -2.6117814 0.011764706
13.083746 13.396046 -1.2069973 0.0039215689
33.023663 24.983543 -2.4209406 0.027450981
35.239101 32.524609 2.7938759 0.06666667
66.460358 61.239956 -4.2226 0.074509807
33.900436 28.353739 -2.325038 0.039215688
67.446045 68.534225 -3.9302597 0.24705882
66.266342 50.039124 -2.9109216 0.24705882
35.445156 32.714085 -1.1288078 0.043137256
3.6904826 3.1559134 -2.3090372 0.031372551
122.46593 101.43629 -4.6461978 0.15686275
5.7171693 5.3345375 -2.2149861 0.043137256
8.9077568 7.4729323 -2.3453147 0.019607844
35.229221 32.288399 -0.0042206948 0.043137256
131.8037 98.71553 -1.9341574 0.082352944
11.09655 10.247611 -2.3652241 0.035294119
14.90092 12.431956 -2.4837568 0.023529412
104.04995 104.92538 0.84491318 0.10980392
122.57767 101.52881 -0.94109368 0.16862746
13.908987 12.816259 -2.0485508 0.0078431377
17.136244 12.914686 -2.0139391 0.0078431377
35.181347 32.244686 1.1084155 0.019607844
24.761015 20.59066 -2.6394782 0.011764706
13.119184 13.338522 -1.205972 0.0039215689
33.260948 24.980114 -2.4318869 0.027450981
35.219742 32.27977 2.7834303 0.06666667
66.449501 60.802345 -4.2084212 0.074509807
34.100769 28.318819 -2.3319578 0.039215688
67.682076 68.29509 -3.9300957 0.24705882
65.867683 49.378357 -2.8858564 0.24705882
35.432178 32.473747 -1.1247876 0.019607844
3.7003813 3.1439121 -2.309037 0.031372551
111.44622 91.729126 -4.2175407 0.15686275
5.7396059 5.3213358 -2.2171431 0.047058824
8.9251328 7.4395375 -2.3437445 0.019607844
35.191269 32.050835 -0.0042002453 0.043137256
132.43736 98.541603 -1.9388911 0.082352944
11.116982 10.201685 -2.3627622 0.035294119
14.93377 12.37965 -2.4827447 0.027450981
104.47233 104.69098 0.84566867 0.10980392
123.27296 101.45276 -0.94397235 0.16862746
13.999246 12.817546 -2.0558395 0.0039215689
17.269424 12.929302 -2.0247314 0.015686275
35.137371 32.001934 1.1038771 0.019607844
14.208908 13.007839 -1.3548729 0.0078431377
25.010355 20.664295 -2.6590285 0.011764706
35.179031 32.039764 2.7722886 0.06666667
66.282173 60.26799 -4.1858487 0.074509807
34.124771 28.15789 -2.3275511 0.039215688
67.755035 67.940376 -3.9219322 0.24705882
65.464256 48.755833 -2.8614914 0.24705882
35.388924 32.230202 -1.1202068 0.043137256
3.709621 3.1269093 -2.3073459 0.031372551
123.75979 101.05817 -4.6683679 0.15686275
5.7600012 5.2987776 -2.2171428 0.043137256
8.9597158 7.4096909 -2.3453135 0.019607844
35.183308 31.797209 -0.0041806679 0.043137256
133.1882 98.307205 -1.944327 0.082352944
10.574567 9.6347389 -2.2409301 0.023529412
14.987354 12.326755 -2.4837549 0.031372551
105.12332 104.53663 0.84768099 0.10980392
123.8383 101.1223 -0.94531178 0.16862746
22.155848 16.429247 -2.5863428 0.0078431377
35.129257 31.748545 1.0998023 0.019607844
14.297301 12.987415 -1.358505 0.0039215689
6.8760886 5.710012 0.15743691 0
29.340073 21.727076 -2.1350951 0.13333334
35.162346 31.778368 2.7613792 0.090196081
5.8865333 4.902782 0.3159174 0
66.400291 59.910931 -4.1787572 0.074509807
34.275982 28.061514 -2.3304853 0.039215688
5.8376522 5.3687506 0.98502642 0
67.870827 67.535591 -3.9136059 0.24705882
65.290649 48.237885 -2.8458056 0.24705882
35.37574 31.970493 -1.115906 0.019607844
3.7233336 3.1157856 -2.3090365 0.031372551
124.42252 100.87673 -4.6800365 0.15686275
5.7813368 5.2807698 -2.2182214 0.047058824
8.979435 7.3729939 -2.3437433 0.019607844
35.156937 31.551098 -0.0041603791 0.043137256
133.93399 98.136543 -1.9501864 0.082352944
10.611084 9.5999641 -2.2415452 0.011764706
15.051878 12.291403 -2.4872923 0.035294119
105.6841 104.36238 0.84925932 0.10980392
124.49206 100.93313 -0.94759792 0.16862746
14.226236 12.832961 -2.0751338 0.023529412
22.123087 16.285496 -2.5759199 0.0078431377
35.108715 31.50799 1.0957276 0.019607844
14.40204 12.99019 -1.3640929 0.011764706
25.176659 20.492022 -2.6606545 0.027450981
4.6576529 4.7161064 0.19545357 0
13.141629 13.084168 -1.1954654 0.0039215689
35.133167 31.529879 2.7504697 0.06666667
5.3601065 4.4415488 0.28749338 0
66.552437 59.627728 -4.17521 0.074509807
34.674824 28.185123 -2.3508284 0.039215688
67.878532 67.073273 -3.9005454 0.24705882
65.245758 47.853386 -2.8365602 0.24705882
4.8435154 4.4421377 1.7858244 0
35.358948 31.731743 -1.1118857 0.019607844
3.7302818 3.1014092 -2.3073454 0.027450981
6.2857809 5.15803 -0.23965403 0
5.7979007 5.2621903 -2.2182212 0.050980393
8.9933882 7.3369818 -2.3413882 0.019607844
35.130302 31.328516 -0.0041418374 0.043137256
134.59424 97.971344 -1.9552953 0.082352944
10.632329 9.5583153 -2.2396986 0.019607844
15.059507 12.218789 -2.4822364 0.031372551
106.19996 104.21429 0.85076904 0.10980392
125.1139 100.78693 -0.94990826 0.16862746
14.325938 12.84065 -2.0837092 0.039215688
17.639013 12.917435 -2.0518956 0.0078431377
35.076004 31.280277 1.0916526 0.015686275
14.505417 13.000153 -1.3699604 0.015686275
25.365149 20.512423 -2.6736875 0.027450981
13.273894 13.131846 -1.2036648 0.0039215689
35.097721 31.299599 2.7400243 0.019607844
66.494522 59.200336 -4.1599121 0.074509807
34.725857 28.045614 -2.3483093 0.039215688
67.860565 66.635513 -3.8874846 0.24705882
65.221184 47.520832 -2.8289955 0.24705882
35.320965 31.497931 -1.1075851 0.043137256
3.7444584 3.0895216 -2.309036 0.031372551
5.8142614 5.2378998 -2.2171421 0.050980393
9.023284 7.3059616 -2.3421724 0.019607844
35.109898 31.080021 -0.0041217832 0.043137256
135.2605 97.699295 -1.9597446 0.082352944
10.70286 9.5501995 -2.2470818 0.019607844
15.085588 12.148198 -2.4792023 0.027450981
106.79906 104.0359 0.85250771 0.10980392
125.76372 100.55193 -0.95202798 0.16862746
14.426589 12.834956 -2.0914268 0.011764706
22.285097 16.170982 -2.581871 0.0078431377
35.064453 31.039946 1.0877632 0.015686275
14.621791 13.007157 -1.3763866 0.015686275
25.35294 20.349197 -2.6645617 0.039215688
29.13158 21.111732 -2.1041045 0.015686275
35.05648 31.032934 2.7279544 0.06666667
66.249596 58.548721 -4.1311827 0.074509807
34.887711 27.965065 -2.3522921 0.039215688
67.849396 66.13784 -3.8729551 0.24705882
65.287933 47.203823 -2.8243694 0.24705882
35.328209 31.272579 -1.1042187 0.043137256
3.7518456 3.0744219 -2.3073449 0.027450981
109.16753 105.63715 -2.6680291 0.24705882
5.8344989 5.2207165 -2.2182205 0.047058824
9.0443916 7.27315 -2.341387 0.015686275
35.074379 30.841757 -0.0041014496 0.043137256
135.87633 97.459518 -1.9639601 0.082352944
10.734472 9.5142441 -2.2470813 0.015686275
15.097814 12.075501 -2.4746523 0.027450981
107.33903 103.86982 0.85406369 0.10980392
126.39726 100.37259 -0.95429015 0.16862746
14.48702 12.802361 -2.0939987 0.015686275
17.871197 12.895186 -2.0682683 0.0078431377
35.037865 30.809776 1.083781 0.015686275
14.724869 13.010781 -1.3819746 0.015686275
25.670137 20.462824 -2.6906288 0.027450981
7.317749 7.1926947 -0.66377252 0
35.024044 30.797686 2.7175093 0.10980392
66.32618 58.225616 -4.1239052 0.074509807
64.677666 51.408585 -4.3427868 0.24705882
67.87291 65.723198 -3.8618531 0.24705882
65.336876 46.909824 -2.8197443 0.24705882
35.290352 31.030985 -1.0998245 0.019607844
3.7597103 3.0586271 -2.3056538 0.031372551
5.8555961 5.2024093 -2.2192988 0.047058824
9.0604849 7.2338157 -2.3390317 0.015686275
35.070175 30.621542 -0.0040846383 0.043137256
136.65247 97.294838 -1.9702412 0.082352944
10.746749 9.4581165 -2.2427735 0.011764706
15.121177 12.007556 -2.4716184 0.031372551
107.94338 103.72669 0.85598528 0.10980392
127.0234 100.1481 -0.95636243 0.16862746
22.404392 16.024992 -2.5829837 0.0078431377
35.012463 30.571337 1.0797063 0.015686275
14.833414 13.013865 -1.3878418 0.015686275
25.750809 20.380051 -2.6916041 0.027450981
35.013847 30.572569 2.7084572 0.06666667
33.380035 29.150946 -2.0726311 0.015686275
64.527245 50.922527 -4.3207593 0.24705882
67.856857 65.250175 -3.847976 0.24705882
65.405777 46.613815 -2.8156784 0.24705882
35.268742 30.794289 -1.095804 0.062745102
3.7774971 3.0444057 -2.3056509 0.031372551
3.0727344 3.0394192 -0.0767309 0
5.8754077 5.1754436 -2.2171173 0.047058824
9.093564 7.2001076 -2.3389795 0.019607844
35.064804 30.384993 -0.00376375 0.043137256
137.40744 97.068909 -1.9746698 0.082352944
10.740122 9.3768692 -2.2328577 0.015686275
15.162361 11.944235 -2.4699931 0.027450981
108.48637 103.47833 0.85826313 0.10980392
127.73399 99.944321 -0.9577378 0.16862746
22.359026 15.864157 -2.5701602 0.0078431377
14.963164 13.024124 -1.3947164 0.0078431377
25.879152 20.321817 -2.6962838 0.011764706
29.253363 20.730406 -2.0964131 0.015686275
35.062885 30.383379 2.7034221 0.090196081
33.387569 28.936405 -2.0658145 0.015686275
64.355301 50.399544 -4.2958622 0.24705882
67.850792 64.760391 -3.8331332 0.24705882
65.498131 46.313068 -2.8114798 0.24705882
35.248909 30.543974 -1.0911989 0.062745102
3.785238 3.0285685 -2.3039598 0.031372551
5.3754497 5.1970057 -0.13210942 0
5.8963609 5.157002 -2.2181957 0.050980393
9.1217384 7.17032 -2.3397634 0.019607844
35.173672 30.26462 -0.0037620615 0.13725491
138.08932 96.82933 -1.9795851 0.082352944
10.751783 9.3209047 -2.2285502 0.015686275
15.197689 11.885969 -2.4689813 0.027450981
35.291229 33.502457 0.27931949 0.019607844
128.34744 99.703514 -0.95971221 0.16862746
14.873678 12.855753 -2.1286192 0.0039215689
22.231598 15.65764 -2.5493181 0.0078431377
15.06305 13.018167 -1.3997446 0.0039215689
26.006611 20.274956 -2.7021468 0.011764706
29.41057 20.687347 -2.1024666 0.015686275
35.153557 30.247414 2.7022631 0.019607844
33.458023 28.793282 -2.0639474 0.015686275
64.177376 49.899933 -4.2723689 0.24705882
6.0480814 5.2871695 0.99723047 0
35.378456 33.584965 -1.9949229 0.039215688
30.886459 21.721401 -1.324877 0.019607844
35.112453 30.212103 -1.0837226 0.019607844
3.7923923 3.0133932 -2.3022687 0.031372551
5.9163656 5.1395254 -2.2192738 0.050980393
9.1330433 7.1300588 -2.3366234 0.019607844
35.176411 30.064411 -0.0037480004 0.043137256
138.75117 96.608002 -1.9844537 0.082352944
10.767594 9.2719898 -2.2254732 0.019607844
15.215026 11.818151 -2.4654419 0.023529412
129.01004 99.533333 -0.96218294 0.16862746
14.985867 12.86528 -2.1384802 0.0039215689
18.530209 12.97241 -2.1220946 0.0078431377
35.218678 30.100435 1.076401 0.015686275
27.314087 23.366934 -2.5226583 0.011764706
26.083183 20.195507 -2.7031224 0.011764706
35.218803 33.212536 1.4073818 0.043137256
35.238476 30.117325 2.7011044 0.019607844
33.541164 28.67141 -2.0631995 0.015686275
42.107952 32.547676 -2.7984746 0.047058824
35.431404 33.412319 -1.9916575 0.039215688
35.178967 30.066572 -1.0826927 0.019607844
3.8086493 3.0041296 -2.3056502 0.031372551
35.250435 33.010456 -0.84844917 0.054901961
5.9313326 5.1159406 -2.218195 0.050980393
9.1516514 7.0929523 -2.335053 0.019607844
35.342232 29.992687 -0.0037533648 0.043137256
139.43645 96.363541 -1.9894153 0.082352944
10.805934 9.2390366 -2.2267029 0.019607844
15.237286 11.750086 -2.4624081 0.027450981
35.220211 32.982258 0.27698976 0.043137256
129.6553 99.310448 -0.96439302 0.16862746
17.541821 14.936468 -2.4930658 0.0078431377
22.419601 15.561709 -2.5586176 0.0078431377
35.363235 30.010471 1.0776079 0.015686275
27.36503 23.245258 -2.5198629 0.011764706
26.074377 20.04335 -2.6949747 0.011764706
35.200073 32.963474 1.4020481 0.043137256
13.97093 13.149178 -1.2363553 0.0039215689
29.577002 20.504011 -2.1043243 0.06666667
9.6100578 7.4438205 0.49854493 0
33.534275 28.463421 -2.0566697 0.015686275
42.116638 32.319962 -2.7915504 0.047058824
68.727325 64.256142 -3.8450394 0.24705882
120.67246 102.16773 -3.6956151 0.10196079
3.8220017 2.9925954 -2.3073406 0.031372551
35.230534 32.76173 -0.84521902 0.054901961
5.9550576 5.0997443 -2.2203519 0.050980393
9.1763592 7.0605478 -2.3350523 0.019607844
121.11043 101.81439 -0.01427208 0.24705882
140.24709 96.201385 -1.9961604 0.082352944
15.278214 11.696407 -2.4624066 0.027450981
35.194324 32.72818 0.27589354 0.062745102
130.35472 99.125404 -0.96700448 0.16862746
15.258049 12.912973 -2.1642039 0.015686275
18.774731 12.947716 -2.1395817 0.0078431377
26.074348 19.898729 -2.6878042 0.011764706
35.182972 32.717678 1.3968303 0.043137256
29.658283 20.40699 -2.1050203 0.015686275
6.8691177 5.8674779 0.53114933 0
33.541649 28.268675 -2.0510728 0.015686275
42.149693 32.111912 -2.786304 0.047058824
68.977608 64.039864 -3.8465052 0.24705882
121.28255 101.95889 -3.703362 0.10196079
3.8237433 2.9722772 -2.3022678 0.031372551
35.191639 32.497326 -0.8415677 0.054901961
5.9669061 5.0735846 -2.2181942 0.047058824
9.1978168 7.0257063 -2.3342667 0.019607844
140.91267 95.93589 -2.0008397 0.082352944
10.909632 9.1954584 -2.2347002 0.023529412
15.322111 11.644992 -2.4629109 0.027450981
35.167061 32.474716 0.27479738 0.062745102
131.01923 98.910332 -0.96935594 0.16862746
15.318298 12.871969 -2.1663468 0.023529412
22.590263 15.44656 -2.5656838 0.0078431377
25.955851 19.665556 -2.6685781 0.011764706
35.161617 32.469727 1.3914967 0.043137256
14.115255 13.099164 -1.2409658 0.0039215689
29.798666 20.350119 -2.1099088 0.015686275
5.3446012 4.1194558 0.27874267 0
33.91935 28.383904 -2.0680423 0.015686275
42.165833 31.892042 -2.780009 0.047058824
68.977203 63.592644 -3.8340981 0.24705882
7.4880018 5.7361636 1.7367369 0
121.9509 101.79583 -3.7128842 0.10196079
3.8306804 2.9570143 -2.3005767 0.031372551
35.175251 32.266705 -0.83861822 0.054901961
5.9866676 5.0558329 -2.2192724 0.050980393
9.1990948 6.9783115 -2.3287721 0.015686275
122.46597 101.53807 -0.014337976 0.24705882
10.95529 9.171442 -2.237776 0.023529412
15.328893 11.569934 -2.4578555 0.027450981
35.144676 32.238766 0.27379268 0.062745102
131.65067 98.702698 -0.97158962 0.16862746
15.446659 12.891737 -2.1783509 0.031372551
22.416941 15.219584 -2.5403759 0.0078431377
27.458508 22.841393 -2.5067258 0.011764706
26.049648 19.600487 -2.6715083 0.011764706
35.124516 32.220348 1.385815 0.043137256
14.185136 13.076127 -1.243271 0.011764706
29.905695 20.277605 -2.1127009 0.015686275
33.939445 28.209694 -2.0635641 0.015686275
34.048603 25.592245 -2.2406166 0.039215688
69.04908 63.236393 -3.8264246 0.24705882
30.070814 20.389154 -1.2748945 0.015686275
122.58962 101.64042 -3.7220323 0.10196079
3.8473139 2.946847 -2.3039579 0.031372551
35.157036 32.013496 -0.83538783 0.054901961
6.0021853 5.0309782 -2.2181935 0.050980393
9.1773939 6.9090171 -2.3169987 0.023529412
7.0564141 5.8977652 -0.00025530928 0.0039215689
78.361069 52.587276 -1.1078776 0.082352944
11.007151 9.1458569 -2.241467 0.023529412
15.371197 11.513242 -2.457854 0.019607844
35.129311 31.98834 0.27276531 0.062745102
132.36465 98.481583 -0.97417611 0.16862746
15.558319 12.887645 -2.1873541 0.031372551
111.44613 91.722816 3.3478346 0.074509807
78.869576 52.928085 1.0987966 0.062745102
27.70232 22.871944 -2.5212526 0.011764706
26.217299 19.5758 -2.6812809 0.011764706
35.106171 31.967361 1.3804815 0.043137256
14.306865 13.090687 -1.2496755 0.011764706
30.022943 20.196331 -2.115726 0.015686275
6.3626189 5.3273649 0.4884294 0
34.12286 28.15066 -2.0684106 0.015686275
42.470814 31.65802 -2.7854545 0.047058824
69.227104 62.93412 -3.8234835 0.24705882
30.185188 20.305077 -1.2765708 0.015686275
123.21771 101.4008 -3.7297783 0.10196079
3.8483186 2.9272203 -2.2988851 0.031372551
35.126373 31.773149 -0.83215761 0.050980393
6.0277901 5.0179625 -2.2214289 0.050980393
9.212882 6.8874698 -2.3201375 0.047058824
123.65828 101.077 -0.014380434 0.24705882
78.45179 52.271332 -1.1066967 0.082352944
11.037424 9.1089096 -2.2414663 0.023529412
15.377375 11.438243 -2.4527984 0.019607844
35.104485 31.753428 0.27176067 0.062745102
133.05739 98.312508 -0.97685808 0.16862746
15.656423 12.880861 -2.1950707 0.047058824
19.482 13.038966 -2.1991167 0.027450981
27.926374 22.900702 -2.534662 0.011764706
35.072426 31.724539 1.3750318 0.043137256
14.427288 13.11227 -1.2563363 0.0039215689
30.126331 20.120594 -2.1182849 0.015686275
34.243885 28.059692 -2.070087 0.015686275
29.685526 22.000881 -1.944283 0.015686275
69.390915 62.663658 -3.821032 0.24705882
30.24571 20.200041 -1.2762879 0.015686275
123.84757 101.23151 -3.738646 0.10196079
3.8672872 2.919786 -2.3039572 0.031372551
35.108932 31.535233 -0.82913774 0.050980393
66.449089 48.782562 -2.4088833 0.15294118
6.0422783 4.9940529 -2.2203498 0.050980393
9.2621775 6.8734045 -2.3264153 0.05882353
143.74072 94.985016 -2.0221376 0.082352944
11.081433 9.0798731 -2.2439265 0.023529412
15.407606 11.377049 -2.4512806 0.019607844
35.072056 31.50223 0.27066469 0.062745102
133.72882 98.088242 -0.9792558 0.16862746
15.753803 12.868301 -2.2023585 0.0078431377
22.714678 15.074934 -2.555999 0.0078431377
27.999943 22.797647 -2.5341015 0.027450981
26.108768 19.219343 -2.6568394 0.011764706
35.048889 31.481508 1.3698143 0.043137256
33.272423 29.891113 -2.8758209 0.047058824
30.289684 20.076508 -2.124804 0.015686275
34.599224 28.148447 -2.0855639 0.015686275
29.649368 21.814074 -1.9369404 0.015686275
69.686646 62.489975 -3.8252718 0.24705882
17.072201 11.34942 -0.72062343 0.0078431377
124.47971 101.02486 -3.7470462 0.10196079
3.8721027 2.9008937 -2.3005755 0.031372551
35.080795 31.278379 -0.8257668 0.050980393
66.359062 48.343063 -2.3991883 0.15294118
6.0635476 4.9738541 -2.2214282 0.050980393
9.3285484 6.8689651 -2.3366172 0.062745102
3.4094779 2.8380158 0.00019236986 0
11.12696 9.0486736 -2.2463868 0.023529412
15.445998 11.317732 -2.450774 0.023529412
35.061718 31.261438 0.2697061 0.062745102
134.38507 97.813408 -0.9814164 0.16862746
17.721804 14.35592 -2.4681892 0.0078431377
22.733139 14.967136 -2.551903 0.0078431377
5.9569211 4.8880939 0.18133835 0
28.083323 22.694431 -2.5340993 0.011764706
26.20484 19.141842 -2.6594439 0.011764706
35.032543 31.235535 1.364713 0.043137256
33.268383 29.667761 -2.8660831 0.043137256
30.366413 19.967106 -2.1250336 0.015686275
6.4802804 5.309278 0.49307439 0
34.776878 28.081131 -2.0900376 0.015686275
29.263929 21.366512 -1.9067388 0.015686275
7.6794419 6.2743268 1.2286092 0
98.174141 87.345718 -5.3690376 0.24705882
31.840794 20.932878 -1.3370262 0.019607844
3.8817031 2.887646 -2.300575 0.031372551
35.064384 31.055616 -0.82295758 0.050980393
66.078163 47.804012 -2.383307 0.15294118
6.0769997 4.950923 -2.2203488 0.050980393
9.3989754 6.8720474 -2.3483889 0.062745102
145.37274 94.610733 -2.0357175 0.082352944
11.169255 9.0212059 -2.2488472 0.023529412
15.480229 11.263738 -2.4502671 0.019607844
35.033241 31.028139 0.26870152 0.082352944
135.09781 97.647888 -0.98423934 0.16862746
17.791056 14.314067 -2.4711893 0.0078431377
19.771061 12.932879 -2.2162292 0.0078431377
28.108551 22.560932 -2.5296271 0.027450981
26.306955 19.082462 -2.6633515 0.027450981
35.013027 31.010317 1.3599592 0.043137256
33.240883 29.445936 -2.8553209 0.043137256
30.445848 19.874619 -2.1259623 0.015686275
34.922855 28.007675 -2.0932055 0.015686275
29.260139 21.215178 -1.9019129 0.015686275
98.681969 87.212387 -5.3809466 0.24705882
30.964977 20.212229 -1.2975531 0.019607844
5.3951955 4.405993 -0.1642822 0
3.8954029 2.8715897 -2.2988813 0.031372551
35.056015 30.824387 -0.81977445 0.050980393
66.085739 47.453514 -2.3767881 0.15294118
6.1068811 4.9340787 -2.2224817 0.050980393
9.4486446 6.8524985 -2.3530447 0.054901961
126.31789 100.33292 -0.013358136 0.24705882
83.764801 54.127018 -1.1699829 0.082352944
11.222781 8.9940281 -2.2518511 0.023529412
15.500289 11.190693 -2.4461155 0.019607844
35.024738 30.796995 0.26806903 0.062745102
135.84155 97.45887 -0.98592448 0.16862746
17.825764 14.234114 -2.4680541 0.0078431377
22.713987 14.729117 -2.5375924 0.0078431377
28.193838 22.462158 -2.5293965 0.027450981
26.493494 19.071306 -2.6745481 0.011764706
34.998497 30.774014 1.3552769 0.043137256
33.158096 29.160784 -2.8386364 0.043137256
30.588833 19.810997 -2.1303847 0.015686275
65.211288 51.838978 -3.8912241 0.074509807
29.369926 21.133331 -1.9035668 0.015686275
99.200264 87.048241 -5.3912845 0.24705882
3.9054046 2.8575859 -2.2988808 0.031372551
35.03669 30.591169 -0.81682569 0.050980393
66.071815 47.094673 -2.3703632 0.15294118
6.1270947 4.9147267 -2.2235599 0.050980393
9.4597254 6.8099914 -2.3499048 0.031372551
78.68528 50.460354 -1.0966206 0.082352944
11.266527 8.9641943 -2.2543113 0.023529412
15.500462 11.108525 -2.4400492 0.019607844
34.996254 30.555996 0.2670407 0.082352944
136.51007 97.217972 -0.9882943 0.16862746
83.960091 53.83839 1.1544238 0.062745102
28.281477 22.370628 -2.5302322 0.011764706
26.520927 18.95059 -2.6706362 0.011764706
34.973003 30.535776 1.3501744 0.043137256
33.121178 28.923931 -2.8268504 0.043137256
30.731781 19.751097 -2.135505 0.015686275
65.049751 51.341114 -3.8708942 0.074509807
68.243988 59.493752 -3.6992948 0.24705882
31.027847 19.940723 -1.2938111 0.019607844
122.5589 96.653786 -3.6469717 0.10196079
3.9123983 2.8414543 -2.2971897 0.035294119
35.022232 30.36368 -0.81401724 0.15686275
66.033333 46.720322 -2.3631217 0.15294118
6.1533179 4.9000373 -2.2267952 0.050980393
9.3584995 6.6882844 -2.3192964 0.027450981
127.56347 99.876663 -0.013398423 0.24705882
147.65892 93.904953 -2.052449 0.082352944
11.316432 8.9390326 -2.258002 0.023529412
15.487294 11.017331 -2.4319611 0.019607844
35.024025 30.365252 0.26644751 0.082352944
137.1786 96.973518 -0.99066406 0.16862746
17.865192 14.061982 -2.4599054 0.0078431377
22.930553 14.642031 -2.5502393 0.0078431377
84.569504 53.812729 1.1602116 0.062745102
28.437971 22.33284 -2.5372145 0.027450981
26.469694 18.774696 -2.6589048 0.011764706
35.058208 30.394815 1.3493646 0.13333334
33.101139 28.703337 -2.8166013 0.043137256
30.561258 19.491238 -2.1189663 0.015686275
64.832047 50.803123 -3.8473938 0.074509807
68.1912 59.030018 -3.6852574 0.24705882
31.016304 19.780437 -1.2904494 0.015686275
123.00893 96.31366 -3.6503241 0.10196079
3.9252634 2.8294718 -2.2988801 0.031372551
35.14925 30.259096 -0.81450605 0.050980393
66.123985 46.438671 -2.3605478 0.15294118
6.1734281 4.8805032 -2.2278733 0.050980393
9.3400402 6.625917 -2.309093 0.023529412
128.14824 99.614441 -0.013414108 0.24705882
84.783737 53.533733 -1.1762872 0.082352944
11.363174 8.911212 -2.2610774 0.023529412
15.535407 10.969651 -2.433476 0.019607844
35.117664 30.232008 0.26635814 0.019607844
137.92564 96.780762 -0.99359959 0.16862746
17.907888 13.994272 -2.4590464 0.0078431377
22.900671 14.51053 -2.5413063 0.0078431377
11.157126 8.7512388 0.33136523 0
28.572472 22.277111 -2.5422406 0.027450981
18.433041 13.001275 -1.8502727 0.0039215689
35.100372 30.217192 1.3469304 0.043137256
33.082989 28.485846 -2.806608 0.043137256
30.956745 19.590666 -2.1415536 0.015686275
64.548256 50.218304 -3.8201644 0.074509807
29.390112 20.683571 -1.8907678 0.1254902
31.071629 19.663136 -1.2898862 0.015686275
6.3755026 5.0374951 -0.19125445 0
3.9291668 2.8112228 -2.2954981 0.031372551
35.151154 30.04764 -0.81211841 0.050980393
66.197067 46.145535 -2.3573906 0.15294118
6.1843276 4.8538313 -2.2257156 0.05882353
9.3405762 6.5772028 -2.3035986 0.019607844
128.77074 99.378639 -0.01343372 0.24705882
78.934731 49.460613 -1.092796 0.082352944
11.409862 8.8831711 -2.2641528 0.023529412
15.54429 10.89457 -2.4289258 0.023529412
35.204704 30.09329 0.26622301 0.019607844
138.60403 96.535995 -0.99603951 0.16862746
17.978674 13.948289 -2.4620461 0.015686275
22.863401 14.375196 -2.5316286 0.0078431377
28.687981 22.206091 -2.5455909 0.027450981
26.583755 18.577295 -2.6572707 0.011764706
35.245201 30.127817 1.348441 0.043137256
32.957382 28.178221 -2.7876489 0.043137256
31.089254 19.522346 -2.1459749 0.015686275
64.400398 49.743435 -3.8011391 0.074509807
5.6138115 4.4139867 0.88765717 0
35.221539 30.107592 -1.8947122 0.039215688
3.9384713 2.7978063 -2.2954977 0.031372551
35.34219 30.008038 -0.81422091 0.050980393
66.3004 45.891273 -2.3556337 0.15294118
6.209568 4.839951 -2.228951 0.070588239
9.3494339 6.5369005 -2.3004584 0.023529412
7.4943495 5.823904 -0.00024103688 0.0039215689
149.89217 93.169754 -2.0699883 0.082352944
11.454951 8.8569269 -2.2672279 0.023529412
15.603188 10.858377 -2.4324622 0.019607844
139.30188 96.336922 -0.99873936 0.16862746
16.746067 12.908928 -2.2884088 0.015686275
22.82299 14.244284 -2.5219514 0.0078431377
28.786814 22.129868 -2.5478237 0.027450981
26.494352 18.384407 -2.6422818 0.011764706
32.870892 27.916235 -2.7725325 0.043137256
31.1674 19.427193 -2.1469033 0.015686275
64.257301 49.293564 -3.7830467 0.074509807
68.032784 57.678036 -3.6444502 0.24705882
3.9507189 2.7864118 -2.2971883 0.027450981
121.12513 101.9285 -2.77791 0.24705882
66.501678 45.704735 -2.3573782 0.15294118
6.2439804 4.8329539 -2.2354224 0.050980393
9.380764 6.5121493 -2.3028121 0.019607844
130.18477 99.097984 -0.013495398 0.24705882
150.69055 92.974106 -2.0767262 0.082352944
11.493697 8.8257017 -2.2690728 0.023529412
15.619479 10.792739 -2.4294283 0.019607844
140.03613 96.159233 -1.0016984 0.16862746
16.864754 12.910738 -2.298697 0.0078431377
22.775177 14.109632 -2.5115302 0.0078431377
28.853685 22.029089 -2.5472627 0.043137256
9.257431 6.4275966 0.19794714 0
32.807453 27.675703 -2.7594652 0.043137256
31.272442 19.348513 -2.1496947 0.015686275
64.156433 48.879086 -3.7675648 0.074509807
29.663851 20.429071 -1.8949531 0.015686275
68.034012 57.292294 -3.6343288 0.24705882
3.958395 2.7687526 -2.2954969 0.031372551
121.8596 101.74915 -2.7857587 0.24705882
66.85849 45.572327 -2.3637893 0.15294118
6.2655706 4.810833 -2.2365003 0.050980393
9.4057035 6.4756517 -2.3028111 0.019607844
130.78148 98.76075 -0.013506724 0.24705882
151.49355 92.667625 -2.0828512 0.082352944
11.543282 8.7929764 -2.2721479 0.023529412
15.654249 10.727788 -2.4284158 0.023529412
146.28867 122.12827 1.0921165 0.10980392
140.78464 95.879173 -1.0043957 0.16862746
17.041199 12.941268 -2.3158448 0.0078431377
22.778223 13.990488 -2.5059457 0.019607844
28.918959 21.903282 -2.5455835 0.043137256
31.745628 26.57485 -2.6618595 0.043137256
31.377176 19.246601 -2.1517866 0.015686275
9.3080263 7.1065006 0.68677276 0
64.120392 48.463478 -3.7545061 0.074509807
29.755293 20.323576 -1.8957888 0.015686275
68.096985 56.899628 -3.6260016 0.24705882
3.9705606 2.7572708 -2.2971873 0.031372551
122.45502 101.55849 -2.7916439 0.24705882
31.129772 21.107706 -1.0999089 0.011764706
6.2907381 4.7965889 -2.2397356 0.047058824
9.4238777 6.4418607 -2.3020253 0.019607844
131.46355 98.592422 -0.013534262 0.24705882
152.14194 92.371857 -2.0875247 0.082352944
11.588191 8.7661314 -2.2752233 0.023529412
15.666724 10.659901 -2.4248765 0.023529412
78.484306 53.103298 -0.55875564 0.15686275
17.163584 12.943937 -2.3265617 0.015686275
22.865347 13.939299 -2.5104082 0.019607844
29.112774 21.897823 -2.5561972 0.011764706
26.635866 18.071308 -2.6373868 0.011764706
4.5743008 3.8819401 0.17715892 0
6.7614465 4.6430316 0.14466521 0
31.753658 26.402849 -2.6551969 0.043137256
31.512518 19.185577 -2.1566739 0.015686275
7.7049661 5.8563819 0.56857699 0
6.6475229 4.5660634 0.33222598 0
64.111267 48.123234 -3.7446182 0.074509807
29.875481 20.260208 -1.8991408 0.015686275
68.076019 56.499737 -3.6149015 0.24705882
6.7170773 4.1421599 -0.27900058 0
3.9711304 2.736948 -2.2921147 0.031372551
111.43399 91.771652 -2.5332494 0.24705882
30.940924 20.822611 -1.0906864 0.011764706
6.3074446 4.7742128 -2.2397351 0.043137256
9.4365358 6.4019847 -2.29967 0.015686275
132.15671 98.392799 -0.013560328 0.24705882
79.369728 47.842007 -1.0871707 0.082352944
11.621893 8.7276001 -2.2758377 0.023529412
15.707134 10.606972 -2.4253802 0.027450981
111.35354 91.705521 0.8269887 0.10980392
142.19806 95.430344 -1.009793 0.16862746
17.262905 12.923914 -2.3338485 0.0078431377
22.951403 13.881609 -2.5144987 0.0078431377
28.974525 21.636116 -2.537477 0.011764706
26.649118 17.944532 -2.6324975 0.011764706
6.5453777 5.4761114 0.25071314 0
78.801476 52.917416 1.6510011 0.10980392
31.632925 26.116472 -2.6375184 0.043137256
31.668247 19.128622 -2.1627254 0.015686275
64.089714 47.758068 -3.7336111 0.074509807
30.00242 20.193237 -1.9027025 0.015686275
6.1697702 4.2114139 0.61733639 0
68.05677 56.083652 -3.6034746 0.24705882
3.9866991 2.726696 -2.2954957 0.031372551
123.74953 101.18108 -2.804956 0.24705882
30.763788 20.547939 -1.0819306 0.011764706
6.3271723 4.7540627 -2.2408133 0.043137256
9.4522982 6.3642678 -2.2980993 0.015686275
132.77933 98.137199 -0.013578615 0.24705882
153.80988 91.919861 -2.101512 0.082352944
11.665009 8.6959782 -2.2782977 0.019607844
15.734161 10.545092 -2.4238625 0.027450981
142.93991 95.205566 -1.0126796 0.16862746
22.924496 13.756087 -2.50631 0.0078431377
79.594749 47.599258 1.0736506 0.062745102
28.844454 21.38274 -2.5195951 0.011764706
26.509148 17.716265 -2.6126208 0.011764706
78.88916 52.577358 1.6489944 0.10980392
31.872295 26.126711 -2.6498127 0.043137256
31.799973 19.056467 -2.1671467 0.015686275
29.45911 21.836678 -1.7149132 0.0078431377
30.10931 20.112337 -1.9050058 0.015686275
68.001427 55.640526 -3.5902522 0.24705882
31.827755 19.073086 -1.301616 0.019607844
3.984097 2.7043808 -2.2887323 0.027450981
124.35979 100.95716 -2.8107698 0.24705882
30.705221 20.35409 -1.0773762 0.011764706
6.3592658 4.7429442 -2.246206 0.047058824
9.4482775 6.3135481 -2.29182 0.015686275
3.8015659 2.8679392 0.00016787951 0
154.69762 91.718376 -2.1092319 0.082352944
11.711235 8.6664963 -2.2813728 0.019607844
15.760945 10.483149 -2.4223444 0.031372551
143.71196 94.996605 -1.0157782 0.16862746
17.448944 12.872835 -2.3467073 0.015686275
22.910706 13.639048 -2.499609 0.0078431377
79.664085 47.263638 1.0723654 0.062745102
29.147408 21.44903 -2.5394275 0.011764706
26.580816 17.629818 -2.6135957 0.011764706
29.734253 24.206928 -2.46562 0.023529412
31.880043 18.953091 -2.1680744 0.015686275
79.408966 52.523731 3.8751864 0.24705882
29.319256 21.575031 -1.7024173 0.0078431377
30.229336 20.039736 -1.9081481 0.015686275
67.987282 55.233727 -3.5793147 0.24705882
31.962929 19.002226 -1.3044108 0.019607844
4.0001092 2.6901047 -2.2887292 0.031372551
124.89302 100.66193 -2.8135579 0.24705882
30.578787 20.112574 -1.07002 0.011764706
6.3917341 4.7271509 -2.2494159 0.050980393
9.460474 6.2693954 -2.2878447 0.015686275
134.15723 97.707687 -0.012451279 0.24705882
79.576675 46.832359 -1.0824689 0.082352944
11.748046 8.6251698 -2.2812979 0.023529412
15.79081 10.418953 -2.4202158 0.031372551
144.43114 94.743248 -1.0172238 0.16862746
18.18856 13.312206 -2.4383218 0.023529412
22.978565 13.566609 -2.5009327 0.019607844
80.190567 47.193249 1.0777829 0.062745102
28.973923 21.16118 -2.5171261 0.011764706
26.752234 17.604206 -2.6234913 0.011764706
4.995894 3.342917 0.10653923 0
29.797302 24.07996 -2.4630668 0.023529412
32.05941 18.903915 -2.1750512 0.015686275
29.249241 21.361563 -1.6934196 0.0078431377
30.339197 19.955498 -1.9100094 0.015686275
79.837265 52.401974 7.7963538 0.16862746
68.03093 54.870041 -3.5705495 0.24705882
134.46344 97.930428 -3.8852358 0.10196079
4.002933 2.6725228 -2.2853475 0.027450981
7.8685703 6.3770113 -0.17848231 0
30.765951 20.089228 -1.074217 0.011764706
6.4136195 4.7100945 -2.2515724 0.050980393
9.4614868 6.2248063 -2.2831349 0.015686275
2.9003687 2.1711853 0.00026012093 0
80.546898 47.043484 -1.0935208 0.082352944
11.78299 8.5904503 -2.2825274 0.023529412
15.815293 10.359693 -2.4186978 0.031372551
18.190701 13.221191 -2.4327469 0.023529412
23.006226 13.479957 -2.4990697 0.0078431377
29.710155 21.546108 -2.5746672 0.027450981
26.877289 17.558542 -2.6300039 0.039215688
7.1420445 5.7959008 0.26989186 0
31.195597 25.035379 -2.5714145 0.043137256
32.146065 18.811239 -2.1766777 0.015686275
81.443001 53.068676 3.9569633 0.24705882
29.219521 21.191559 -1.6876374 0.0078431377
30.448723 19.882761 -1.9127316 0.015686275
68.084534 54.541451 -3.5638552 0.24705882
32.236328 18.863916 -1.3097608 0.019607844
10.282516 7.5062323 3.4335589 0
135.1245 97.72728 -3.8949337 0.10196079
4.015749 2.6594148 -2.2870376 0.023529412
7.9576697 6.3999662 -0.17995429 0
30.785627 19.941254 -1.0723468 0.011764706
6.4308414 4.686172 -2.2515717 0.050980393
9.4710608 6.1811943 -2.279995 0.015686275
4.96592 3.6357093 6.2546809e-05 0
157.05193 90.898544 -2.126785 0.082352944
11.791915 8.5306988 -2.2782199 0.023529412
14.949743 9.7180624 -2.2817385 0.019607844
145.9493 94.287338 -1.0232235 0.16862746
18.209949 13.133192 -2.4288871 0.015686275
23.031345 13.381207 -2.4964623 0.0078431377
7.4180765 5.3942037 0.21524341 0
29.876474 21.499475 -2.5822062 0.027450981
26.867777 17.411964 -2.622834 0.011764706
32.266647 18.722906 -2.1801665 0.015686275
29.222309 21.030386 -1.6833466 0.015686275
30.548243 19.787979 -1.9144056 0.015686275
7.0607901 5.13801 1.0825485 0
81.286354 52.543217 7.9017196 0.16862746
68.518738 54.477543 -3.5760853 0.24705882
32.391762 18.7953 -1.3132544 0.019607844
10.331936 7.4838743 3.4408047 0
66.243896 47.579273 -1.9056846 0.10196079
