# .PCD v0.7 - Point Cloud Data file format
VERSION 0.7
FIELDS x y z intensity
SIZE 4 4 4 4
TYPE F F F F
COUNT 1 1 1 1
WIDTH 1136
HEIGHT 1
VIEWPOINT 0 0 0 1 0 0 0
POINTS 1136
DATA ascii
27.09642 45.04715 0.60642225 0.074509807
20.449772 43.045113 -3.3400657 0.027450981
21.450716 39.990952 -3.7132833 0.054901961
27.758598 51.694111 1.0184113 0.047058824
18.71052 44.924229 -3.125658 0.047058824
22.290211 37.087311 -2.5277612 0.027450981
28.980093 53.960167 2.4903364 0.10196079
19.877115 41.845112 -2.1643856 0.015686275
21.574558 40.220253 -2.3992028 0.039215688
5.7121816 10.78463 1.0002166 0
18.636497 44.74688 -1.98067 0.039215688
22.312649 37.124142 -1.5191256 0.031372551
20.929043 44.048046 -1.1405396 0.019607844
2.27426 4.3698554 -2.3182006 0.0078431377
18.603155 44.232624 -0.84249508 0.054901961
3.6054549 7.6932273 -2.3899047 0.0039215689
5.9990711 11.224325 -2.5550153 0.0039215689
21.192833 44.202534 -0.0048062699 0.043137256
27.278183 44.992886 -0.6193763 0.035294119
7.5203552 15.82047 -2.7325783 0.0039215689
11.43171 21.22164 -3.0760226 0.0039215689
24.707077 45.649868 -0.30762592 0.16862746
13.323568 27.867846 -3.3343511 0.015686275
18.892099 31.212269 -3.414423 0.023529412
29.05253 60.51812 1.5558348 0.043137256
27.30757 45.040771 0.60758537 0.074509807
22.347141 46.600361 -3.6221797 0.039215688
21.546412 39.834908 -3.7058129 0.054901961
27.733046 65.823021 2.0726738 0.10588235
27.78421 51.311901 1.0127667 0.047058824
18.971392 45.104618 -3.1428654 0.047058824
22.284622 36.787186 -2.5126312 0.027450981
5.1961055 10.993993 0.71088398 0
29.223629 53.960159 2.4950035 0.10196079
20.853664 43.499405 -2.2538288 0.015686275
21.730091 40.172417 -2.4009106 0.039215688
7.5194693 15.816535 2.155092 0.0039215689
18.904661 44.946232 -1.9924628 0.039215688
22.296652 36.806625 -1.5093369 0.031372551
7.0959835 14.936423 4.4419694 0.0039215689
3.0191958 5.7393665 1.1919127 0
20.667917 43.113319 -1.1182023 0.019607844
2.2912433 4.3647175 -2.3198948 0.0078431377
18.661661 43.942696 -0.83823794 0.054901961
28.412222 52.034786 -1.7335799 0.043137256
3.6306067 7.6767793 -2.3888316 0.015686275
6.040103 11.206403 -2.5558083 0.0039215689
27.481089 44.97205 -0.62044585 0.10980392
7.5686274 15.779549 -2.7301276 0.0039215689
11.479033 21.132534 -3.0689585 0.0039215689
19.463915 45.821133 0.28509101 0.043137256
24.708673 45.275349 -0.30570444 0.16862746
13.422511 27.824392 -3.3348 0.015686275
20.187731 33.080952 -3.6267061 0.023529412
29.024136 59.923248 1.5431176 0.043137256
27.52319 45.040295 0.60884035 0.050980393
22.34573 46.184368 -3.5959339 0.039215688
21.553156 39.517853 -3.6833448 0.054901961
7.7092533 18.289974 0.57810634 0.0039215689
27.780588 50.88105 1.0061535 0.047058824
19.034687 44.817493 -3.1275177 0.047058824
22.285564 36.501175 -2.4984338 0.027450981
9.4902124 19.731585 1.2765213 0.0039215689
29.457916 53.941582 2.4988592 0.10196079
20.30327 41.981323 -2.1788192 0.015686275
22.378859 41.024281 -2.456569 0.039215688
22.307968 36.53738 -1.5015107 0.031372551
2.757967 5.8795314 1.7526439 0
12.012686 22.103594 4.5936189 0.0039215689
20.75362 42.907482 -1.1147702 0.062745102
2.3064625 4.3563437 -2.3198979 0.0078431377
18.89724 44.067928 -0.84192657 0.054901961
28.409962 51.602493 -1.7225071 0.043137256
3.6590726 7.6671681 -2.3899159 0.0078431377
6.0810738 11.188337 -2.556601 0.0039215689
27.703064 44.980984 -0.62193996 0.10980392
7.6271329 15.759785 -2.7313697 0.0039215689
11.554634 21.095467 -3.069479 0.0039215689
19.558788 45.601978 0.28412548 0.062745102
24.764013 45.002937 -0.30447358 0.25098041
13.475764 27.687752 -3.3240967 0.015686275
20.784664 33.789124 -3.7123795 0.023529412
17.585033 36.066418 0.93106091 0.015686275
27.72858 45.021866 0.60986555 0.050980393
22.353947 45.794044 -3.5716443 0.039215688
21.733355 39.518806 -3.6905458 0.027450981
28.318495 65.92086 2.081846 0.10588235
19.121458 44.589149 -3.1162715 0.047058824
22.295244 36.232605 -2.4854016 0.027450981
4.5782685 9.5405149 0.61922443 0
29.686583 53.911572 2.502228 0.10196079
21.853418 44.772751 -2.3278134 0.015686275
22.384747 40.697342 -2.4416933 0.039215688
9.8852606 18.072214 1.684384 0.0039215689
1.0090029 2.5725152 -0.11265357 0
22.319752 36.271927 -1.4938246 0.031372551
9.9981632 18.275782 3.8057284 0.0039215689
20.973663 42.978058 -1.1185451 0.019607844
2.3251848 4.3542485 -2.323283 0.0039215689
3.9315467 9.2628393 -0.17578852 0
28.408976 51.177807 -1.7116675 0.043137256
3.6824012 7.6470923 -2.3877637 0.0078431377
6.1067343 11.142703 -2.5511138 0.0039215689
24.763611 50.262192 -0.0058660163 0.05882353
24.683464 39.784523 -0.55110115 0.090196081
7.6785975 15.725625 -2.7301502 0.0039215689
11.639792 21.075449 -3.0725281 0.0039215689
19.687534 45.463387 0.28366035 0.062745102
24.936535 44.943821 -0.30469617 0.20784314
4.1529322 8.5977163 -1.0327444 0
17.517561 35.61377 0.92095232 0.011764706
27.942675 45.016106 0.61107457 0.074509807
22.357981 45.400642 -3.5470743 0.039215688
21.741198 39.208996 -3.6687291 0.027450981
19.425148 44.862171 -3.1401441 0.047058824
22.275909 35.920334 -2.4693382 0.027450981
29.956291 53.953899 2.5090039 0.10588235
9.4845781 17.204851 1.6067262 0
22.317303 35.986469 -1.4852967 0.031372551
6.9727039 12.695333 2.6493566 0
2.3440022 4.3425999 -2.3216007 0.0039215689
3.7127559 7.6304016 -2.3866947 0.0078431377
6.1605954 11.138077 -2.5550489 0.0039215689
24.685068 39.470829 -0.54795182 0.06666667
7.7423682 15.705462 -2.7313926 0.0039215689
11.68176 20.96862 -3.0629318 0.0039215689
19.836988 45.361107 0.28343597 0.062745102
25.157389 44.960804 -0.30542618 0.16862746
13.663467 27.570963 -3.3215568 0.015686275
18.761806 30.036718 -3.3143256 0.023529412
28.183691 45.043316 0.61276197 0.074509807
21.779833 38.948315 -3.651463 0.027450981
19.907965 45.522095 1.4425241 0.047058824
25.224747 45.080299 0.89676136 0.043137256
19.206427 43.927628 -3.0794101 0.047058824
22.304623 35.679695 -2.4581571 0.027450981
30.222206 53.977627 2.5149908 0.10588235
22.380291 40.016975 -2.4102473 0.039215688
7.8553205 14.154113 1.3247249 0
19.333139 44.215488 -1.9719992 0.039215688
22.331259 35.721809 -1.4775965 0.031372551
6.7891827 12.255424 2.5626018 0
2.3555768 4.3277488 -2.3182218 0.0039215689
19.24143 43.592396 -0.83673537 0.054901961
3.7445662 7.6273837 -2.3899364 0.0039215689
6.1955757 11.109344 -2.5534866 0.0039215689
17.700228 35.349434 -0.0036371476 0.13725491
24.692263 39.177902 -0.54510093 0.06666667
7.7918172 15.667415 -2.7295575 0.0039215689
11.74316 20.906664 -3.0599127 0.0039215689
19.990355 45.280277 0.28333494 0.062745102
25.371347 44.973316 -0.30614918 0.1254902
13.745327 27.494345 -3.318145 0.015686275
18.870808 29.97744 -3.3150914 0.023529412
17.744169 35.436352 0.91952389 0.094117649
28.362144 44.978123 0.61319 0.050980393
21.81352 38.691319 -3.634536 0.027450981
25.441084 45.096043 0.89880615 0.043137256
19.354801 43.849033 -3.0786729 0.047058824
17.780178 35.507313 2.3114347 0.070588239
30.406517 53.86451 2.5146282 0.10588235
17.642809 35.236122 -1.8412268 0.88627452
22.364363 39.66367 -2.3936908 0.039215688
19.083874 43.237701 -1.9313581 0.039215688
11.286122 20.096928 4.2093043 0.0039215689
17.675428 35.300541 -0.92326808 0.27450982
19.427814 43.601288 -0.83824384 0.054901961
28.605799 50.275761 -1.6915228 0.043137256
3.7729149 7.6173673 -2.3910213 0.011764706
5.6548924 10.072232 -2.3195503 0
17.859745 35.358429 -0.0036735306 0.054901961
24.686962 38.868546 -0.54201376 0.090196081
7.842886 15.632737 -2.728338 0.0039215689
11.794433 20.827301 -3.0543652 0.0039215689
19.708593 44.227856 0.27718836 0.019607844
25.571815 44.96056 -0.30670536 0.16862746
13.814219 27.392668 -3.3117304 0.015686275
18.804062 29.642393 -3.2853203 0.023529412
27.454605 43.209087 0.59041858 0.023529412
17.818998 35.279297 -2.7704818 0.062745102
21.865444 38.469177 -3.6208692 0.027450981
25.643959 45.08651 0.90036643 0.043137256
20.047695 44.98679 -3.1635561 0.047058824
22.314901 35.148689 -2.4323237 0.054901961
30.332813 53.299538 2.4931746 0.10196079
17.781992 35.206055 -1.8429322 0.87058824
22.37793 39.36647 -2.3804929 0.039215688
19.208565 43.112122 -1.9287758 0.039215688
22.317928 35.153133 -1.4605391 0.1254902
10.094654 20.063745 6.0281601 0.0039215689
3.6416428 6.5442572 1.3746912 0
2.3875406 4.3136759 -2.3199189 0.011764706
20.265078 45.048981 -0.86753345 0.054901961
3.7889459 7.5832496 -2.3845534 0.0078431377
6.2651587 11.051558 -2.5503621 0.0039215689
24.810064 48.624931 -0.0057902145 0.05882353
24.677628 38.556355 -0.53887886 0.06666667
7.9064126 15.622524 -2.7314262 0.0039215689
11.871019 20.792555 -3.0553913 0.0039215689
19.854612 44.140244 0.27704278 0.062745102
25.792442 44.981644 -0.30749995 0.16862746
13.895244 27.315634 -3.3083186 0.015686275
21.184994 33.121277 -3.6793406 0.023529412
27.42506 53.730011 1.3981303 0.043137256
27.520937 42.98143 0.588597 0.023529412
20.921469 41.033939 -3.2284644 0.027450981
21.924026 38.260994 -3.6085064 0.027450981
20.268312 45.055084 1.4343166 0.043137256
25.847059 45.076126 0.90192658 0.043137256
20.09281 44.668854 -3.1461568 0.047058824
22.424503 35.050102 -2.4309492 0.027450981
5.0589423 10.061633 0.65862685 0
30.267479 52.756554 2.4726951 0.10196079
17.922983 35.178997 -1.844824 0.85490197
22.373741 39.041985 -2.3656151 0.039215688
22.436172 35.067963 -1.460283 0.062745102
3.6428707 6.49366 1.3668008 0
2.404402 4.3081198 -2.3216128 0.0078431377
28.536726 49.351376 -1.6671493 0.043137256
3.8136251 7.5662241 -2.3834801 0.0078431377
6.3036952 11.02929 -2.55037 0.0039215689
24.825422 48.239185 -0.0057777585 0.17254902
24.690325 38.281635 -0.53626281 0.090196081
7.9572663 15.587475 -2.7302065 0.0039215689
11.917637 20.706041 -3.0488324 0.0039215689
20.113142 44.299606 0.27844241 0.019607844
26.007498 44.991344 -0.3082231 0.16862746
8.7941189 17.207174 -2.0871284 0.0039215689
19.410944 30.128218 -3.3542559 0.023529412
27.559206 53.530598 1.3954097 0.17647059
27.494719 42.612823 0.58484644 0.023529412
20.930883 40.701534 -3.2080839 0.027450981
22.003424 38.090794 -3.59973 0.027450981
26.048391 45.061409 0.90341753 0.043137256
22.525003 34.937767 -2.4286418 0.054901961
3.4591579 6.8789372 0.45167935 0
30.158609 52.145531 2.448972 0.10196079
22.379587 38.738739 -2.3519967 0.039215688
9.2373018 18.063255 2.4953592 0.0039215689
22.549746 34.975681 -1.4597465 0.062745102
7.1689658 12.518927 2.6385577 0
24.95421 48.488987 -1.2757987 0.035294119
2.4186773 4.2998061 -2.3216157 0.011764706
19.681814 42.976498 -0.83017749 0.050980393
28.397564 48.738384 -1.6496383 0.039215688
3.8440342 7.563467 -2.3867216 0.0039215689
6.3521152 11.028323 -2.5550876 0.0039215689
24.811588 47.822788 -0.0057574478 0.11372549
24.672947 37.978111 -0.53317314 0.06666667
8.0016146 15.546663 -2.7277555 0.0039215689
11.952201 20.607851 -3.0402498 0.0039215689
20.565945 44.897305 0.28256986 0.043137256
26.207035 44.99086 -0.3088493 0.16862746
14.038606 27.138641 -3.2984908 0.015686275
21.275074 32.768822 -3.6562965 0.023529412
27.690407 53.349922 1.3930613 0.086274512
22.071285 37.917484 -3.5902998 0.027450981
1.1355162 2.6730256 0.087093778 0
26.262281 45.084946 0.90560222 0.043137256
20.05599 43.790642 -3.0939226 0.047058824
22.627661 34.842484 -2.4272654 0.027450981
3.8158205 7.508163 0.49366552 0
30.061089 51.582561 2.4271982 0.062745102
22.362791 38.415699 -2.3369067 0.039215688
7.2962794 14.190492 1.9641191 0.0039215689
18.289846 39.952038 -1.7957323 0.06666667
22.643782 34.866905 -1.4583671 0.031372551
2.0682609 3.6993227 0.78252912 0
24.952335 48.093533 -1.2675933 0.035294119
2.4263108 4.2785134 -2.3148546 0.0078431377
19.841808 42.928974 -0.83063054 0.050980393
28.390907 48.338951 -1.6394968 0.039215688
3.8704109 7.5496712 -2.3867269 0.011764706
6.3746409 10.97872 -2.5488148 0.0039215689
24.814676 47.423935 -0.0057416814 0.11372549
24.691137 37.717609 -0.53074515 0.06666667
8.0521555 15.511308 -2.7265353 0.0039215689
12.009957 20.541748 -3.0367246 0.0039215689
20.746119 44.87571 0.28285554 0.019607844
26.416712 44.98838 -0.30950096 0.16862746
14.111055 27.046894 -3.2933626 0.015686275
19.16503 29.309107 -3.2775807 0.023529412
27.844839 53.192432 1.391451 0.086274512
24.763859 37.827961 0.52163452 0.05882353
21.211155 40.564537 -3.2086995 0.027450981
22.154922 37.75745 -3.5825014 0.027450981
30.549604 65.984558 2.1095233 0.10980392
20.168367 43.633152 -3.0878019 0.047058824
22.731594 34.736263 -2.4254241 0.027450981
29.977163 51.029369 2.4060721 0.062745102
21.14925 40.446262 -2.1327739 0.015686275
22.356813 38.099617 -2.3224475 0.039215688
22.745584 34.757256 -1.4571292 0.031372551
24.950838 47.683655 -1.2591082 0.035294119
2.4386346 4.2670112 -2.3131666 0.011764706
20.435333 43.826 -0.8493709 0.054901961
22.296465 37.710403 -1.2811487 0.023529412
3.8918202 7.5296726 -2.3845744 0.011764706
6.4170179 10.967324 -2.5511773 0.0039215689
24.797724 47.012321 -0.0057208645 0.16862746
24.679199 37.428432 -0.52784353 0.086274512
8.0979977 15.473729 -2.7246995 0.0039215689
12.104341 20.545845 -3.0433121 0.0039215689
20.813362 44.632484 0.28173453 0.062745102
26.616798 44.98621 -0.31012726 0.16862746
14.187637 26.975035 -3.2903781 0.015686275
19.191771 29.138802 -3.2656829 0.023529412
27.991127 53.04295 1.3899353 0.12941177
24.758909 37.548546 0.51889986 0.05882353
21.285797 40.380814 -3.1997797 0.027450981
7.078289 15.31181 0.49168342 0.0039215689
26.676754 45.086769 0.90920848 0.043137256
20.228277 43.384975 -3.0750136 0.047058824
22.842247 34.653721 -2.4249806 0.027450981
29.887056 50.492928 2.3854353 0.05882353
22.343357 42.377789 -2.2386556 0.015686275
6.4507356 12.360943 1.7172345 0
3.0562854 5.3062787 0.50471777 0
7.2104735 13.794859 4.1821365 0.0039215689
24.951633 47.303482 -1.2512763 0.035294119
2.4617047 4.2701373 -2.3199337 0.011764706
20.618044 43.797466 -0.85031843 0.054901961
22.38728 37.549191 -1.278486 0.070588239
3.9157612 7.5082145 -2.3824222 0.0078431377
6.4612002 10.950114 -2.5527556 0.0039215689
24.81908 46.638523 -0.0057102558 0.16862746
24.676355 37.127773 -0.52489692 0.086274512
8.1546555 15.443596 -2.7247112 0.0039215689
12.175484 20.49419 -3.0423157 0.0039215689
20.964827 44.530251 0.28154179 0.019607844
26.843136 44.990963 -0.31087598 0.1254902
14.258299 26.869888 -3.2839639 0.015686275
28.245634 53.052528 1.392855 0.21960784
24.765385 37.260902 0.51616293 0.074509807
22.34923 42.016209 -3.335973 0.027450981
22.317614 37.433598 -3.5665772 0.054901961
30.561621 64.822029 2.0790815 0.10588235
26.889072 45.067276 0.91076696 0.043137256
20.421274 43.382366 -3.0801735 0.047058824
22.946934 34.536205 -2.4226739 0.027450981
29.805006 49.936939 2.3643088 0.05882353
3.6121838 6.9391451 -0.36576313 0
22.363693 37.510132 -2.2960474 0.039215688
6.7691245 12.848146 1.7883141 0
8.0197124 13.551829 1.2889123 0
20.841274 44.269989 -1.9998599 0.039215688
8.4717541 16.034307 4.8702188 0.0039215689
8.1353798 13.744468 2.9202566 0.0039215689
24.953373 46.890392 -1.2427918 0.031372551
2.474725 4.2580814 -2.3182459 0.011764706
22.342627 37.179497 -1.2685699 0.019607844
3.9529078 7.514513 -2.3889008 0.011764706
6.4973621 10.9238 -2.5519783 0.0039215689
24.809113 46.230801 -0.0056911763 0.10980392
24.671934 36.841908 -0.52209026 0.062745102
8.2122679 15.42166 -2.7259529 0.0039215689
12.251055 20.458021 -3.0433416 0.0039215689
17.876343 37.658894 0.23874733 0.015686275
27.062037 44.999393 -0.31162316 0.1254902
14.352015 26.819616 -3.283983 0.015686275
19.253151 28.781898 -3.2411447 0.023529412
28.438253 52.967358 1.3931874 0.043137256
24.763653 36.978046 0.51342773 0.074509807
22.348169 41.663586 -3.3141944 0.027450981
22.295731 37.102547 -3.5424747 0.027450981
27.108229 45.075527 0.9128114 0.043137256
20.943926 44.088646 -3.1355801 0.047058824
23.047312 34.425732 -2.420599 0.027450981
5.8796153 9.899168 0.47114667 0
22.352325 41.670883 -2.2097793 0.015686275
22.352097 37.195522 -2.2815874 0.039215688
7.2903266 13.708428 1.9114928 0
9.1175642 15.264227 1.4545773 0
21.18503 44.593407 -2.0178621 0.039215688
8.7770662 14.699455 3.1295755 0.0039215689
24.963299 46.517494 -1.2352414 0.031372551
2.4925992 4.2557302 -2.3216305 0.0039215689
21.219225 44.28611 -0.86269104 0.054901961
3.3721745 5.7016463 -0.19338712 0
3.9722946 7.4908915 -2.385669 0.0078431377
6.51929 10.878416 -2.54649 0.0039215689
24.794336 45.838615 -0.0056716516 0.10980392
24.666159 36.570786 -0.5194236 0.086274512
8.2652531 15.397498 -2.7265787 0.0039215689
12.306466 20.39662 -3.0403209 0.0039215689
27.347399 57.018696 0.36106843 0.054901961
27.263073 44.99453 -0.31224954 0.16862746
14.412416 26.719133 -3.2775667 0.015686275
19.471298 28.898952 -3.2616465 0.023529412
27.818047 51.406975 1.3545887 0.06666667
24.733664 36.670185 0.51028085 0.090196081
21.776045 40.280933 -3.2099314 0.027450981
22.230177 36.71809 -3.5128272 0.027450981
30.324198 63.203167 2.0337045 0.10588235
27.303276 45.060246 0.91430384 0.043137256
21.081373 44.000645 -3.1343284 0.047058824
23.145679 34.325645 -2.4189889 0.054901961
44.308968 81.777306 5.4076943 0.078431375
29.645906 48.912651 2.3253081 0.05882353
22.347408 41.332855 -2.1958048 0.015686275
22.344587 36.905849 -2.2683849 0.039215688
9.5803213 15.911486 1.5192122 0
21.630909 45.142014 -2.0459921 0.054901961
24.949516 46.124882 -1.2270335 0.031372551
2.5036535 4.2404885 -2.3182516 0.015686275
21.370201 44.204235 -0.86258215 0.054901961
23.34519 38.249763 -1.3106145 0.023529412
3.9984214 7.4766459 -2.3856745 0.0078431377
6.563375 10.865292 -2.5488527 0.0039215689
24.781319 45.435677 -0.0056520808 0.16470589
24.683231 36.32222 -0.51713556 0.15294118
8.3189545 15.368217 -2.7265897 0.0039215689
27.582973 56.998116 0.36150432 0.054901961
27.47641 44.990829 -0.31292525 0.1254902
14.517062 26.689253 -3.2801595 0.015686275
19.392523 28.567268 -3.231873 0.070588239
27.812975 50.972492 1.3456749 0.031372551
24.71953 36.37513 0.50736266 0.090196081
21.525627 39.490337 -3.1529212 0.027450981
22.306149 36.554947 -3.5047014 0.054901961
17.550488 36.33717 1.1719626 0.043137256
27.516834 45.056396 0.91614062 0.043137256
21.179052 43.811546 -3.1261559 0.047058824
23.254118 34.22781 -2.4178467 0.027450981
4.6440358 8.6547604 0.5750584 0
29.55961 48.389378 2.3053212 0.05882353
22.338057 40.973873 -2.180898 0.015686275
22.345976 36.619534 -2.2556033 0.039215688
4.7827096 8.9078007 1.2473377 0
9.8441267 16.217541 1.5516859 0
21.781382 45.05151 -2.0453708 0.054901961
23.281906 34.268265 -1.4534612 0.031372551
24.95867 45.760063 -1.2196693 0.031372551
2.5259356 4.2344995 -2.3200099 0.0078431377
20.845448 42.731972 -0.83497351 0.050980393
27.698708 44.99173 -1.5449282 0.039215688
4.0244994 7.4522219 -2.3824799 0.011764706
6.6130304 10.852023 -2.5512097 0.0039215689
24.78096 45.050961 -0.0053048204 0.16078432
24.835787 36.265224 -0.51727599 0.086274512
0.85827452 1.7160037 -0.30353326 0.0039215689
12.429127 20.269066 -3.0341754 0.011764706
17.520813 35.945263 0.22923096 0.015686275
27.687141 44.97263 -0.31313711 0.16862746
14.567665 26.551083 -3.2693048 0.015686275
19.470629 28.459732 -3.2272046 0.023529412
27.820347 50.556232 1.3376076 0.06666667
24.879049 36.327888 0.5081988 0.090196081
21.890669 39.816406 -3.1848247 0.027450981
22.313486 36.273064 -3.4848866 0.050980393
17.67569 36.261024 1.1716878 0.043137256
27.744591 45.065266 0.91862363 0.043137256
20.41544 41.855083 -2.9913263 0.047058824
23.369961 34.13298 -2.4166529 0.027450981
45.115795 81.88488 5.4361048 0.078431375
29.502794 47.911572 2.2878435 0.05882353
22.343594 40.636513 -2.1668239 0.015686275
22.351177 36.333706 -2.2425451 0.039215688
23.388809 34.160145 -1.4520774 0.031372551
7.2977047 11.959023 2.5625181 0
24.959505 45.374805 -1.2114096 0.031372551
2.5464497 4.2345757 -2.3250856 0.0078431377
21.448135 43.576485 -0.85300559 0.054901961
28.381704 45.739666 -1.5740765 0.039215688
4.0504909 7.4378147 -2.3824849 0.0078431377
6.6197863 10.77861 -2.5394413 0.0039215689
25.021435 36.263485 -0.51852602 0.10980392
8.4258633 15.298773 -2.7247243 0.0039215689
12.483036 20.198292 -3.0301435 0.0039215689
24.700842 39.825829 -0.27773333 0.10196079
14.677671 26.531027 -3.2731829 0.015686275
19.583464 28.410919 -3.2294569 0.047058824
27.817739 50.137035 1.3290637 0.062745102
25.069471 36.332577 0.50946194 0.090196081
22.315681 35.994946 -3.4656742 0.023529412
27.96092 45.062904 0.92053235 0.043137256
4.4438205 8.1434708 0.54323643 0
29.420647 47.407604 2.2686665 0.05882353
22.363892 36.072021 -2.2312329 0.039215688
7.4281702 13.504721 1.8973577 0
8.4899502 13.781931 1.3246363 0
7.4059567 12.040072 2.5854514 0
24.981619 45.0425 -1.2048877 0.031372551
2.5592892 4.2222791 -2.3233976 0.0078431377
28.394581 45.406307 -1.5660373 0.039215688
4.0801978 7.4300361 -2.3846476 0.011764706
6.6802955 10.791676 -2.5480838 0.0039215689
25.13402 44.945995 -0.0053757634 0.10980392
25.216513 36.274025 -0.51996481 0.10980392
8.4753418 15.26206 -2.7235036 0.0039215689
12.530269 20.11731 -3.0245945 0.0039215689
24.688786 39.498478 -0.27606747 0.098039217
14.760458 26.461981 -3.2710559 0.015686275
19.698462 28.364939 -3.2320819 0.047058824
27.822306 49.735924 1.3209827 0.062745102
25.260212 36.336391 0.51072508 0.090196081
22.359474 40.002991 -3.212276 0.054901961
22.305605 35.700378 -3.4448311 0.050980393
17.596569 35.47057 1.1500919 0.16862746
28.175423 45.056194 0.92237198 0.043137256
17.501148 35.280617 -2.5299575 0.070588239
45.686359 81.567299 5.4359956 0.078431375
27.239037 43.563145 2.0893533 0.050980393
22.35886 40.001534 -2.1413033 0.015686275
22.360184 35.787018 -2.2184513 0.039215688
4.2517095 7.7344804 1.0895318 0
7.6651244 12.360478 1.1907781 0
17.508553 35.295116 -1.6101784 0.91764706
25.103456 44.891941 -1.2032328 0.031372551
2.5747492 4.2125406 -2.3234005 0.0078431377
17.684162 35.322144 -0.69362664 0.10980392
22.373926 35.518749 -1.2275054 0.019607844
4.1055088 7.4113507 -2.3835742 0.011764706
6.7156138 10.760157 -2.5465212 0.0039215689
25.338007 44.922863 -0.0054182089 0.10980392
25.397615 36.249737 -0.52098018 0.086274512
8.5351229 15.237445 -2.7247453 0.0039215689
12.595441 20.057503 -3.0225859 0.0039215689
17.713734 35.380562 0.22677089 0.11764706
24.709394 39.211315 -0.27471232 0.098039217
14.859314 26.410831 -3.2715032 0.015686275
19.806885 28.298737 -3.2328463 0.098039217
27.8232 49.31311 1.3124381 0.062745102
25.46225 36.341389 0.51207882 0.090196081
22.356575 39.656525 -3.1910558 0.027450981
21.569046 34.246689 -3.3121572 0.023529412
17.74983 35.451939 1.1515728 0.047058824
28.351072 44.969193 0.92268705 0.043137256
17.653673 35.262257 -2.5333152 0.14117648
20.153814 28.791864 -2.0534394 0.81176472
47.714073 84.453667 5.6398702 0.078431375
22.351816 39.647751 -2.1267703 0.015686275
17.652182 35.258938 -1.6115102 0.9137255
20.162142 28.803493 -1.2332712 0.88235295
27.623692 48.961517 -1.3152173 0.035294119
2.5796976 4.1879301 -2.3149481 0.0078431377
17.843546 35.331223 -0.69505709 0.054901961
4.1294436 7.3933163 -2.3824999 0.011764706
6.7446995 10.723107 -2.5433879 0.0039215689
25.550161 44.931114 -0.0054636099 0.16470589
25.602587 36.27153 -0.5226078 0.086274512
8.5588741 15.155754 -2.7155235 0.0039215689
12.633385 19.96291 -3.0150139 0.0039215689
17.706772 35.061398 0.22511095 0.035294119
24.708523 38.908638 -0.27321252 0.098039217
14.917901 26.29977 -3.2642286 0.015686275
19.949272 28.290867 -3.2399402 0.023529412
27.826689 48.920162 1.3045431 0.062745102
25.639799 36.323792 0.51306629 0.074509807
22.350496 39.32494 -3.1706729 0.027450981
27.454607 43.217049 0.88873893 0.039215688
20.249569 28.714512 -2.0529916 0.80784315
46.478664 81.605301 5.4604774 0.078431375
27.436218 43.187851 2.0806961 0.050980393
22.351448 39.32626 -2.1137292 0.015686275
9.2008533 16.279112 2.3005044 0.0039215689
17.79323 35.232437 -1.6131675 0.90980393
20.255619 28.722843 -1.2328691 0.87843138
4.6127601 7.3767614 1.5953923 0
27.623974 48.565792 -1.3071995 0.035294119
2.5967567 4.185626 -2.3183327 0.011764706
24.722376 48.505943 -0.95644319 0.090196081
28.299168 44.235699 -1.5357175 0.039215688
4.1526494 7.3800268 -2.3825045 0.011764706
6.7868257 10.714788 -2.5465345 0.0039215689
25.73703 44.930115 -0.0055032778 0.16470589
25.781425 36.281826 -0.52394998 0.086274512
8.6221991 15.155924 -2.7204561 0.0039215689
12.678893 19.896128 -3.0109806 0.0039215689
27.341766 53.626297 0.34390438 0.10980392
24.672922 38.584801 -0.27149531 0.098039217
14.994501 26.242153 -3.2629578 0.015686275
20.112038 28.331541 -3.2518728 0.023529412
27.79888 48.516731 1.2960969 0.062745102
25.842022 36.366535 0.51479107 0.05882353
22.330755 39.005173 -3.1505666 0.027450981
22.413649 35.065247 -3.4057746 0.10588235
27.327274 53.597435 1.7458869 0.086274512
27.505989 42.999039 0.88601387 0.039215688
20.822886 40.883286 -2.9473724 0.047058824
20.339674 28.650476 -2.0530083 0.81176472
7.2740779 12.809379 0.86012542 0
27.409857 42.848896 2.0685024 0.050980393
22.339478 39.020004 -2.1010582 0.015686275
22.423306 35.079941 -2.1889198 0.078431375
13.205226 23.127146 3.2733676 0.0039215689
17.9384 35.243694 -1.6162925 0.42745098
20.34111 28.652279 -1.2326055 0.88235295
27.605022 48.180336 -1.2991779 0.035294119
2.609385 4.1731787 -2.3166444 0.011764706
24.715519 48.077816 -0.94972336 0.090196081
28.370913 44.008747 -1.5313021 0.039215688
4.172595 7.3551741 -2.3792727 0.0078431377
6.8156705 10.677546 -2.5434012 0.0039215689
25.955891 44.946972 -0.0055504381 0.10980392
25.980261 36.292 -0.52543616 0.10980392
8.6730747 15.122 -2.7198508 0.0039215689
12.733188 19.828112 -3.0074539 0.0039215689
27.53614 53.544426 0.34395924 0.054901961
24.701035 38.333546 -0.27035236 0.098039217
15.080038 26.179012 -3.2616882 0.015686275
26.036484 36.369999 0.51609999 0.090196081
22.33675 38.702255 -3.1324193 0.023529412
22.512112 34.949654 -3.4022112 0.078431375
27.257557 53.003944 1.7296342 0.062745102
27.521275 42.694229 0.8816942 0.039215688
20.439566 28.578985 -2.0530267 0.82352942
47.367241 81.895851 5.500742 0.078431375
27.409519 42.521076 2.0572803 0.050980393
22.339336 38.706379 -2.0883896 0.015686275
22.521772 34.964245 -2.1866333 0.078431375
3.6711762 6.4887671 0.92152375 0
6.3474541 9.9525108 0.96756202 0
20.434011 28.571043 -1.2322031 0.88235295
8.6108751 13.451941 2.9202013 0.0039215689
22.476089 38.942039 -1.0518843 0.019607844
2.6298745 4.1728425 -2.3217201 0.0078431377
24.713362 47.664539 -0.94328439 0.090196081
28.367199 43.667942 -1.5229099 0.039215688
4.2001896 7.3435769 -2.3803566 0.015686275
6.8614683 10.666518 -2.5465484 0.0039215689
26.163078 44.942131 -0.0055942745 0.16470589
26.165413 36.28178 -0.52663916 0.10980392
8.2653313 14.302952 -2.577688 0.0039215689
12.7785 19.746658 -3.0019045 0.0039215689
27.71735 53.437019 0.34385514 0.054901961
24.697124 38.035648 -0.26887539 0.098039217
15.129212 26.053782 -3.2526975 0.015686275
20.236975 28.089785 -3.2403648 0.047058824
27.985659 48.061871 1.289096 0.19215687
22.334867 38.389435 -3.1134329 0.023529412
22.623095 34.853836 -3.4006038 0.078431375
27.501482 53.021656 1.7333051 0.062745102
20.925404 40.385715 -2.9220476 0.047058824
20.536869 28.503914 -2.0528123 0.82352942
7.6775436 13.295562 0.89629954 0
27.405041 42.19043 2.0458961 0.050980393
22.335268 38.389786 -2.0755339 0.015686275
22.630604 34.865013 -2.1853964 0.11764706
7.5532122 11.726977 1.1423334 0
20.526596 28.489511 -1.2318009 0.88627452
27.636173 47.464405 -1.2851058 0.035294119
2.6399078 4.1532803 -2.3166499 0.011764706
24.732557 47.25737 -0.93712944 0.18039216
4.2283587 7.3270502 -2.3803618 0.0078431377
6.8916097 10.623359 -2.5426309 0.0039215689
26.392324 44.937481 -0.0056428057 0.21960784
26.365831 36.264706 -0.52789181 0.090196081
8.7716599 15.036924 -2.7161789 0.0039215689
12.845519 19.683832 -2.9998963 0.0039215689
24.722183 37.756332 -0.26759121 0.098039217
15.200882 25.947178 -3.2467113 0.015686275
20.328262 27.989 -3.2377779 0.047058824
28.23295 48.060513 1.2919282 0.16078432
26.429703 36.351994 0.51853162 0.090196081
22.34639 38.07272 -3.0947285 0.023529412
22.739256 34.739704 -3.39802 0.050980393
27.749506 53.000275 1.736046 0.062745102
24.762976 37.818111 0.78487599 0.031372551
20.641466 28.418045 -2.0523658 0.82352942
7.0169249 12.058085 0.81486076 0
27.430767 41.87746 2.0358074 0.050980393
22.340519 38.06242 -2.0624933 0.015686275
22.746773 34.750805 -2.183742 0.039215688
21.230919 40.591034 -1.8723531 0.039215688
20.631132 28.403673 -1.2315406 0.87450981
8.7092571 13.387804 2.9201829 0.0039215689
4.3448811 7.5240831 -0.20273125 0
2.6549428 4.1477089 -2.3183436 0.0039215689
24.712515 46.861023 -0.9308269 0.18039216
4.2434912 7.3001986 -2.3760507 0.0078431377
26.584396 44.94006 -0.0056837187 0.10980392
26.571951 36.307156 -0.52975321 0.06666667
8.8208704 15.012411 -2.7168033 0.0039215689
12.885395 19.610008 -2.9948509 0.011764706
27.975599 53.025936 0.34239811 0.16078432
24.697203 37.461372 -0.26606336 0.098039217
15.23563 25.820356 -3.2368608 0.015686275
20.394873 27.895832 -3.2344425 0.023529412
28.38582 47.974739 1.2919919 0.062745102
26.614788 36.365223 0.5198887 0.05882353
22.835073 34.647873 -3.3960845 0.050980393
27.913994 52.909027 1.7358981 0.062745102
24.736 37.519718 0.78028589 0.062745102
21.298334 40.410889 -2.9346635 0.047058824
20.721184 28.339907 -2.0514495 0.82352942
33.302662 56.257973 3.8024158 0.047058824
27.255632 41.327492 2.0132325 0.043137256
22.840395 34.655575 -2.1822927 0.039215688
4.6935706 7.2279973 0.70797843 0
3.4966812 6.7749605 -0.31160143 0
20.715527 28.331997 -1.2312765 0.87058824
4.4372144 7.625073 2.376431 0
8.8446465 13.501219 2.9510012 0.0039215689
27.597433 46.647259 -1.2682234 0.035294119
2.6728604 4.1401563 -2.3200376 0.0078431377
24.728317 46.458549 -0.92474121 0.17647059
17.339087 26.122139 -0.9168964 0.83529413
4.2774258 7.2934227 -2.3792927 0.0039215689
26.814285 44.933411 -0.0057323086 0.10980392
26.76827 36.281677 -0.53091151 0.10980392
8.870326 14.964525 -2.7143521 0.0039215689
12.936371 19.523737 -2.9893029 0.0039215689
28.22422 53.002464 0.34290415 0.32941177
24.712099 37.172947 -0.26470697 0.094117649
15.297887 25.699909 -3.2291584 0.015686275
20.454439 27.752951 -3.2270141 0.047058824
28.395206 47.573437 1.2840961 0.031372551
26.825609 36.358871 0.52124107 0.074509807
22.357458 37.490646 -3.0601089 0.023529412
17.33256 26.112816 -2.5656424 0.027450981
27.890863 52.377918 1.7219603 0.062745102
21.280308 40.004551 -2.9111078 0.047058824
20.827467 28.256588 -2.0512366 0.82352942
33.223022 55.635998 3.7689688 0.047058824
27.458471 41.288692 2.0164475 0.043137256
22.340906 37.462681 -2.0384603 0.015686275
17.371185 26.170456 -1.6517889 0.015686275
21.50058 40.416534 -1.8712637 0.039215688
20.819401 28.245487 -1.231016 0.88235295
13.60323 20.521162 4.4958773 0.0039215689
2.6872954 4.1304884 -2.3200402 0.0078431377
24.729103 46.07235 -0.91879255 0.086274512
17.546148 26.233696 -0.92299551 0.84313726
1.8292667 3.1788895 -1.0382837 0.0039215689
6.9915285 10.533399 -2.5387263 0.0039215689
27.02676 44.931702 -0.0057773907 0.10980392
26.966475 36.283909 -0.53235066 0.06666667
8.926589 14.939927 -2.7155931 0.0039215689
13.000011 19.471567 -2.9883039 0.0039215689
27.760286 51.698956 0.33510268 0.039215688
24.707804 36.886978 -0.26330009 0.094117649
15.325854 25.543894 -3.2163064 0.015686275
20.555946 27.68746 -3.227777 0.047058824
28.395782 47.199814 1.2766663 0.031372551
27.02169 36.357693 0.52254981 0.05882353
22.354172 37.190006 -3.0419598 0.023529412
27.804251 51.780083 1.7054785 0.062745102
24.731443 36.921856 0.77158386 0.15686275
22.356873 41.669315 -3.0380368 0.047058824
20.92358 28.180201 -2.0510213 0.82352942
33.119896 55.027061 3.7355263 0.047058824
27.684919 41.315018 2.022423 0.043137256
22.324953 37.141266 -2.0252295 0.015686275
23.078205 34.463367 -2.1808705 0.11764706
45.63271 68.012321 6.6794858 0.16862746
21.760933 40.562607 -1.8815831 0.039215688
20.91547 28.169123 -1.2308939 0.87058824
10.342892 17.284246 5.4081607 0.0039215689
2.7017992 4.1157622 -2.3167226 0.015686275
24.715231 45.691883 -0.91243863 0.17647059
4.3353052 7.270906 -2.3814924 0.011764706
7.0257936 10.504628 -2.5371516 0.0039215689
27.219051 44.921509 -0.0054539721 0.10980392
27.150726 36.285118 -0.53330505 0.10980392
8.9790869 14.911552 -2.7155545 0.0039215689
13.035593 19.384367 -2.9811239 0.0039215689
27.77548 51.329994 0.33364081 0.11764706
24.68565 36.596912 -0.26148626 0.094117649
15.407508 25.488567 -3.2153053 0.015686275
20.650827 27.625675 -3.2279315 0.047058824
27.20376 36.355534 0.52406478 0.074509807
21.919031 36.202095 -2.9664986 0.023529412
23.150848 34.330013 -3.3883693 0.078431375
27.711029 51.210793 1.6899645 0.062745102
24.740784 36.678108 0.76841176 0.1254902
21.552654 39.865486 -2.9111395 0.047058824
21.010412 28.104494 -2.0500984 0.80784315
32.970421 54.383316 3.6993024 0.047058824
27.920923 41.376518 2.0300624 0.050980393
22.326756 36.872654 -2.0141449 0.015686275
23.167328 34.354046 -2.1782978 0.078431375
22.299915 41.241989 -1.9161171 0.039215688
21.009447 28.103022 -1.2306708 0.87058824
4.7892733 8.016407 2.514009 0
23.207109 38.320843 -1.0479059 0.019607844
2.7250364 4.1175036 -2.3234894 0.0078431377
24.726954 45.316532 -0.90677273 0.26274511
4.3538747 7.2415233 -2.3771818 0.011764706
7.0554061 10.46554 -2.5340183 0.0039215689
27.454567 44.937103 -0.0055014547 0.10980392
27.353498 36.277576 -0.53469557 0.090196081
9.0233526 14.861384 -2.712487 0.0039215689
13.077482 19.293541 -2.9745629 0.0039215689
27.863531 51.045101 0.33242479 0.039215688
24.693386 36.320847 -0.26017588 0.094117649
15.48004 25.397707 -3.2110324 0.0078431377
20.76395 27.56538 -3.229811 0.047058824
28.492096 46.629795 1.2668171 0.094117649
27.409201 36.350986 0.52542096 0.094117649
22.360123 36.624733 -3.0078976 0.023529412
21.454531 31.573673 -3.1239848 0.015686275
27.673872 50.698246 1.6763762 0.062745102
24.733055 36.378738 0.76402622 0.1254902
22.344622 40.965878 -2.9975522 0.047058824
21.110865 28.023809 -2.0498831 0.80784315
32.875309 53.781738 3.666553 0.043137256
28.128691 41.356148 2.0340924 0.050980393
22.328129 36.572235 -2.0022223 0.015686275
23.279577 34.248802 -2.1770604 0.078431375
22.308889 40.900253 -1.904057 0.039215688
21.105072 28.015963 -1.230268 0.87058824
9.0046568 13.321589 2.9395397 0.83137256
27.5994 45.173801 -1.2383924 0.031372551
2.7325194 4.0992022 -2.3184187 0.0078431377
24.714796 44.939869 -0.90089256 0.086274512
25.027525 36.549969 -1.2952851 0.047058824
4.3738208 7.220211 -2.3750284 0.0078431377
7.0900755 10.441805 -2.5340242 0.0039215689
27.664385 44.944233 -0.0055435095 0.10980392
27.556046 36.294571 -0.53631967 0.06666667
9.0559807 14.804196 -2.7075722 0.0039215689
13.10994 19.204 -2.967495 0.015686275
3.4471242 5.7187295 -0.7232669 0
20.857668 27.499258 -3.2301991 0.047058824
28.484823 46.272774 1.2596666 0.062745102
27.597454 36.348705 0.52668732 0.062745102
21.988871 35.752209 -2.9422212 0.023529412
21.574924 31.52507 -3.1262853 0.047058824
27.627426 50.217339 1.6634867 0.062745102
24.878475 36.332497 0.76476681 0.062745102
22.337643 40.632645 -2.9786069 0.047058824
21.198847 27.947014 -2.0494328 0.81568629
32.74931 53.179455 3.6328795 0.043137256
28.347162 41.380951 2.0399098 0.050980393
22.329651 36.303909 -1.9916036 0.015686275
23.374931 34.144794 -2.1754007 0.078431375
22.295725 40.55632 -1.8915039 0.039215688
21.193024 27.93918 -1.2300036 0.87058824
7.0760083 11.595332 3.6511915 0
9.0955839 13.35949 2.9545872 0.2
27.679741 44.969456 -1.2353302 0.031372551
2.7447486 4.0863652 -2.3167303 0.0078431377
24.881233 44.870514 -0.90127224 0.25882354
28.365797 41.100842 -1.4603027 0.039215688
4.3928924 7.1947966 -2.3717964 0.0078431377
7.1175499 10.403799 -2.5308902 0.0039215689
27.87392 44.932018 -0.0055848043 0.054901961
27.728817 36.258179 -0.53723747 0.15686275
9.113862 14.782271 -2.7094276 0.0039215689
13.043654 18.965336 -2.9376738 0.035294119
24.954861 45.002468 0.29430768 0.18039216
25.03793 36.292782 -0.26124313 0.11764706
15.621045 25.24053 -3.2046289 0.0078431377
20.977762 27.457594 -3.2339389 0.047058824
28.472927 45.894363 1.2520523 0.062745102
27.753372 36.289951 0.52721721 0.1254902
22.345406 36.047623 -2.9729958 0.023529412
21.68029 31.442719 -3.1256518 0.015686275
27.61787 49.788395 1.6524498 0.062745102
25.068876 36.337219 0.7666834 0.062745102
21.293837 27.869389 -2.049216 0.80784315
32.639374 52.589859 3.6003649 0.043137256
28.507351 41.304466 2.0410206 0.050980393
22.333803 36.02869 -1.9807993 0.031372551
21.807104 31.62565 -2.0196636 0.05882353
6.7191834 9.8273973 0.97563064 0
21.287981 27.86157 -1.2298799 0.89019608
5.0689268 8.2798805 2.6133304 0
28.316095 45.643017 -1.2566044 0.035294119
2.7638569 4.0819154 -2.3201149 0.011764706
25.102297 44.879841 -0.90334111 0.17254902
4.4233289 7.184864 -2.3739586 0.0078431377
7.1556382 10.377333 -2.5308969 0.0039215689
27.920237 36.231941 -0.53839225 0.13333334
9.157485 14.731716 -2.7063599 0.0039215689
13.044979 18.81946 -2.9225166 0.047058824
25.184248 45.025497 0.29502833 0.18039216
25.21656 36.26606 -0.26174268 0.11764706
15.721913 25.196268 -3.2063611 0.0078431377
21.088009 27.392813 -3.235446 0.047058824
28.483707 45.538704 1.2451774 0.031372551
27.94002 36.257301 0.52820563 0.094117649
22.356525 35.772491 -2.9570832 0.023529412
21.79768 31.366003 -3.1259983 0.015686275
27.618204 49.362244 1.6416436 0.05882353
25.265972 36.336628 0.76859879 0.1254902
22.326998 39.935062 -2.9391818 0.047058824
21.395849 27.79084 -2.0492337 0.80784315
5.9049506 9.5458784 0.65635353 0
28.468761 40.92733 2.0275273 0.043137256
22.334074 35.73642 -1.9692489 0.015686275
21.389965 27.783045 -1.2298974 0.88627452
28.34083 45.311646 -1.2503628 0.035294119
2.7766666 4.0729489 -2.320117 0.011764706
25.300236 44.901474 -0.90540576 0.086274512
4.4458776 7.1706696 -2.3739626 0.011764706
6.5908661 9.5039454 -2.3228686 0
24.761108 39.32983 -0.0047607003 0.13725491
28.112509 36.244816 -0.5399211 0.13333334
13.031062 18.674215 -2.9063461 0.047058824
25.374775 45.032951 0.2955713 0.18039216
25.385538 36.264969 -0.26233426 0.094117649
15.7755 25.106144 -3.2012279 0.0078431377
21.125051 27.263296 -3.2280128 0.070588239
28.370335 45.043037 1.2340516 0.062745102
28.129913 36.266953 0.52961099 0.10980392
22.340933 35.499413 -2.9403288 0.023529412
21.893814 31.293844 -3.125689 0.015686275
27.60194 48.972168 1.6315376 0.05882353
25.451252 36.358276 0.77072525 0.094117649
22.3109 39.614269 -2.9207473 0.047058824
21.483046 27.723228 -2.0492485 0.80392158
2.2304301 3.6627941 0.25334975 0
28.420319 40.585594 2.0150115 0.043137256
20.148569 28.808495 -1.8484061 0.87843138
7.5397735 10.854243 1.0825055 0
22.287321 39.57222 -1.8562953 0.035294119
21.477137 27.715452 -1.2299123 0.89019608
9.3163509 13.383423 2.9810889 0.0039215689
24.946379 39.623428 -1.0953844 0.019607844
2.7936697 4.0653968 -2.3218105 0.0078431377
25.514153 44.895 -0.90719342 0.086274512
20.259611 28.741856 -1.0282798 0.87843138
4.4679914 7.147521 -2.3718095 0.0078431377
7.2057118 10.299005 -2.523844 0.0039215689
24.769724 39.025955 -0.0047513489 0.090196081
28.294502 36.204197 -0.54088712 0.090196081
9.2150803 14.601797 -2.6940682 0.0039215689
13.055861 18.564487 -2.8967507 0.094117649
25.595123 45.03664 0.29617819 0.21960784
25.603775 36.292179 -0.26323888 0.094117649
15.856727 25.031076 -3.1990991 0.0078431377
21.219912 27.179117 -3.2272851 0.098039217
27.456896 43.245197 1.1875867 0.12156863
28.314455 36.22942 0.5305534 0.062745102
22.015268 31.222851 -3.1266873 0.015686275
27.642605 48.627239 1.6233968 0.05882353
25.646717 36.352592 0.77257138 0.062745102
22.313581 39.282246 -2.9023156 0.047058824
21.58943 27.650286 -2.0497322 0.78823531
28.365681 40.193787 2.0007079 0.043137256
22.314943 35.171833 -1.9465173 0.12156863
20.244783 28.721109 -1.8475846 0.9254902
22.299568 39.257339 -1.8453768 0.035294119
21.573633 27.629953 -1.2296492 0.89019608
2.8008258 4.0469742 -2.31674 0.0078431377
25.710722 44.893082 -0.90890795 0.086274512
20.347857 28.664461 -1.0279455 0.87843138
4.4979105 7.1421118 -2.3750501 0.0078431377
6.6798191 9.4890547 -2.3307304 0
24.756464 38.721107 -0.0047376044 0.090196081
28.307863 35.974873 -0.5388791 0.019607844
9.2805281 14.597491 -2.6990004 0.0039215689
13.045964 18.420639 -2.8810863 0.050980393
25.798147 45.044872 0.29676515 0.21960784
25.78668 36.294735 -0.26390311 0.16470589
0.917108 1.5596523 -0.19826432 0.0078431377
21.309933 27.108311 -3.2273006 0.070588239
27.556976 43.086304 1.1857114 0.027450981
28.320465 35.990608 0.52841896 0.031372551
22.413708 35.069946 -2.9177263 0.050980393
27.668272 48.299274 1.615491 0.05882353
25.836775 36.364758 0.77462739 0.062745102
22.320442 38.99316 -2.8864453 0.047058824
21.683485 27.581388 -2.0499811 0.78823531
27.377893 42.80666 2.9564261 0.070588239
28.310917 39.83559 1.9875425 0.043137256
22.420679 35.080544 -1.9456044 0.12156863
20.337605 28.650276 -1.8473914 0.92156863
2.2328448 3.2494767 0.32682434 0
22.286282 38.933384 -1.8336388 0.035294119
21.665148 27.557976 -1.2296648 0.89019608
24.967611 39.050545 -1.0843875 0.019607844
2.8177545 4.0393186 -2.3184338 0.0078431377
25.937239 44.905518 -0.91111755 0.086274512
20.441114 28.573151 -1.0273789 0.88627452
4.5156903 7.1123333 -2.3707397 0.0078431377
7.2728601 10.241489 -2.5222862 0.0039215689
24.776573 38.441711 -0.0047314344 0.13725491
28.312565 35.710911 -0.53649575 0.019607844
9.3361139 14.566391 -2.6996255 0.0039215689
13.050887 18.285381 -2.8674455 0.062745102
26.023228 45.053547 0.29741743 0.21960784
25.9802 36.284142 -0.26454571 0.11764706
0.91202056 1.5392768 -0.19612062 0.0078431377
21.389311 27.004782 -3.2243381 0.070588239
27.545322 42.72279 1.1784689 0.027450981
28.322733 35.723473 0.52600682 0.031372551
22.531254 34.970497 -2.9163511 0.10196079
20.462761 28.603731 -2.8786092 0.10588235
27.700766 47.948162 1.6071192 0.05882353
26.044546 36.373466 0.77681959 0.062745102
22.331116 38.682838 -2.8695512 0.043137256
21.789398 27.507677 -2.0504644 0.78823531
27.244017 42.256401 2.9253101 0.035294119
28.263191 39.461838 1.9740509 0.043137256
22.533909 34.974342 -1.9443203 0.090196081
20.433153 28.562265 -1.8465698 0.92941177
3.4286585 5.4305625 0.79482406 0
12.409141 17.390871 1.7465334 0.0039215689
22.292566 38.61599 -1.822556 0.035294119
21.763514 27.474953 -1.2295418 0.89019608
9.460597 13.285793 2.9817812 0.92941177
24.96073 38.726776 -1.0779537 0.019607844
2.8268852 4.0238004 -2.3150539 0.015686275
26.134399 44.901875 -0.91283214 0.086274512
20.531063 28.498459 -1.0271614 0.87058824
4.5392494 7.0970421 -2.3707438 0.0039215689
7.3090796 10.220216 -2.523077 0.0039215689
24.768541 38.151268 -0.0047192564 0.13725491
9.3886776 14.541698 -2.7008648 0.0039215689
13.053311 18.161352 -2.8548145 0.062745102
26.228951 45.063442 0.29802704 0.22352941
26.166016 36.288265 -0.26523378 0.14117648
16.063707 24.78896 -3.1892786 0.0078431377
21.481234 26.936539 -3.224726 0.023529412
28.318548 35.476089 0.52373505 0.011764706
22.627487 34.865223 -2.9138553 0.10196079
22.337944 30.996864 -3.127069 0.094117649
27.720497 47.617519 1.5990982 0.05882353
26.211895 36.351433 0.77818322 0.094117649
22.328432 38.384224 -2.8529108 0.043137256
21.863022 27.413176 -2.0488477 0.43137255
27.331673 42.085258 2.9197178 0.035294119
28.225233 39.134476 1.9623467 0.043137256
22.627949 34.865669 -1.9424738 0.090196081
20.518387 28.481131 -1.8457463 0.93333334
11.735361 16.338287 1.6448375 0.0039215689
21.856998 27.405478 -1.2296975 0.87450981
9.5138264 13.266829 2.9846413 0.87450981
24.947132 38.42572 -1.0718915 0.019607844
2.8515882 4.0282631 -2.3235114 0.0078431377
26.347788 44.90659 -0.91482949 0.086274512
20.625711 28.419855 -1.0269445 0.87843138
4.5639977 7.0808601 -2.370748 0.0039215689
7.3424034 10.191175 -2.5222983 0.0039215689
24.761095 37.850266 -0.0047068093 0.13725491
24.126272 30.02438 -0.45331523 0.023529412
9.4198647 14.478804 -2.6953344 0.0039215689
13.048866 18.022381 -2.8401616 0.050980393
26.442913 45.067841 0.29863515 0.22352941
26.365561 36.296623 -0.26599452 0.14117648
16.128325 24.699192 -3.1850045 0.0078431377
21.597633 26.888996 -3.2280934 0.047058824
24.805054 37.916958 1.0506842 0.015686275
24.739042 30.784132 0.45593652 0.043137256
22.724974 34.749035 -2.9108012 0.10196079
22.448364 30.921625 -3.1274135 0.062745102
27.77095 47.323769 1.5924662 0.05882353
26.423426 36.37579 0.78065336 0.1254902
22.326632 38.075268 -2.8357587 0.043137256
27.572643 42.132843 2.9296679 0.035294119
28.163958 38.764088 1.9486946 0.043137256
22.734175 34.762794 -1.9411883 0.074509807
20.612982 28.40258 -1.8453436 0.93333334
22.27108 37.980576 -1.7997324 0.035294119
21.985157 27.369175 -1.2315364 0.43137255
24.951653 38.140865 -1.0663921 0.019607844
2.8620422 4.0116334 -2.3201318 0.011764706
26.587725 44.936668 -0.9174614 0.086274512
20.727367 28.340546 -1.0268456 0.88235295
4.5920444 7.0669894 -2.3718312 0.0078431377
7.365777 10.14492 -2.5175943 0.0039215689
24.758389 37.545456 -0.0046951687 0.13333334
24.246237 29.947863 -0.45352259 0.023529412
9.472867 14.443874 -2.6953437 0.0039215689
13.058468 17.897367 -2.828037 0.06666667
26.654865 45.049427 0.29912832 0.22352941
26.578905 36.309059 -0.26682791 0.12156863
16.207766 24.623022 -3.1828754 0.0078431377
21.746262 26.871178 -3.235558 0.023529412
24.796009 37.602039 1.0444629 0.015686275
24.306946 30.022406 0.44599247 0.019607844
22.838968 34.645241 -2.9091458 0.074509807
22.575697 30.858116 -3.1293893 0.062745102
27.866655 47.09071 1.588034 0.05882353
26.622845 36.368652 0.78256857 0.062745102
27.790775 42.127785 2.9363687 0.035294119
28.102398 38.383255 1.9347175 0.043137256
22.854813 34.668938 -1.9406506 0.074509807
20.714575 28.323317 -1.8451518 0.92941177
24.961082 37.852085 -1.0608933 0.019607844
2.8837788 4.004262 -2.3218851 0.011764706
22.610601 37.924244 -0.77539229 0.050980393
20.824604 28.258106 -1.0262748 0.86666667
4.6158705 7.0410314 -2.3686287 0.0039215689
7.4090734 10.12203 -2.5183704 0.0039215689
24.781693 37.288795 -0.0043779942 0.18039216
24.518291 30.060896 -0.45626956 0.023529412
9.5288267 14.410451 -2.6952991 0.0039215689
13.062751 17.765278 -2.8142865 0.05882353
26.875004 45.051952 0.30009443 0.18431373
26.772886 36.2994 -0.26713413 0.12156863
16.26613 24.516394 -3.1762891 0.0078431377
21.179728 25.981092 -3.1370265 0.023529412
24.803999 37.321995 1.0393875 0.015686275
3.1767309 3.9775956 0.060606577 0.0039215689
17.356695 26.151981 -2.200506 0.011764706
24.391111 33.080158 -3.3632133 0.050980393
28.063084 47.037479 1.5898892 0.05882353
26.819395 36.362045 0.78475177 0.062745102
24.043083 29.480446 -2.2223277 0.015686275
28.011847 42.13324 2.9439008 0.035294119
28.063475 38.043663 1.9228833 0.043137256
22.965759 34.565407 -1.9390842 0.043137256
20.816523 28.247356 -1.8447219 0.92941177
3.9391561 6.0251751 0.88971889 0
22.293436 37.394375 -1.7792451 0.035294119
24.956665 37.55151 -1.0546106 0.039215688
2.8934071 3.9880841 -2.3185055 0.0078431377
27.015802 44.93092 -0.92088568 0.086274512
20.920721 28.181767 -1.0261736 0.87450981
4.6361241 7.0182095 -2.3664751 0.0078431377
7.4326425 10.080108 -2.5144513 0.0039215689
24.777872 37.002575 -0.0043675536 0.090196081
24.745161 30.123028 -0.45854896 0.011764706
9.5702534 14.363706 -2.6928456 0.0039215689
13.065412 17.639755 -2.8016558 0.06666667
27.09199 45.056934 0.30072805 0.22352941
26.954395 36.279232 -0.26770189 0.098039217
16.336084 24.436087 -3.1733005 0.0078431377
21.237356 25.866777 -3.1322 0.023529412
24.791409 37.022472 1.0334445 0.015686275
25.058195 30.502724 0.45595011 0.031372551
23.059168 34.444653 -2.9055512 0.10196079
24.492136 32.975368 -3.3612759 0.12941177
28.27458 47.017723 1.5925268 0.05882353
27.017838 36.364147 0.78680909 0.094117649
22.315802 37.137199 -2.7832534 0.043137256
24.12044 29.365259 -2.2200127 0.015686275
28.234449 42.147648 2.9517658 0.035294119
27.978785 37.653564 1.9080948 0.043137256
23.070675 34.461548 -1.9377973 0.10588235
20.910217 28.167843 -1.8443179 0.93333334
8.8668118 12.004063 1.2215351 0
22.273165 37.066212 -1.7673436 0.035294119
24.034983 29.261383 -1.3280531 0.019607844
4.7225146 7.1456838 2.306972 0
9.8587742 13.334957 3.0312624 0.078431375
24.956026 37.268047 -1.0491108 0.039215688
2.908793 3.9811063 -2.3201985 0.0078431377
27.220732 44.933109 -0.92280871 0.086274512
21.011667 28.108774 -1.0260718 0.8509804
4.6615324 7.0057259 -2.3675575 0.0039215689
7.4566159 10.042593 -2.5113165 0.0039215689
