# .PCD v0.7 - Point Cloud Data file format
VERSION 0.7
FIELDS x y z intensity
SIZE 4 4 4 4
TYPE F F F F
COUNT 1 1 1 1
WIDTH 1157
HEIGHT 1
VIEWPOINT 0 0 0 1 0 0 0
POINTS 1157
DATA ascii
-22.103523 45.301247 -3.5505199 0.039215688
-14.782567 34.294704 -3.0646758 0.015686275
-9.8134804 17.542141 0.56952882 0.0039215689
-3.8093562 8.3442802 0.15443912 0
-4.2783461 8.2979298 -0.43272063 0
-3.9067245 7.5271797 1.0225853 0
-2.1636477 4.4968944 -2.2742186 0
-3.4944561 5.9652772 -0.12007938 0
-11.250332 26.209293 -0.84514236 0.87058824
-3.8279352 7.4314904 -2.3083937 0.011764706
-4.5954003 10.307342 -2.2402327 0.094117649
-5.9749842 15.720128 -0.20422915 0.0039215689
-6.832963 13.728787 -2.3749654 0.039215688
-8.5029144 19.64374 -2.7236352 0.0039215689
-11.518618 23.547815 -2.8269286 0.0078431377
-11.20867 30.168947 -3.016696 0.023529412
-10.458108 21.327091 0.53540623 0.0039215689
-5.1482444 13.437684 0.15863302 0
-4.7391415 9.3418007 -0.72835284 0
-14.762974 34.60136 -3.0873642 0.015686275
-24.160475 44.328472 -3.2607937 0.074509807
-5.8243852 11.616771 0.74309325 0
-27.063835 56.124294 -2.939975 0.039215688
-6.3951626 14.609326 1.2839248 0
-8.7178164 15.661716 -0.73464471 0.0039215689
-4.2270966 8.2703476 2.4509647 0
-1.6506419 2.8698735 -0.073200114 0
-2.1479342 4.503438 -2.2742217 0.0039215689
-4.8170099 10.944853 -0.3505756 0.59215689
-3.8003211 7.4403453 -2.3073187 0.011764706
-4.554884 10.311471 -2.2378774 0.098039217
-9.0404425 18.522034 -0.012118733 0.0039215689
-5.3602629 14.177286 -0.18364818 0
-6.790062 13.762295 -2.3768301 0.023529412
-11.451642 23.619253 -2.8308301 0.0078431377
-11.15835 30.360622 -3.032079 0.023529412
-10.680523 19.468512 0.62926996 0.0039215689
-24.142872 44.668579 -3.2797272 0.074509807
-26.833595 74.115097 -4.6419301 0.082352944
-5.2716427 10.553022 0.67420924 0
-4.3583589 9.8386774 0.8644073 0
-3.9535036 6.8747258 -0.32009175 0
-3.1228063 6.0097318 1.7788668 0
-7.1683216 16.620277 3.2691524 0.0039215689
-1.6371983 2.8674054 -0.07301043 0
-2.1321986 4.5099273 -2.2742245 0.0039215689
-3.2730181 5.6482859 -0.11310743 0
-4.836453 11.101178 -0.35511929 0.59215689
-3.7759564 7.4560714 -2.3084059 0.0078431377
-4.5173688 10.322698 -2.2370965 0.082352944
-5.5706873 11.286808 -0.0061510126 0
-6.7604246 13.824294 -2.3836377 0.019607844
-4.8514681 11.137228 -1.5383375 0.019607844
-5.9227591 10.650754 0.064335808 0
-11.297022 31.089092 -3.1010604 0.023529412
-7.4037309 15.19835 0.3811698 0
-3.1534667 8.1064653 0.096698217 0
-24.13253 45.026733 -3.2999542 0.074509807
-35.080376 98.212692 -6.1446309 0.15686275
-4.7831249 10.971594 0.47730359 0
-4.8427157 11.116311 -0.6356352 0.65098041
-9.1769896 18.984715 5.6038857 0.0039215689
-6.6172729 15.44265 3.033355 0.0039215689
-8.1689606 16.830791 -0.44322458 0
-2.1205347 4.526433 -2.2793071 0.0039215689
-10.68463 19.807156 -0.40382373 0.0078431377
-4.8368063 11.213318 -0.35823041 0.81176472
-3.7563963 7.4821968 -2.3127367 0.011764706
-4.4768801 10.326522 -2.2347412 0.086274512
-10.895595 22.856373 -0.015665533 0.0078431377
-6.7271109 13.879086 -2.3892095 0.023529412
-3.9195738 6.9273262 0.042861655 0
-4.8432102 11.22921 -0.076455519 0.47450981
-11.23119 23.577642 -2.8166337 0.023529412
-5.7889471 11.859632 -0.92098445 0
-24.125561 45.395954 -3.3209579 0.074509807
-34.74791 98.363716 -6.146565 0.15686275
-26.469563 56.39082 -2.9395452 0.039215688
-4.8474884 11.239484 -0.641801 0.69803923
-5.8216891 13.63828 1.1936113 0
-26.466709 49.853802 -2.3325281 0.070588239
-2.1019115 4.4820251 0.88126528 0
-2.0969329 4.5291762 -2.2775903 0.0039215689
-3.2956529 5.7996969 -0.11573286 0
-4.8342013 11.332165 -0.36130309 0.69411767
-3.7259681 7.4971986 -2.3136852 0.011764706
-4.4281034 10.322201 -2.2305703 0.082352944
-5.1520019 10.595791 -0.0053177066 0.0039215689
-6.6838036 13.921926 -2.3925502 0.023529412
-8.2374821 19.788364 -2.7276707 0.0039215689
-4.840569 11.348112 -0.076920435 0.48235294
-11.067682 23.444036 -2.7956469 0.023529412
-11.21117 31.54715 -3.1383102 0.023529412
-2.2843549 4.3669806 0.11142256 0
-21.77985 46.711716 -3.6297638 0.039215688
-6.3654003 11.691748 0.37738225 0
-24.111816 45.750805 -3.3396075 0.078431375
-35.238987 100.85426 -6.2914996 0.015686275
-9.9636326 24.079506 1.0416757 0.0078431377
-9.0633097 19.091148 -0.99100363 0.0039215689
-4.8641434 11.406446 -0.650235 0.79607844
-4.5662379 9.3240318 1.2558104 0
-1.399426 2.7969437 0.24687199 0
-26.34973 50.046558 -2.3358097 0.070588239
-4.0360165 8.1728668 2.4067087 0
-5.5734191 13.170401 2.5806875 0
-2.0784249 4.52878 -2.2742069 0.0039215689
-4.8360472 11.452018 -0.36464891 0.59215689
-3.7013698 7.5127072 -2.3147717 0.015686275
-4.3949442 10.343927 -2.2321513 0.070588239
-6.6417217 13.958601 -2.3950317 0.023529412
-8.1786289 19.841846 -2.7312379 0.0039215689
-13.34721 25.3071 0.14850549 0.0039215689
-4.8394165 11.460598 -0.07760682 0.47058824
-10.928005 23.354944 -2.7805717 0.0078431377
-11.224939 31.946791 -3.1742938 0.023529412
-4.5787511 12.558647 0.14786625 0
-21.803772 47.19672 -3.6616504 0.039215688
-14.706227 36.227787 -3.2088039 0.015686275
-4.8610344 11.514989 0.21038675 0
-24.105844 46.13163 -3.3613744 0.078431375
-34.85173 100.87373 -6.2851877 0.4509804
-11.40955 24.412615 1.5463902 0.0039215689
-7.6179719 18.435944 0.7971108 0.0039215689
-26.348526 57.160194 -2.9684749 0.039215688
-4.8420367 11.46693 -0.65278858 0.41568628
-5.749711 12.004972 1.6134698 0
-3.2660043 5.791965 -0.26715925 0
-3.8115816 10.320329 -0.38591799 0
-4.8938913 11.598347 2.2698147 0
-4.1444316 8.4849749 -0.22065453 0
-2.0626028 4.5350504 -2.2742095 0.0039215689
-3.6687775 7.5105872 -2.3104532 0.0078431377
-4.3588104 10.358248 -2.2321575 0.062745102
-4.8981447 13.645399 -0.17523713 0
-6.5994682 13.995148 -2.3975129 0.023529412
-2.7005854 6.1535792 -0.84373724 0
-1.9171261 3.2083933 0.021409214 0
-10.890638 23.489834 -2.792232 0.023529412
-11.248848 32.384617 -3.2140245 0.070588239
-21.668476 47.337029 -3.666759 0.039215688
-14.695212 36.570911 -3.2347639 0.015686275
-3.0118623 6.9433889 0.1278704 0
-24.106628 46.530727 -3.3844349 0.078431375
-9.9987307 21.518274 1.3612322 0.0039215689
-2.7197361 6.2026176 0.26978043 0
-3.2905164 6.6745372 -0.34339812 0
-3.4202261 6.962131 0.93544948 0
-6.4942226 18.355089 -0.6879127 0.0039215689
-6.5842881 16.004322 3.1266489 0.0039215689
-2.0472815 4.5449524 -2.2759051 0.0039215689
-11.822676 22.753469 -0.46037936 0.0078431377
-3.6459422 7.5335264 -2.3137021 0.011764706
-4.3136854 10.354882 -2.2282271 0.054901961
-1.8820653 3.5933142 0.00018642866 0
-6.5578103 14.039883 -2.4012301 0.023529412
-8.0522928 19.938562 -2.7368488 0.0039215689
-10.841825 23.612072 -2.8021681 0.035294119
-11.195811 32.621002 -3.2335229 0.023529412
-3.2887926 9.0048923 0.10661171 0
-21.628473 47.713776 -3.6899092 0.043137256
-14.619013 36.772087 -3.2479198 0.015686275
-10.462464 20.074097 0.6422444 0.0039215689
-4.1564388 9.952795 0.18173316 0
-24.075018 46.891846 -3.4043932 0.078431375
-5.2593207 11.139914 0.70496392 0
-10.52584 26.282785 5.125452 0.0039215689
-2.0269735 4.5372853 -2.2691352 0.0078431377
-14.615401 28.48938 -0.57624805 0.019607844
-3.6225009 7.5481853 -2.3147881 0.011764706
-4.275085 10.357247 -2.2258706 0.047058824
-2.6405311 5.3354335 -0.0011762821 0
-7.5825129 22.072432 -0.28466386 0.0039215689
-6.5160246 14.071478 -2.4030926 0.019607844
-7.9947095 19.986452 -2.7399073 0.0039215689
-1.8353409 3.1018827 0.020729629 0
-10.734442 23.581553 -2.7944221 0.035294119
-11.443099 33.730713 -3.339947 0.023529412
-3.4311707 7.117981 0.178601 0
-5.7834635 16.639277 0.19424123 0.0039215689
-21.513813 47.882793 -3.6975522 0.043137256
-14.406497 36.585175 -3.2272542 0.015686275
-8.0838766 15.514928 0.49621636 0.0039215689
-24.084517 47.298523 -3.4282274 0.078431375
-7.7574196 16.870855 -0.86992019 0
-6.0883594 13.11018 3.8346457 0
-11.971536 30.285318 5.8979487 0.011764706
-2.0175917 4.5603027 -2.2776034 0.0039215689
-8.4745483 16.433184 -0.33054394 0.0039215689
-24.356056 62.996639 -2.0086677 0.070588239
-3.5992262 7.5668817 -2.3169556 0.011764706
-4.2417021 10.378479 -2.2274511 0.035294119
-5.0199671 14.502757 -0.18579562 0
-6.4764004 14.114894 -2.4068091 0.019607844
-7.9163871 19.991047 -2.7368708 0.0039215689
-41.003784 106.54675 -0.74261099 0.16862746
-10.60086 23.501425 -2.7806392 0.035294119
-11.324035 33.765713 -3.3395863 0.023529412
-3.8985593 8.2492695 0.20619321 0
-21.490988 48.285419 -3.7229557 0.043137256
-41.024296 106.6015 1.9123185 0.10980392
-24.076101 47.69566 -3.4510293 0.078431375
-36.435402 110.50027 -6.8533287 0.15686275
-41.025578 106.60596 4.5698838 0.24705882
-37.115826 83.845139 -4.328784 0.074509807
-24.338755 62.950726 -3.5778859 0.094117649
-4.5721812 9.7828436 1.3071476 0
-3.796176 9.2142601 0.80103713 0
-2.0003777 4.5629716 -2.2759128 0.0039215689
-7.8851566 15.386294 -0.30876604 0.0039215689
-24.109144 63.00927 -2.0064366 0.070588239
-3.5743272 7.5819721 -2.318042 0.011764706
-4.1998987 10.377592 -2.2243075 0.039215688
-4.0475297 11.668803 -0.14873371 0
-6.4318233 14.147326 -2.4086721 0.023529412
-3.1829882 7.6897964 -1.0494709 0
-3.0941443 5.7012701 0.035465825 0
-10.479086 23.446171 -2.7698743 0.035294119
-10.01378 30.117193 -2.9750276 0.019607844
-21.374863 48.479916 -3.7322915 0.043137256
-2.5169199 5.9292121 -0.51907277 0
-24.06522 48.093288 -3.4738312 0.082352944
-37.154045 114.0414 -7.0650678 0.15686275
-4.4841428 9.6739998 1.2906632 0
-8.0811329 24.141623 -0.90158397 0.0078431377
-3.2719402 6.8891659 2.0101912 0
-3.1146517 7.5101743 1.46083 0
-11.587274 25.993296 -0.67697924 1
-1.9818958 4.5621815 -2.2725291 0.0039215689
-5.1497684 9.9438477 -0.19814463 0
-23.889067 63.092075 -2.0064704 0.070588239
-3.5432649 7.5828362 -2.3148038 0.011764706
-4.166398 10.398578 -2.2258878 0.035294119
-6.394918 14.197766 -2.4136236 0.023529412
-7.7849813 20.066206 -2.7399402 0.0039215689
-10.356247 23.3867 -2.758678 0.043137256
-0.74901557 1.4865863 0.020020479 0.047058824
-14.103652 36.947701 -3.2463589 0.015686275
-4.0272703 10.027846 0.18211281 0
-24.057125 48.502178 -3.4974091 0.082352944
-34.120762 105.92326 -6.5545964 0.28627452
-7.3177328 14.365002 -0.66013455 0.0039215689
-3.7547297 9.3003569 1.805987 0
-11.502808 26.047314 -0.67738068 1
-1.9689329 4.5786071 -2.277611 0.0039215689
-3.5184686 7.6018538 -2.3169715 0.0078431377
-4.1323376 10.423808 -2.2282555 0.035294119
-4.971714 11.00826 -0.0055969264 0.0039215689
-4.6703501 13.934533 -0.1777954 0
-6.3552423 14.249187 -2.4185758 0.023529412
-7.7237711 20.127092 -2.744523 0.0039215689
-2.8497021 6.9592099 -0.045510784 0
-10.231428 23.332062 -2.7479131 0.035294119
-10.315656 31.826797 -3.1369185 0.023529412
-4.7052903 14.045399 0.16366899 0
-1.8060701 4.1393518 -0.36048481 0
-24.043135 48.926521 -3.5217652 0.082352944
-33.735867 106.05804 -6.555346 0.43529412
-10.386202 27.322142 1.1687077 0.0078431377
-0.98688316 1.9261401 -0.10609181 0
-10.527241 27.703703 2.3928688 0.0039215689
-1.3465092 2.2079055 -0.098715156 0
-2.8237038 5.9756312 1.7386343 0
-2.3368733 5.5740824 1.0820744 0
-11.410398 26.095652 -0.67759091 1
-1.9549848 4.587605 -2.2793062 0.0039215689
-6.7690182 13.483451 -0.26884755 0
-3.4932404 7.6125708 -2.3169763 0.0078431377
-4.0977488 10.436545 -2.2282605 0.031372551
-11.255542 35.213287 -0.45343357 0.011764706
-6.3218088 14.302032 -2.4241445 0.023529412
-7.6556211 20.147959 -2.744025 0.0039215689
-1.0598925 2.1452563 -0.011932163 0
-10.130771 23.310013 -2.7414594 0.015686275
-10.02984 31.282049 -3.0799768 0.023529412
-13.758962 36.807529 -3.2257109 0.015686275
-8.8478479 17.799404 0.5639255 0.0039215689
-24.043604 49.343113 -3.5461171 0.082352944
-4.9584918 11.079201 0.694812 0
-26.312429 61.579128 -3.1594946 0.039215688
-8.8389568 23.379915 2.0173943 0.0039215689
-2.2150877 4.0297441 -0.18237807 0
-11.244731 35.178333 -1.3108048 0.85882354
-4.5737281 11.737587 2.2726214 0
-11.328479 26.143486 -0.67789513 1
-1.941426 4.6002598 -2.2826946 0.0039215689
-0.95310962 1.4226872 -0.025622614 0.0039215689
-3.4681296 7.6273136 -2.3180623 0.0078431377
-4.0599527 10.446144 -2.2274785 0.035294119
-4.8858647 11.014153 -0.0055908682 0.0039215689
-6.2581029 14.290251 -2.4185939 0.011764706
-7.5974035 20.207174 -2.7486069 0.0039215689
-10.040116 23.322271 -2.7388871 0.015686275
-10.172634 32.134186 -3.160548 0.070588239
-7.3327322 16.85792 0.4151001 0
-13.793377 37.304138 -3.2651324 0.015686275
-24.029417 49.757183 -3.5699539 0.082352944
-11.106481 35.166195 -2.1669698 0.14901961
-6.2483706 16.486313 1.4216161 0
-27.225119 56.451439 -2.5900433 0.14509805
-11.098324 35.140003 -1.3079674 0.86666667
-4.8290911 10.879964 3.1541777 0
-6.1859918 16.314871 3.1537347 0.0039215689
-11.243325 26.196669 -0.67829585 0.81176472
-1.9229096 4.5992293 -2.2793107 0.0039215689
-3.4459102 7.6490893 -2.3213103 0.0078431377
-4.0194945 10.448218 -2.2251217 0.043137256
-10.993145 35.235519 -0.45276624 0.10196079
-7.5241437 20.225145 -2.747601 0.0039215689
-4.8696799 11.083363 -1.2980871 0.023529412
-9.8506088 31.478928 -3.0927391 0.070588239
-11.006053 35.278236 0.40524226 0.082352944
-13.672498 37.377365 -3.2674494 0.015686275
-3.886904 10.079269 0.18209223 0
-24.026312 50.200607 -3.5958605 0.082352944
-2.5237281 6.276372 0.26975027 0
-2.8168161 7.0941515 0.61263478 0
-27.05184 56.595745 -2.5924072 0.14509805
-10.95466 35.10873 -1.3054144 0.86666667
-3.6245642 9.3480425 1.8059679 0
-4.8323388 10.993749 -0.28249401 0.81176472
-1.8971843 4.5981593 -2.2758992 0.0039215689
-3.4061217 7.6458893 -2.3168495 0.0039215689
-3.9823551 10.479727 -2.2288206 0.031372551
-7.453001 20.269033 -2.7495492 0.0039215689
-3.775445 9.8969088 -0.065446071 0
-4.8434024 11.14714 -1.3034294 0.027450981
-10.001739 32.404655 -3.1793938 0.023529412
-4.8435616 11.147717 -0.84807163 0.87450981
-13.556252 37.484016 -3.2714899 0.015686275
-1.6384499 2.9257834 0.094690904 0.0039215689
-24.003307 50.622868 -3.6184688 0.086274512
-3.8613472 8.7558851 0.5475204 0
-5.0801139 13.577171 0.57970738 0
-4.8391781 11.137155 -0.56619859 0.74509805
-2.9164052 7.4737196 -0.41818553 0
-12.960455 30.920338 4.0834956 0.011764706
-26.823486 56.638084 -2.5881619 0.14509805
-10.821562 35.134258 -1.3038642 0.7764706
-4.8338165 11.124213 -0.28520486 0.70980394
-1.8811193 4.6038232 -2.2759013 0.0039215689
-3.1150494 8.1240215 -0.25364047 0
-3.3808584 7.6603684 -2.317935 0.0039215689
-3.945745 10.492635 -2.2288253 0.035294119
-4.8097706 11.176647 -0.0054293987 0.66666669
-6.29145 14.820762 -2.4972885 0.019607844
-1.3618003 3.123286 -0.42066616 0
-3.8357973 8.7806292 0.21688265 0
-4.8361712 11.241248 -0.85399526 0.85882354
-13.471477 37.661858 -3.2829947 0.023529412
-4.728189 9.6025963 0.30380112 0
-24.009771 51.100002 -3.6466868 0.086274512
-2.8819151 6.4340196 0.40250397 0
-4.8439045 11.260389 -0.57168239 0.6901961
-34.771011 98.41227 -5.5350609 0.42745098
-5.1136236 10.431806 -0.47356895 0
-8.8073034 28.793722 -1.0669345 0.14117648
-3.8448806 8.8039322 2.5420756 0
-4.8345237 13.029379 2.5101845 0
-4.8386259 11.247519 -0.28798965 0.6156863
-1.8674089 4.6162786 -2.2792895 0.0078431377
-3.3627219 7.6926308 -2.324425 0.011764706
-3.9090905 10.505414 -2.2288301 0.031372551
-4.8185134 11.311184 -0.0055239196 0.66666669
-6.249999 14.867368 -2.5016203 0.015686275
-3.7652245 10.091228 -0.066626109 0
-9.7108612 23.467422 -2.7395144 0.015686275
-10.051678 33.415855 -3.2719312 0.023529412
-6.1265907 14.561872 0.35729757 0
-3.7322001 11.835016 0.13779475 0
-4.8430791 11.371879 -0.8627367 0.82745099
-13.352974 37.745392 -3.2862937 0.023529412
-23.998167 51.545151 -3.6725776 0.086274512
-2.4506478 6.2995257 0.26983091 0
-4.8508096 11.391206 -0.57754397 0.79607844
-34.445557 98.584953 -5.5380745 0.0078431377
-4.8515849 11.39325 -0.29134926 0.81176472
-1.8517203 4.6178575 -2.2775984 0.0039215689
-3.337111 7.698741 -2.323348 0.0078431377
-3.8722491 10.505677 -2.2264726 0.023529412
-4.8318539 11.448038 -0.0056205778 0.66666669
-3.2713346 10.381828 -0.13051693 0
-6.1988702 14.875077 -2.4997749 0.011764706
-7.2641778 20.389532 -2.7561769 0.019607844
-9.6267776 23.471115 -2.7365081 0.015686275
-9.6532612 32.432693 -3.1726813 0.047058824
-8.3217239 27.832808 0.31990147 0.0039215689
-4.8501949 11.49368 -0.87091392 0.44313726
-4.5643888 12.522977 -1.087183 0
-7.4294314 15.687915 0.49300376 0.0039215689
-5.947753 16.554583 0.29618868 0.0039215689
-23.998596 51.975296 -3.6979482 0.086274512
-8.5393085 28.584023 -1.7509664 0.47450981
-4.8295698 13.296306 0.56576526 0
-34.969376 101.12116 -5.6745057 0.24705882
-8.5416899 28.592461 -1.057411 0.79607844
-1.8344244 4.6199298 -2.2759073 0.0078431377
-3.3116317 7.7129941 -2.3244333 0.0078431377
-3.8380747 10.525625 -2.2280514 0.019607844
-4.4577079 14.672729 -0.185462 0
-6.1483607 14.899369 -2.5004008 0.0078431377
-7.2082605 20.45892 -2.7622797 0.031372551
-6.4329762 18.174742 -0.1220226 0
-9.5316515 23.470354 -2.7326412 0.0078431377
-9.8615627 33.591061 -3.2828126 0.023529412
-10.936743 37.356415 0.42794845 0.0078431377
-4.0621066 11.186399 -0.96968222 0
-7.0681114 15.035227 0.47185558 0.0039215689
-23.978262 52.414215 -3.7233222 0.086274512
-8.3791676 28.40155 -1.7380306 0.42352942
-0.95650768 2.0331478 0.088808402 0
-34.56229 101.08279 -5.6656399 0.24705882
-4.3822117 10.426647 1.3712902 0
-5.8671532 16.507549 1.4136459 0
-26.372843 57.708057 -2.6207685 0.14901961
-8.4001188 28.475103 -1.0520083 0.81568629
-6.2625003 15.191298 4.3666916 0.0039215689
-1.8159809 4.6185012 -2.2725234 0.0078431377
-4.9150691 13.859468 -0.43272638 0
-3.2888927 7.7343364 -2.3276806 0.0078431377
-3.8050528 10.549182 -2.2304175 0.019607844
-6.0963163 14.919808 -2.5004091 0.0078431377
-7.1544671 20.535688 -2.769398 0.0039215689
-9.4612465 23.532181 -2.7361033 0.0078431377
-10.875735 37.639812 0.4307386 0.0078431377
-3.8873982 10.795162 -0.93456626 0
-10.259917 22.297907 0.697303 0.0039215689
-23.956787 52.857273 -3.748955 0.090196081
-8.252902 28.333611 -1.7321548 0.59607846
-4.4420567 10.687034 0.66308707 0
-0.91001213 1.9180723 0.083846033 0
-26.166357 57.787895 -2.620312 0.14901961
-8.25947 28.357113 -1.0466055 0.85490197
-2.219089 5.8216128 1.1178527 0
-1.8021266 4.6307616 -2.2759111 0.0039215689
-3.2604818 7.7412472 -2.3266037 0.0078431377
-3.7756062 10.583804 -2.2351451 0.019607844
-6.0498939 14.954812 -2.5028877 0.0078431377
-7.1289282 20.698952 -2.7881963 0.019607844
-7.1231103 15.442818 0.089537397 0
-2.5023065 6.7436419 -0.043370634 0
-9.4335394 23.70508 -2.7524991 0.0078431377
-3.1421289 10.339677 0.12027624 0
-12.904405 38.120583 -3.3037522 0.023529412
-9.891592 21.678518 0.676947 0.0039215689
-23.929235 53.293518 -3.7740705 0.090196081
-8.113286 28.215128 -1.7232194 0.59607846
-5.4993019 13.532269 0.83773053 0
-24.615093 62.965569 -3.1884644 0.039215688
-2.2528853 5.9911585 -0.33229443 0
-1.7761534 4.5533423 0.39104912 0
-3.1051044 6.392911 -0.28685939 0
-8.1175871 28.230789 -1.0409174 0.81568629
-3.5516739 8.4961891 2.4367251 0
-1.2291367 2.903317 0.55821157 0
-24.612007 62.95821 -1.6144265 0.054901961
-1.787077 4.6395383 -2.277606 0.0078431377
-3.2334361 7.7516513 -2.3266079 0.0078431377
-3.734971 10.58481 -2.2327876 0.011764706
-6.7216411 16.867796 -0.0096050519 0.0039215689
-6.0061255 14.997056 -2.5066016 0.0039215689
-7.0603285 20.734093 -2.7897279 0.023529412
-5.7422132 12.449615 0.072620623 0
-1.5858102 4.0260177 -0.024707709 0
-9.384841 23.826075 -2.7628589 0.0078431377
-9.5756292 33.931644 -3.3064382 0.023529412
-41.063038 106.60834 2.5801623 0.074509807
-3.278861 7.8710384 -0.59225851 0
-12.810966 38.285702 -3.314271 0.023529412
-0.7451126 1.4601049 0.028598657 0.011764706
-23.934284 53.810608 -3.8048742 0.090196081
-7.9862156 28.138376 -1.7168725 0.78823531
-41.075443 106.64233 6.5735226 0.078431375
-24.359436 62.95689 -3.1837757 0.039215688
-38.051208 115.32151 -6.4417176 0.24705882
-3.4431977 7.2222509 -0.32394844 0
-7.9893756 28.150084 -1.0369378 0.79607844
-1.2459557 2.9889386 0.57393456 0
-24.359203 62.956905 -1.6122563 0.054901961
-1.7742198 4.655159 -2.2826865 0.0078431377
-11.5922 25.996115 -0.5114603 0.95294118
-3.9506645 11.377851 -0.35350972 0
-3.2077222 7.7655611 -2.327693 0.0039215689
-3.6955848 10.589389 -2.2312171 0.015686275
-40.706997 106.7921 -0.076017559 0.24705882
-5.9579387 15.028085 -2.5084622 0.0039215689
-6.9866896 20.753906 -2.789228 0.043137256
-10.707151 23.964874 0.13692713 0.0039215689
-9.3058424 23.86891 -2.7641647 0.0078431377
-9.7691917 35.117195 -3.4188175 0.023529412
-3.772016 9.2567129 0.22632958 0
-5.7840152 20.39016 0.2339607 0.0039215689
-20.473997 53.360561 -4.0266232 0.043137256
-12.587605 38.052387 -3.2903247 0.023529412
-4.5084305 9.7365761 0.30466413 0
-23.908928 54.266155 -3.8312826 0.090196081
-7.8389316 27.983992 -1.7058179 0.7019608
-4.5321527 11.264215 0.69593102 0
-0.98859817 1.906316 -0.093469918 0
-37.783794 115.87071 -6.465097 0.24705882
-11.619579 26.058672 -1.1745979 0.0078431377
-7.8482633 28.01866 -1.0311067 0.79607844
-3.5727115 10.211311 1.9519399 0
-24.126568 63.006973 -1.6114269 0.054901961
-1.7557498 4.6534891 -2.2793026 0.0039215689
-11.504563 26.042828 -0.51162237 0.95686275
-3.1832981 7.78299 -2.3298585 0.0078431377
-3.6609898 10.608763 -2.2327957 0.011764706
-3.0419273 10.399961 -0.12999095 0
-5.9151525 15.073763 -2.5127935 0.0039215689
-6.893651 20.712992 -2.7806029 0.043137256
-5.285924 11.631816 0.067824826 0
-5.3482165 15.883286 -0.10568234 0
-9.2099104 23.8668 -2.7602968 0.0078431377
-5.9552274 15.181834 0.36889017 0
-10.357081 26.928684 -2.0279562 0.0039215689
-12.551887 38.398914 -3.3165982 0.023529412
-7.701056 27.859785 -1.6966461 0.70980394
-7.5823503 19.524664 1.2026249 0.0039215689
-2.8707166 8.1394529 0.34503341 0
-0.98474574 1.9163063 -0.093848661 0
-37.491089 116.35097 -6.4846568 0.24705882
-3.8531585 11.210501 0.95540911 0
-7.7071323 27.882734 -1.0251329 0.67843139
-3.5333776 8.718112 -0.22020018 0
-1.7405852 4.6621151 -2.2809973 0.0078431377
-11.421441 26.100286 -0.51200175 0.95294118
-3.1547685 7.7895155 -2.3287816 0.0039215689
-3.6286592 10.635505 -2.2359486 0.019607844
-6.8081441 20.694384 -2.7750244 0.047058824
-4.2376738 9.2915907 0.054670248 0
-9.1334476 23.916521 -2.7624645 0.0078431377
-20.378361 54.248585 -4.083035 0.043137256
-5.1725922 11.479288 0.3576012 0
-4.3374567 12.87877 0.22918893 0
-7.5773368 27.785166 -1.6905336 0.78823531
-4.9073219 12.518131 0.77106225 0
-33.80415 106.10168 -5.9066467 0.24705882
-5.279933 15.860892 1.3490714 0
-7.5812707 27.800295 -1.0211524 0.81960785
-10.988215 28.920444 -0.73618782 0.011764706
-1.7134944 4.6326389 -2.2640688 0.011764706
-11.333378 26.146433 -0.5121634 0.95294118
-3.1302075 7.8067808 -2.3309476 0.0039215689
-3.578649 10.605997 -2.227293 0.023529412
-2.0413697 6.8417401 -0.084377185 0
-4.6679959 11.999866 -1.9946042 0.023529412
-6.7181187 20.660288 -2.7674141 0.047058824
-2.6476808 5.6254926 0.034176894 0
-9.0553741 23.962261 -2.7642007 0.0078431377
-9.4158993 35.272602 -3.4244618 0.023529412
-20.326242 54.693066 -4.1112404 0.043137256
-11.243784 35.154106 -3.0294166 0.078431375
-4.6649499 10.391694 0.32350686 0
-4.3675742 13.133414 0.23340647 0
-7.4391885 27.652046 -1.6808903 0.63137257
-3.8633208 11.518573 0.48602301 0
-7.4500527 27.694099 -1.0163171 0.81568629
-1.7028956 4.6792521 -2.2843573 0.011764706
-11.250408 26.221697 -0.5120762 0.85490197
-11.117412 35.203915 -1.0938786 0.87843138
-3.1022913 7.8348565 -2.3362095 0.0078431377
-3.5425022 10.643746 -2.2325613 0.011764706
-4.1283817 15.132722 -0.18953077 0
-4.6202412 12.018873 -1.9949276 0.027450981
-6.6259718 20.640991 -2.7612255 0.047058824
-11.139603 35.276127 -0.23632039 0.11372549
-8.9577932 23.974104 -2.7613187 0.0078431377
-9.3123302 35.40852 -3.4334471 0.023529412
-35.575825 138.13702 1.5675026 0.062745102
-11.096357 35.135059 -3.0233691 0.10980392
-6.7899671 15.58055 0.48334646 0.0039215689
-7.3009224 27.541487 -1.6718069 0.66274512
-5.3151793 13.935342 0.85621256 0
-11.11056 35.181435 -1.9512246 0.15294118
-3.6731417 11.068287 0.94049269 0
-7.3115993 27.583405 -1.0104855 0.75686276
-1.3781492 3.6719577 -1.790038 0.0078431377
-4.8207812 10.989698 -0.21271993 0.58431375
-10.985148 35.211002 -1.0929379 0.59215689
-3.0710213 7.8338575 -2.3329706 0.011764706
-3.504185 10.65139 -2.2317777 0.019607844
-4.5702515 12.011703 -1.9912281 0.019607844
-6.5353842 20.602364 -2.7531092 0.047058824
-10.99776 35.252666 -0.23591745 0.1254902
-8.878088 24.015549 -2.7626226 0.0078431377
-10.97946 35.191742 -3.0250208 0.078431375
-11.009219 35.290535 0.62216103 0.2
-4.870224 11.108599 -0.77593678 0.79607844
-7.1774311 27.457481 -1.6652263 0.78823531
-10.99235 35.234386 -1.9520841 0.16862746
-4.8590312 11.081743 -0.49391443 0.73725492
-7.181097 27.472178 -1.0055119 0.82352942
-3.884104 10.101429 2.8706155 0
-5.7777524 18.117002 3.4426444 0.0039215689
-1.6680989 4.6822743 -2.2809746 0.011764706
-4.8523226 11.175714 -0.21605749 0.74117649
-10.834523 35.156334 -1.0900927 0.87058824
-3.0488064 7.8581414 -2.3372974 0.0078431377
-3.4658494 10.658895 -2.2309937 0.015686275
-1.6725252 3.9813247 -6.3245418e-05 0
-1.4786583 4.9112005 -0.059560135 0
-4.5282912 12.026678 -1.9912333 0.019607844
-6.4497056 20.57855 -2.7470231 0.047058824
-4.822566 11.103419 0.064654671 0.67058825
-8.7822208 24.011763 -2.7587543 0.0078431377
-4.8938174 18.668877 0.21381167 0.0039215689
-2.8707714 6.354229 0.19814873 0
-4.8572121 11.187391 -0.78033644 0.85490197
-7.0497885 27.353573 -1.6574694 0.78823531
-4.297482 11.377326 0.69778216 0
-10.9111 35.411682 1.4846632 0.12156863
-10.92495 35.458176 3.0006638 0.11372549
-4.859818 11.193843 -0.49822211 0.4627451
-7.0543323 27.372021 -1.0009648 0.82745099
-1.6476164 4.6732674 -2.2742045 0.0078431377
-4.8358979 11.247243 -0.21715009 0.54509807
-10.720854 35.223701 -1.0910556 0.25098041
-3.0149794 7.8496614 -2.3318965 0.011764706
-3.4364388 10.696338 -2.2365067 0.011764706
-4.490211 12.052693 -1.9930911 0.011764706
-6.3676682 20.565802 -2.7424598 0.043137256
-4.8455935 11.271182 0.065494508 0.81960785
-8.6917686 24.0226 -2.7566094 0.0078431377
-8.9968481 35.729614 -3.4555597 0.050980393
-2.0502834 5.1021132 0.12496231 0
-4.5027494 17.352287 0.19875243 0.0039215689
-7.5227008 20.692369 -1.5452666 0.0039215689
-11.776575 38.77771 -3.3265722 0.023529412
-4.8572516 11.2995 -0.78706211 0.8509804
-6.9239168 27.252985 -1.6499474 0.66274512
-2.5370903 6.488863 -0.32213426 0
-4.8764534 11.346799 -0.50434959 0.73725492
-6.9321628 27.286848 -0.99698639 0.82352942
-2.1984756 5.5248141 1.5673037 0
-10.858901 35.690807 6.7653079 0.078431375
-1.6343499 4.6885176 -2.2792845 0.0078431377
-4.8474174 11.389278 -0.21961868 0.46666667
-8.7056837 28.80665 -0.89087588 0.46666667
-2.9938715 7.8774238 -2.3373044 0.011764706
-3.3957658 10.696075 -2.2341487 0.015686275
-4.4753227 12.145793 -2.0060642 0.019607844
-6.2880182 20.560349 -2.7389121 0.047058824
-4.8376074 11.365038 0.06592159 0.73333335
-11.007266 36.6567 -0.24468027 0.011764706
-8.607852 24.051889 -2.7566197 0.0078431377
-8.8422194 35.636013 -3.4435842 0.023529412
-19.557997 55.600224 -4.1517444 0.047058824
-11.681507 38.955399 -3.3383958 0.023529412
-4.861032 11.422852 -0.794563 0.7019608
-5.3951063 14.796819 0.90447158 0
-5.7561331 15.837379 2.0497897 0.0039215689
-4.8756418 11.459231 -0.50865734 0.43529412
-1.619801 4.6965318 -2.2809789 0.0078431377
-4.8466792 11.497293 -0.22143519 0.047058824
-8.567853 28.688562 -0.88636106 0.82352942
-2.9689834 7.8900905 -2.3383882 0.0078431377
-3.3635514 10.717716 -2.2365127 0.015686275
-2.879847 7.6313004 -0.002605957 0.0039215689
-10.776788 44.314232 -0.55792588 0.019607844
-4.4363055 12.163443 -2.0066864 0.019607844
-6.2032499 20.52306 -2.7313023 0.043137256
-4.8458495 11.495326 0.066555314 0.19607843
-3.2416186 10.297297 -0.066710085 0
-2.0419774 5.1909957 -0.59207857 0
-8.8076878 36.01688 -3.4776635 0.023529412
-4.8505969 13.370769 0.32232866 0
-3.2919028 12.776937 0.14682113 0
-2.5351849 6.6273832 -0.49187478 0
-11.622131 39.234295 -3.3590772 0.023529412
-4.5447164 10.740676 0.33167773 0
-30.586208 127.77946 -7.7335291 0.082352944
-5.0775638 14.031938 0.85687244 0
-4.8272939 13.302566 -0.66172296 0
-5.939044 19.612001 1.6558169 0.0039215689
-4.2915316 13.923413 2.6355464 0
-1.6014024 4.6942835 -2.2775943 0.0078431377
-8.4226036 28.55978 -0.88148928 0.82352942
-2.9389439 7.8922076 -2.3362296 0.0078431377
-3.3228815 10.717176 -2.2341547 0.019607844
-5.624167 15.802881 -0.0083031096 0.0039215689
-10.68664 44.627205 -0.56142879 0.019607844
-6.1250219 20.520796 -2.7282617 0.043137256
-8.4426556 24.104395 -2.7562079 0.0078431377
-19.24321 55.919212 -4.1658721 0.047058824
-10.950726 37.40527 0.65588498 0.015686275
-10.871096 37.126919 1.5501317 0.023529412
-3.3178723 9.009059 -0.44672632 0
-8.4103994 28.516895 -1.5713835 0.81568629
-3.6074085 9.8625326 1.2744943 0
-10.613573 44.314285 -1.6168638 0.031372551
-3.1494908 10.111694 1.9128212 0
-1.5850061 4.6989388 -2.2775955 0.0039215689
-8.2805367 28.438021 -0.87685519 0.83137256
-2.9138279 7.9088144 -2.3383946 0.0078431377
-3.2907755 10.746676 -2.2380929 0.011764706
-4.9873962 14.088491 -0.0071011847 0
-10.716366 45.470207 -0.57162774 0.019607844
-5.4175677 15.369487 -2.5303547 0.0039215689
-6.0458164 20.514416 -2.7247133 0.035294119
-8.3559361 24.125271 -2.7553554 0.0078431377
-2.7059443 7.2899566 -0.54004455 0
-8.2982836 28.500513 -2.434484 0.050980393
-1.0166435 1.937084 0.061866961 0
-10.824447 37.457756 0.65614343 0.015686275
-10.611444 45.013569 -2.7181184 0.027450981
-2.8438187 7.701138 0.47037107 0
-6.0678115 17.307669 -0.85974854 0
-8.2674398 28.391396 -1.5629112 0.8509804
-5.7342587 16.314726 2.1040745 0.0039215689
-10.471375 44.404705 -1.6188623 0.062745102
-2.8032024 7.5806675 2.1394227 0
-4.7977858 13.523372 -0.33862576 0
-1.5715088 4.7140112 -2.2826753 0
-8.1404943 28.319475 -0.87233984 0.83137256
-2.8849907 7.9143758 -2.3373168 0.011764706
-3.2521923 10.753414 -2.2373087 0.0078431377
-10.203588 43.942112 -0.55189002 0.019607844
-5.3688641 15.402405 -2.532831 0.0039215689
-5.968854 20.515373 -2.7221801 0.031372551
-8.2804394 24.179806 -2.7583816 0.0078431377
-7.3224964 31.210312 -3.0058885 0.023529412
-8.2575359 28.73963 -2.4525378 0.0078431377
-29.872202 130.85521 -7.900598 0.023529412
-11.039213 38.736435 1.6140193 0.043137256
-8.1275969 28.272943 -1.5548626 0.8392157
-24.62117 62.966339 -2.7922034 0.15294118
-10.324262 44.475166 -1.6201491 0.031372551
-4.8278599 13.773572 3.8805871 0
-6.9467793 24.03141 4.5334783 0.0039215689
-1.5522997 4.7117991 -2.2792909 0.0039215689
-41.040771 106.5652 -2.0637901 0.24705882
-8.0006723 28.217073 -0.86830062 0.82352942
-2.8583584 7.9312658 -2.3394816 0.0039215689
-3.2106771 10.756746 -2.2357373 0.011764706
-5.3123693 15.421028 -2.5328372 0.0039215689
-5.8925633 20.532337 -2.721678 0.019607844
-41.036579 106.55524 0.59097892 0.10980392
-5.3265357 18.469801 -0.12134185 0
-2.3398869 6.349381 -0.72139263 0
-4.9923296 14.445186 0.34635553 0
-10.254484 44.93161 0.50781411 0.015686275
-5.8838882 17.16576 -1.2723823 0.0039215689
-41.053165 106.59959 3.2495291 0.24705882
-23.513155 60.762867 -4.2097311 0.15686275
-29.553617 131.68787 -7.9443679 0.086274512
-7.8851686 23.274694 1.4127816 0.0039215689
-3.6084654 12.207442 0.50997192 0
-4.0329232 11.516705 -0.56981397 0
-7.9869199 28.166769 -1.5474501 0.81960785
-1.6392717 4.2114654 0.54381335 0
-2.544342 8.3286638 0.70191211 0
-24.370205 63.00296 -2.7899206 0.15294118
-10.172453 44.562481 -1.6220049 0.031372551
-3.0416965 10.141885 1.9128129 0
-1.6790671 4.3327117 -0.106376 0.0039215689
-1.5385604 4.7230563 -2.2826777 0.0039215689
-7.863174 28.080502 -0.86330819 0.627451
-2.8344157 7.9471674 -2.3416462 0.0078431377
-3.1831906 10.796757 -2.2420368 0.015686275
-9.9094057 44.069061 -0.5526402 0.019607844
-5.2709475 15.467775 -2.5377824 0.0039215689
-5.8244448 20.550905 -2.7216828 0.019607844
-2.9892299 7.2047534 0.042438813 0
-1.1942941 3.4522464 -0.020444943 0
-8.1102018 24.23143 -2.7579689 0.0078431377
-10.102876 44.952778 0.50767702 0.015686275
-2.4213777 7.9839621 0.14157756 0
-3.7261426 9.1494303 -0.63074106 0
-5.2602682 15.435934 0.9368546 0
-2.179527 5.9264317 -0.29157153 0
-7.8527613 28.041876 -1.5391885 0.81960785
-9.647543 42.873024 -1.559269 0.031372551
-4.6527734 16.225357 3.0558624 0.0039215689
-1.5220617 4.7274928 -2.2826788 0.0039215689
-7.7341547 27.990986 -0.85974407 0.81176472
-2.8054798 7.9524422 -2.3405683 0.0078431377
-3.1475024 10.814475 -2.2436132 0.0039215689
-9.6864691 43.781853 -0.54860783 0.019607844
-5.2169166 15.485177 -2.5377882 0.0039215689
-5.7444758 20.539539 -2.7176261 0.015686275
-8.0146484 24.224606 -2.7540984 0.0078431377
-9.9534712 45.02206 0.50806665 0.015686275
-11.22786 41.073605 -3.4962907 0.023529412
-3.7183695 12.952888 0.22778948 0
-6.3818221 16.330189 -1.1264566 0.0039215689
-7.0401158 31.491072 -1.8948503 0.043137256
-3.0097284 10.299209 0.42988312 0
-37.705719 116.972 -5.7999125 0.074509807
-7.7156615 27.921564 -1.5311389 0.82745099
-2.5029826 7.0081983 -0.17336996 0
-1.4983253 4.7319074 -2.28265 0
-7.5967541 27.893129 -0.85507703 0.81176472
-2.7763081 7.9796686 -2.3458259 0.0078431377
-3.101552 10.820724 -2.2425795 0.011764706
-2.1932609 6.1369653 -0.0014624118 0
-9.4255724 43.337032 -0.54119706 0.019607844
-5.1628337 15.525017 -2.5410755 0.0039215689
-5.6646199 20.554749 -2.7165229 0.019607844
-2.4767597 5.9972477 0.03576868 0
-3.5645368 12.57957 -0.081238583 0
-7.9145555 24.224995 -2.7503502 0.0078431377
-6.7981558 30.924088 -2.9682441 0.11372549
-6.2815003 28.483715 0.32306805 0.0039215689
-11.060334 34.170979 -2.52614 0.011764706
-11.108916 41.231171 -3.5051262 0.023529412
-5.9327579 15.314397 0.46774501 0.0039215689
-6.8900309 31.358276 -1.8844644 0.043137256
-6.4253273 19.517717 1.1818064 0.0039215689
-4.9195027 17.725714 0.73773581 0.0039215689
-7.5815868 27.835369 -1.5241348 0.81960785
-9.3023481 24.397917 -1.07381 0.0078431377
-9.3368893 42.917931 -1.5571741 0.031372551
-4.6324396 16.636047 3.127799 0.0039215689
-1.4817964 4.7362285 -2.2826509 0.0039215689
-7.4601598 27.767664 -0.85044616 0.84313726
-2.7484334 7.9884315 -2.3458285 0.0078431377
-5.1074243 15.538291 -2.540463 0.0039215689
-5.59582 20.585039 -2.71805 0.015686275
-7.8299375 24.251596 -2.7503581 0.0078431377
-6.6666365 30.833681 -2.9573925 0.06666667
-11.339006 35.483379 0.84423763 0.0078431377
-5.4123106 14.061654 0.42913631 0
-6.7471752 31.220974 -1.8748289 0.043137256
-0.88603759 2.4416618 0.1037313 0
-7.4472375 27.717733 -1.5163014 0.81568629
-1.7960231 5.9473906 0.50022817 0
-6.8153567 31.548815 -1.1431473 0.015686275
-2.735219 9.5658522 1.7979164 0
-1.4661527 4.7440028 -2.2843449 0.0039215689
-2.2775908 5.5794024 -0.10471965 0
-7.3255348 27.645464 -0.84593409 0.83137256
-2.7182603 7.9897361 -2.3436694 0.011764706
-3.0288508 10.851749 -2.2449448 0.023529412
-9.0298929 42.945446 -0.53550941 0.062745102
-5.0589833 15.574026 -2.5435548 0.0039215689
-5.521965 20.595877 -2.7170391 0.015686275
-35.577286 138.06622 -0.91579252 0.16862746
-7.7487569 24.289297 -2.7516584 0.0078431377
-6.5398297 30.762238 -2.9484119 0.090196081
-9.3744068 44.631149 0.50401968 0.015686275
-11.094499 35.130127 -2.5914781 0.14509805
-7.3059006 27.568398 -2.3385262 0.0078431377
-4.6687531 12.166552 0.37117127 0
-35.59367 138.13097 2.40117 0.10980392
-2.8744016 7.2233171 -0.49468619 0
-6.6221657 31.165209 -1.8701298 0.090196081
-11.178447 35.403507 2.1369433 0.011764706
-0.86166251 2.3819056 0.10116595 0
-11.108112 35.174484 -1.7353272 0.18431373
-7.3157916 27.607239 -1.5088917 0.85882354
-2.0055153 6.8527107 0.57547146 0
-4.681066 17.310575 3.2486253 0.0039215689
-11.100521 35.150143 -0.87653661 0.9137255
-1.4486976 4.7446976 -2.2826529 0.0078431377
-3.1217513 7.9916644 -0.15092541 0
-7.1977148 27.545925 -0.84213495 0.8392157
-2.6914778 8.0019798 -2.3447528 0.0078431377
-2.9794471 10.815743 -2.2355034 0.027450981
-8.8917503 43.034645 -0.53624946 0.019607844
-0.90000272 2.1251388 -0.34439665 0
-5.4451904 20.594912 -2.714505 0.0078431377
-3.4580586 12.714406 -0.081916399 0
-7.6627679 24.311514 -2.7512352 0.0078431377
-6.41752 30.709812 -2.9413025 0.13725491
-10.983443 35.205929 -2.5943041 0.086274512
-4.7411156 12.501759 0.38084474 0
-3.5465951 9.1746893 -0.62824154 0
-6.5259204 31.249891 -1.8738939 0.05882353
-2.0777259 7.2400141 0.30202398 0
-10.987601 35.21981 -1.7357154 0.15686275
-7.1852055 27.496168 -1.5014817 0.83137256
-11.094577 35.572567 4.5449047 0.011764706
-6.571353 31.476278 -1.1388886 0.070588239
-1.273114 3.3495975 0.93833804 0
-10.960278 35.130417 -0.8751139 0.9137255
-1.4321239 4.7488456 -2.2826538 0.0039215689
-4.1244116 10.903564 -0.20660542 0
-7.0725927 27.453594 -0.83857328 0.85882354
-2.6646354 8.0141325 -2.3458359 0.0078431377
-2.9341059 10.794749 -2.2292099 0.047058824
-10.878574 35.304031 -0.020619212 0.12941177
-9.0098934 44.426231 -0.55329049 0.06666667
-4.9546881 15.622341 -2.5460341 0.0039215689
-5.3675189 20.589809 -2.7114632 0.015686275
-2.830538 7.2602854 0.042543422 0
-7.5847268 24.360085 -2.7538278 0.0078431377
-6.2964077 30.660816 -2.9345675 0.06666667
-9.1956587 45.36871 0.51158559 0.015686275
-2.429708 8.7649059 0.15449832 0
-5.4729075 14.700471 -1.006947 0
-6.4306898 31.342117 -1.8781276 0.043137256
-10.909163 35.406261 2.1325512 0.10588235
-7.0602822 27.403904 -1.4951305 0.83137256
-0.94922924 1.9627447 -0.083554693 0
-6.4730301 31.556978 -1.141023 0.015686275
-10.828355 35.136948 -0.87435991 0.88627452
-1.4138153 4.7458944 -2.2792692 0.0039215689
-6.9434624 27.341303 -0.83441699 0.8392157
-2.6399364 8.0335798 -2.3490803 0.0039215689
-2.8842885 10.75452 -2.2189815 0.043137256
-8.8722515 44.546848 -0.5544228 0.043137256
-4.9068837 15.661391 -2.5497432 0.0039215689
-5.3022189 20.634516 -2.7150199 0.0078431377
-4.0206065 10.729962 0.061566401 0
-7.4826579 24.328352 -2.7473717 0.0078431377
-6.1825385 30.64654 -2.9312007 0.019607844
-8.8199301 44.276554 0.49899074 0.011764706
-7.0405102 27.737555 -2.3467407 0.015686275
-3.1149905 11.697702 0.20515822 0
-6.3356667 31.437981 -1.8825964 0.043137256
-8.64254 34.284496 1.418195 0.023529412
-8.8234892 28.840372 -1.4178782 0.0078431377
-6.9313555 27.291702 -1.48772 0.85882354
-10.829027 35.590302 4.5376091 0.074509807
-8.1103134 40.609169 -1.4680738 0.031372551
-3.565948 13.540865 2.5350595 0
-1.3972571 4.753644 -2.2809629 0.0039215689
-6.8263469 27.295679 -0.83228177 0.81176472
-2.6093869 8.0385828 -2.3480022 0.0039215689
-2.8365824 10.729781 -2.2119007 0.039215688
-8.5285072 43.627174 -0.54254287 0.019607844
-4.8438811 15.659385 -2.5466607 0.0039215689
-5.2228303 20.637459 -2.7129936 0.0078431377
-7.3855972 24.327978 -2.7443624 0.0078431377
-6.2275171 31.497557 -3.0105546 0.023529412
-3.6706192 11.658685 0.27762195 0
-8.6292534 44.158329 0.49731502 0.011764706
-17.908792 60.217396 -4.4251833 0.06666667
-6.9490585 27.804884 -2.3503535 0.023529412
-2.3684614 6.0971799 0.18635288 0
-3.2275496 12.353566 0.2163244 0
-6.234529 31.534607 -1.8870648 0.011764706
-6.2333655 24.833967 1.0270569 0.0078431377
-6.8247261 27.28882 -1.4862417 0.79607844
-2.9232259 11.090141 0.9264968 0
-1.6428447 4.0065107 -0.17283361 0
-8.5060377 43.508648 -1.5719759 0.031372551
-2.8989043 10.989379 2.0560169 0
-1.3831593 4.7644677 -2.284349 0.0039215689
-3.3644876 9.0635853 -0.17067955 0
-2.5837867 8.0500526 -2.3490849 0.0078431377
-2.800081 10.734478 -2.2111156 0.035294119
-6.8185377 22.672915 -0.012292198 0.0078431377
-4.7963262 15.689709 -2.5491345 0.0039215689
-5.1507015 20.638388 -2.7109663 0.0078431377
-7.313735 24.382055 -2.7478161 0.0078431377
-6.6597819 34.398716 -3.2860429 0.023529412
-9.6085405 50.229542 0.56498277 0.023529412
-10.907485 44.893562 -3.7934754 0.027450981
-2.6333547 10.032452 0.17602289 0
-7.7027793 39.998158 -2.3927429 0.027450981
-4.8480182 15.869137 0.95425552 0
-1.1901156 3.9515693 0.1654439 0
-8.4261398 43.881611 -1.5844858 0.031372551
-8.5353718 28.600809 -0.70905018 0.83529413
-1.3681686 4.7754445 -2.2877355 0.0039215689
-2.5577886 8.0655499 -2.3512487 0.0078431377
-2.7634869 10.747123 -2.211904 0.035294119
-2.5906055 8.1809797 -0.0027830193 0.0039215689
-8.2558136 43.816277 -0.54421622 0.043137256
-4.7426176 15.709276 -2.5497561 0.0039215689
-5.0813398 20.66695 -2.7124922 0.0078431377
-2.0512891 5.29949 0.031599987 0
-3.7917516 15.148264 -0.097678751 0
-7.2296772 24.410379 -2.7482533 0.0078431377
-6.5131936 34.275917 -3.2721953 0.023529412
-10.954571 37.44315 0.88418001 0.011764706
-10.7616 44.977062 -3.7974179 0.027450981
-3.2382169 8.7958241 0.26707435 0
-2.5892255 10.001757 0.17534858 0
-2.1990139 5.734499 -0.38930559 0
-7.6111927 40.287106 -2.4084957 0.027450981
-8.3958273 28.490595 -1.3963969 0.81176472
-2.8585744 11.154652 0.93036866 0
-7.6401005 40.445423 -1.4592676 0.031372551
-10.044627 34.261913 9.5264044 0.011764706
-1.7952141 6.6037512 1.2344971 0
-8.3893347 28.468063 -0.70504367 0.84705883
-1.3514884 4.7793112 -2.2877362 0.0039215689
-2.7277098 10.76347 -2.2134795 0.031372551
-7.8722858 42.556522 -0.52816141 0.019607844
-4.6909652 15.736263 -2.5516121 0.0039215689
-5.0056028 20.668213 -2.710465 0.0078431377
-10.327167 43.808094 -0.2871424 0.023529412
-7.1552119 24.472862 -2.752569 0.0078431377
-6.4363127 34.536694 -3.2950287 0.023529412
-10.821627 37.472569 0.88398921 0.011764706
-8.2897301 44.887943 0.50453013 0.047058824
-1.2316743 4.2586689 -0.35688907 0
-1.5629021 5.6990089 0.10093873 0
-2.9219346 7.9550309 -0.54043102 0
-8.2540159 28.36887 -1.389047 0.85490197
-10.269444 43.55674 -2.3680704 0.039215688
-3.2950907 10.788399 1.3716611 0
-5.278872 14.978128 -0.65097994 0
-1.9443902 5.9997544 1.6685501 0
-2.1311481 8.1701288 1.5254945 0
-8.2497406 28.353891 -0.7015149 0.84313726
-1.3347945 4.7831197 -2.2877367 0.0078431377
-1.3855373 5.0077014 -0.15008087 0
-2.5055449 8.0962915 -2.3555756 0.0078431377
-2.6944456 10.791171 -2.2174158 0.035294119
-7.9669857 43.96957 -0.54544634 0.043137256
-4.6381197 15.759281 -2.5528512 0.0039215689
-4.9325438 20.680815 -2.7099602 0.0039215689
-2.7723889 7.597425 0.044081997 0
-10.18742 43.901516 -0.28753507 0.023529412
-6.3260298 34.616913 -3.3006444 0.023529412
-7.8800001 43.473839 0.48841512 0.011764706
-10.437634 45.006577 -3.793823 0.027450981
-3.8049123 10.710179 0.32388204 0
-2.6591737 8.6490593 0.51970309 0
-8.1174402 28.261911 -1.3824517 0.82745099
-10.12438 43.622612 -2.3697715 0.039215688
-3.1124005 12.638582 1.0521111 0
-1.281705 3.1035242 -0.13266346 0
-6.3952174 35.011311 -1.261277 0.054901961
-2.5253489 8.1686277 2.2686279 0
-4.9439769 20.732443 3.864202 0.0039215689
-8.1153307 28.254507 -0.69836795 0.86666667
-1.314939 4.7727194 -2.2809663 0.0039215689
-3.712342 10.554076 -0.19824605 0
-9.7624216 42.715397 -1.2987266 0.023529412
-2.4742091 8.0929661 -2.3523352 0.0078431377
-2.6576142 10.803457 -2.218204 0.031372551
-7.9103413 44.559929 -0.55246872 0.019607844
-4.5862212 15.785925 -2.5547068 0.0039215689
-4.8594632 20.693151 -2.7094553 0.0039215689
-10.041946 43.971066 -0.28777277 0.023529412
-6.182899 34.508381 -3.2882929 0.023529412
-16.651255 59.732395 -4.3681073 0.06666667
-9.5414677 41.72261 -3.5140588 0.027450981
-4.4139824 12.694406 0.3829689 0
-6.2318745 34.793381 -2.0758471 0.015686275
-7.9796057 28.146631 -1.3754785 0.79607844
-9.9885473 43.730885 -2.3738027 0.039215688
-1.0728985 3.6859906 0.30839652 0
-6.2458906 34.874954 -1.2555923 0.015686275
-6.3258719 22.124771 6.1345382 0.0039215689
-2.2322958 8.8937283 1.6577641 0
-7.9732571 28.123676 -0.69445622 0.83529413
-1.2933617 4.7870579 -2.2860146 0.0039215689
-10.428218 46.50164 -1.4114645 0.023529412
-2.4377255 8.0969887 -2.351105 0.0078431377
-2.6135318 10.815646 -2.2187457 0.023529412
-2.2556493 7.4251475 -0.0021486308 0.011764706
-7.6980047 44.290497 -0.54735273 0.019607844
-4.532196 15.831501 -2.5592186 0.0039215689
-4.7868667 20.740141 -2.7129161 0.0039215689
-2.3964546 6.640645 0.038868666 0
-2.19856 8.9209814 -0.056102004 0
-6.8987269 24.570694 -2.7548559 0.0078431377
-6.0408392 34.442513 -3.2789748 0.070588239
-7.7412496 44.547497 0.50125974 0.043137256
-16.710094 60.802185 -4.4401107 0.06666667
-9.6446362 42.923084 -3.6110613 0.027450981
-3.6193368 10.415136 0.3145493 0
-1.9399431 7.7400303 0.13598897 0
-6.0708885 34.62109 -2.0632381 0.015686275
-7.8345432 28.02684 -1.3674446 0.82352942
-9.7596598 43.448528 -2.3552299 0.039215688
-1.93046 6.2244568 0.79025674 0
-5.0092645 17.594948 4.8749661 0.0039215689
-2.9154892 12.195184 2.2707987 0
-7.8418279 28.053894 -0.69120049 0.81176472
-1.2766414 4.7906895 -2.286015 0.0039215689
-2.1095679 5.8243918 -0.10792666 0
-9.5874481 43.386539 -1.315752 0.023529412
-2.4094431 8.1045933 -2.3511066 0.0078431377
-2.5757582 10.823849 -2.2187467 0.031372551
-7.5303464 44.237316 -0.54637361 0.043137256
-4.4738412 15.834917 -2.5573702 0.0039215689
-4.7069168 20.720964 -2.7083511 0.0039215689
-9.866684 44.683456 -0.2905775 0.023529412
-6.8067513 24.570719 -2.7522764 0.0078431377
-5.0592151 29.232328 -2.7809632 0.047058824
-3.4322367 11.935149 0.28250861 0
-7.5570974 44.399746 0.4993163 0.027450981
-16.779814 61.915562 -4.5172291 0.070588239
-7.4742684 22.581982 0.67840499 0.0039215689
-2.6108489 10.987139 0.19187532 0
-5.3037152 30.716957 -1.8292283 0.011764706
-2.6395602 8.9669409 0.53736252 0
-2.8154008 11.937128 0.49257153 0
-7.7005758 27.918055 -1.3608528 0.8509804
-7.0357785 31.536428 -1.7075359 0.015686275
-2.6563077 11.198354 0.93062156 0
-5.0923095 29.433277 -1.0571212 0.039215688
-2.2709591 7.5870252 2.1014359 0
-7.6984515 27.910254 -0.68700725 0.83529413
-1.2621624 4.8048973 -2.2910931 0.0039215689
-9.4301577 43.391502 -1.3149252 0.023529412
-2.3850617 8.126997 -2.3554304 0.0078431377
-2.5371494 10.828081 -2.2179608 0.023529412
-2.3759 8.0927191 -0.0025551722 0.0039215689
-7.2136736 43.255535 -0.5338881 0.019607844
-4.4135094 15.830472 -2.5542872 0.0039215689
-6.7199335 24.58963 -2.7518508 0.0078431377
-4.9153423 28.989458 -2.756268 0.031372551
-7.388721 44.342068 0.49838904 0.011764706
-16.832842 62.995426 -4.5918145 0.070588239
-6.8877883 31.380909 -2.6354032 0.054901961
-3.9794242 11.807029 0.35546497 0
-2.2726614 9.5789194 0.16747008 0
-3.0890744 13.43579 0.55369633 0
-7.569509 27.816401 -1.3546377 0.81176472
-3.9079511 13.911439 1.759985 0
-0.84123486 2.8167171 0.23569572 0
-4.9132476 28.976427 -1.0400817 0.019607844
-4.747602 17.100868 4.72931 0.0039215689
-4.7439213 21.253902 3.9498956 0.0039215689
-7.5653496 27.800753 -0.68367261 0.8392157
-1.2432662 4.7940526 -2.2843232 0.0039215689
-11.229541 35.133427 -0.66194052 0.023529412
-2.3571301 8.1303205 -2.3543513 0.0078431377
-2.5028284 10.843302 -2.2195356 0.023529412
-7.0795498 43.337669 -0.53462201 0.019607844
-4.3739085 15.893934 -2.5623147 0.0039215689
-4.5738611 20.789698 -2.7134295 0.0039215689
-9.2027559 43.020973 -0.27927715 0.047058824
-6.6403565 24.618662 -2.752717 0.0078431377
-4.8092594 28.941845 -2.7502811 0.043137256
-1.993583 6.7313738 0.16010572 0
-7.2248268 44.258842 0.49719709 0.011764706
-6.7536244 31.25836 -2.6232758 0.054901961
-11.329343 35.453121 1.0613931 0.019607844
-11.24667 35.18774 -2.3822942 0.06666667
-4.8457093 29.172939 -1.7352479 0.027450981
-2.1949399 7.5065651 0.44943324 0
-2.540195 11.023086 0.45438564 0
-7.4400606 27.697451 -1.3476682 0.83137256
-6.7688594 31.331642 -1.6939906 0.031372551
-0.83433205 2.8303876 0.23666467 0
-11.233951 35.147293 -1.5197291 0.86274511
-4.838933 29.12995 -1.0450511 0.039215688
-7.4389405 27.693281 -0.68043292 0.8392157
-1.2265217 4.7975082 -2.2843235 0.0039215689
-9.1329842 43.445183 -1.3146951 0.047058824
-2.325866 8.1264524 -2.3511114 0.0039215689
-2.4712472 10.881855 -2.2258308 0.023529412
-2.9150887 10.428157 -0.0039890213 0.0039215689
-1.2260431 6.3649206 -0.076389447 0
-4.323297 15.927394 -2.5654042 0.0039215689
-4.4996653 20.796907 -2.7124162 0.0078431377
-9.2296944 43.91803 -0.28494799 0.023529412
-6.5514121 24.629278 -2.7514291 0.0078431377
-4.6645164 28.67421 -2.7233407 0.078431375
-35.622185 138.1667 3.235991 0.074509807
-7.3079143 27.58396 -2.0056932 0.0039215689
-6.6204906 31.163719 -2.6134429 0.082352944
-11.097851 35.142021 -2.3766246 0.090196081
-4.7322822 29.113836 -1.7307833 0.027450981
-2.588711 9.1536016 0.54702443 0
-1.4795496 6.0346189 0.24966939 0
-7.3086376 27.586924 -1.3410754 0.85490197
-6.6258173 31.189867 -1.6851003 0.062745102
