# .PCD v0.7 - Point Cloud Data file format
VERSION 0.7
FIELDS x y z intensity
SIZE 4 4 4 4
TYPE F F F F
COUNT 1 1 1 1
WIDTH 1186
HEIGHT 1
VIEWPOINT 0 0 0 1 0 0 0
POINTS 1186
DATA ascii
-11.156581 5.5693974 -1.2952175 0
-9.2508373 5.7363911 -0.97602743 0
-98.414726 50.890038 2.6347005 0.074509807
-95.681908 61.966862 1.3955401 0.062745102
-10.191089 5.6896315 -0.91589493 0
-101.17542 46.221992 3.2887909 0.24705882
-97.101341 56.368263 2.0223291 0.10980392
-2.4950674 0.94482881 -0.14483722 0
-9.4314089 5.853682 -0.61899918 0
-98.447945 50.905106 6.4979496 0.078431375
-5.7371292 3.0917401 0.25351632 0
-10.646463 5.3040032 -0.5299139 0
-10.441237 5.8353291 -0.60067374 0
-97.099869 56.363472 9.2045879 0.16862746
-58.334064 26.567791 -2.5595961 0.14901961
-10.419544 6.496449 -0.40903831 0
-63.985897 33.009731 -1.6242411 0.054901961
-4.6316824 2.4681861 -2.2695289 0.0039215689
-12.74442 5.6998782 -0.22964077 0
-7.5318618 3.7187419 -2.2397094 0.0078431377
-9.8586168 5.5406365 -2.1808546 0.0078431377
-64.290894 33.450775 0.042647038 0.1254902
-142.35284 93.039223 -1.8666686 0.082352944
-11.050166 5.5615969 -1.8584048 0.0078431377
-6.0682955 3.3118699 -0.8288548 0.0039215689
-99.857323 46.039513 0.69917995 0.10980392
-96.993683 56.759521 -0.58176899 0.16862746
-11.070132 5.571734 -1.2871023 0
-9.1441517 5.7103653 -0.96641195 0
-95.632256 62.408623 1.3981723 0.062745102
-11.331697 5.7085099 -0.85370862 0
-10.153977 5.7135644 -0.91426146 0
-100.98804 46.561619 3.2881653 0.24705882
-96.99707 56.76009 2.0244653 0.10980392
-2.5424614 0.97551543 -0.14838253 0
-9.3608198 5.8522229 -0.61553288 0
-98.347443 51.287708 6.5033116 0.078431375
-97.02742 56.776508 4.6343365 0.24705882
-11.636632 5.8680978 -0.58225662 0
-10.372588 5.8418951 -0.59775871 0
-9.2716341 4.6281652 1.230931 0
-97.0056 56.761177 9.2146091 0.16862746
-58.331642 26.811737 -2.5634916 0.14901961
-64.065666 41.716438 -2.6085656 0.10980392
-26.611799 15.384274 5.5558314 0.011764706
-63.99781 33.298183 -1.6273795 0.054901961
-4.6261568 2.4846835 -2.271209 0
-7.9743118 3.5229213 -0.14111625 0
-7.5120215 3.7399058 -2.2375433 0.0078431377
-9.8122177 5.5575132 -2.1745806 0.0039215689
-64.180801 33.677238 0.042777531 0.1254902
-95.571457 62.846111 -1.2542548 0.082352944
-10.946805 5.5543113 -1.8436829 0.011764706
-9.8495045 5.5791774 -1.3872254 0
-99.638 46.35923 0.69897312 0.10980392
-96.939491 57.181911 -0.58245677 0.16862746
-10.990831 5.5772524 -1.2798395 0
-98.293915 51.698036 2.6414819 0.074509807
-95.49057 62.791286 1.399477 0.062745102
-11.230549 5.7036533 -0.84732479 0
-10.096236 5.7251139 -0.91069031 0
-99.600555 46.340244 3.2482607 0.24705882
-96.887787 57.149857 2.0265291 0.10980392
-17.890965 8.1578588 -1.224614 0.0039215689
-9.3003454 5.8569469 -0.61275691 0
-98.294891 51.696369 6.5119624 0.078431375
-96.924881 57.170418 4.6391492 0.24705882
-11.492417 5.8418484 -0.57580429 0
-10.31089 5.8521295 -0.59525764 0
-9.6380301 4.8611112 1.2843437 0
-96.882294 57.142685 9.2220087 0.16862746
-58.331837 27.057697 -2.5675476 0.14901961
-63.948357 33.555378 -1.6289766 0.054901961
-4.6232448 2.503762 -2.2745771 0.0039215689
-7.5050631 3.7694571 -2.2396808 0.0039215689
-98.222748 52.12122 0.066256151 0.24705882
-95.42704 63.252018 -1.2552158 0.082352944
-10.863586 5.5593419 -1.8326359 0.0078431377
-9.7744846 5.5810885 -1.3791653 0
-99.536156 46.754944 0.6996699 0.10980392
-10.896608 5.5766263 -1.2708718 0
-9.0533257 5.7394552 -0.96084136 0
-103.34067 54.84758 2.7833521 0.074509807
-95.366318 63.210197 1.4012321 0.062745102
-11.177872 5.7263021 -0.84481293 0
-10.054648 5.7482281 -0.90873337 0
-99.491501 46.732391 3.250489 0.24705882
-153.04436 91.180855 3.2139962 0.10980392
-9.2555437 5.8739209 -0.61113018 0
-98.263313 52.139217 6.522738 0.078431375
-4.1154304 1.9616119 -0.19255221 0
-10.241359 5.8596134 -0.5923422 0
-8.818656 5.0088058 0.80324936 0
-58.34071 27.320885 -2.5722399 0.14901961
-7.5748158 4.265234 1.5221045 0
-8.0179033 4.0416555 -0.19544835 0
-4.6211281 2.5213912 -2.277946 0
-60.545605 28.604414 -1.12402 0.17254902
-7.4857335 3.7892461 -2.2375157 0.0078431377
-9.6757259 5.5641842 -2.1518669 0.015686275
-98.165649 52.507706 0.066517927 0.24705882
-95.40609 63.69368 -1.2575575 0.082352944
-10.778934 5.5583553 -1.8209785 0.0078431377
-9.7151241 5.5874801 -1.3731176 0
-99.441956 47.112549 0.70029503 0.10980392
-29.740868 17.642303 -0.17791918 0.05882353
-10.807984 5.5736499 -1.2623328 0
-9.0110836 5.7524867 -0.95824218 0.0078431377
-101.09747 54.08139 2.7276933 0.074509807
-95.279068 63.607101 1.4032153 0.062745102
-11.067424 5.7128019 -0.83760107 0
-10.004786 5.7616024 -0.90580952 0
-99.397346 47.089844 3.2526968 0.24705882
-9.255909 5.9164987 -0.61249465 0
-98.255188 52.552181 6.5339642 0.078431375
-11.314075 5.8451705 -0.5685963 0
-10.177376 5.8653302 -0.58963573 0
-12.051903 6.2403517 1.6272943 0
-58.350849 27.560863 -2.5766232 0.14901961
-4.6060987 2.5322378 -2.2745616 0.0039215689
-10.50039 4.8325648 -0.18905126 0
-29.640102 17.721275 -0.97336978 0.094117649
-7.4860091 3.8211908 -2.241806 0.0039215689
-98.034508 52.877125 0.066745274 0.24705882
-10.67258 5.5473619 -1.8056455 0.0078431377
-9.6344938 5.5827966 -1.3640536 0
-99.348999 47.492493 0.70100629 0.10980392
-10.71852 5.5719428 -1.2537929 0
-97.947548 52.828571 2.6474979 0.074509807
-95.215538 64.045288 1.4057477 0.062745102
-10.994783 5.7213812 -0.83343112 0
-9.7664652 5.6626139 -0.88512284 0
-99.380135 47.505966 3.2577629 0.24705882
-29.674896 17.741529 0.61805189 0.14117648
-36.103336 17.127104 -2.513598 0.023529412
-9.2252712 5.9405599 -0.61178881 0
-97.993874 52.851501 6.528986 0.078431375
-29.699289 17.755898 1.4157825 0.13725491
-11.230359 5.8488612 -0.5652684 0
-10.119269 5.8765221 -0.58734226 0
-29.714645 17.76446 2.8173337 0.12156863
-58.358768 27.813036 -2.5811608 0.14901961
-29.72476 17.768734 6.2687821 0.10196079
-4.5976758 2.546068 -2.2745543 0.0039215689
-29.605049 17.83264 -0.97411442 0.094117649
-7.4631529 3.8390236 -2.238565 0.0078431377
-97.939362 53.244602 0.066981979 0.24705882
-42.487587 28.620325 -0.5596047 0.070588239
-10.609025 5.5566626 -1.797664 0.0078431377
-9.5752964 5.5884466 -1.3580065 0
-99.244949 47.84642 0.70157927 0.10980392
-29.637152 17.851835 -0.17791525 0.10980392
-10.63366 5.5698071 -1.2456805 0
-8.9651318 5.8062749 -0.95747352 0.015686275
-97.820946 53.178497 2.6490152 0.074509807
-95.098511 64.424522 1.4073366 0.062745102
-10.975746 5.7563815 -0.83341157 0
-9.7476292 5.6935415 -0.88510621 0
-5.8248792 2.6094649 0.17735304 0
-29.656841 17.863443 0.61897218 0.10980392
-7.6306596 3.4842827 -0.50858694 0
-9.1890087 5.9584579 -0.6106239 0
-97.877632 53.207287 6.5331612 0.078431375
-29.647057 17.857031 1.4161656 0.11372549
-11.154787 5.8540001 -0.56230927 0
-10.062231 5.8856983 -0.58504987 0
-29.689573 17.882267 2.8206658 0.090196081
-58.370529 28.0555 -2.5857041 0.14901961
-29.716013 17.896566 6.279634 0.011764706
-86.496544 46.997238 -2.22278 0.10196079
-4.5825863 2.5567889 -2.2711701 0
-63.898849 31.005636 -1.1922123 0.17647059
-7.4463315 3.8616853 -2.2374752 0.0039215689
-9.4476109 5.5541215 -2.1119342 0
-97.8405 53.632854 0.067232557 0.24705882
-30.44595 20.578764 -0.40044162 0.011764706
-10.5307 5.5597372 -1.7872317 0.0078431377
-9.5253239 5.6015944 -1.3534663 0
-99.18515 48.243706 0.70254546 0.10980392
-10.558407 5.5746875 -1.2388451 0
-8.9776554 5.8585529 -0.96114993 0.0039215689
-97.729294 53.570183 2.651783 0.074509807
-94.988495 64.833717 1.4092287 0.062745102
-10.955582 5.7931523 -0.83339107 0
-9.7276936 5.7260256 -0.88508868 0
-99.226891 48.262627 3.2638485 0.24705882
-97.789284 59.98056 2.0678642 0.10980392
-12.234573 5.7647934 -0.83481956 0
-9.1681499 5.9889913 -0.6106081 0
-5.7020497 2.8998129 0.35356107 0
-11.071277 5.8567028 -0.55898207 0
-10.000811 5.8941345 -0.58254999 0
-58.379982 28.310194 -2.5904028 0.14901961
-30.423361 20.563709 -1.2466935 0.015686275
-97.839432 53.633709 -2.5202804 0.10196079
-4.5731831 2.5719879 -2.2711618 0.0039215689
-63.989223 31.338888 -1.195924 0.17647059
-7.4354949 3.8892438 -2.2385371 0.0039215689
-9.407196 5.5747123 -2.1072247 0
-97.71669 54.030331 0.067482337 0.24705882
-10.44114 5.5583282 -1.7749612 0.0078431377
-9.4575348 5.6055741 -1.3464127 0
-99.065041 48.633663 0.70316291 0.10980392
-97.157997 60.083282 -0.590132 0.16862746
-10.489223 5.584733 -1.2328612 0
-8.9397354 5.8785181 -0.95928788 0
-97.644142 53.988602 2.6550372 0.074509807
-94.862076 65.257202 1.4110796 0.062745102
-10.644732 5.6708674 -0.81041306 0
-5.7679749 3.3132293 -0.50950491 0
-8.9689035 4.207541 0.2820769 0
-97.599335 60.35601 2.0687068 0.10980392
-9.1559858 6.0277882 -0.61128145 0
-97.693321 54.013752 6.5469432 0.078431375
-97.631241 60.374405 4.7339964 0.24705882
-10.976376 5.8549213 -0.55510306 0
-9.9723463 5.9249578 -0.58211762 0
-96.730972 59.812717 9.3264093 0.16862746
-58.361851 28.564833 -2.5941324 0.14901961
-30.212942 20.58032 -1.2410209 0.035294119
-26.725981 16.328699 5.6634507 0.011764706
-4.5830698 2.5972552 -2.2812836 0.0039215689
-64.017448 31.615374 -1.1982991 0.17647059
-7.4292779 3.9162138 -2.2406757 0.0078431377
-9.3953075 5.6086097 -2.1087728 0
-97.627716 54.40345 0.067724951 0.24705882
-30.006079 20.582178 -0.39637983 0.023529412
-10.37781 5.5663905 -1.7669805 0.0078431377
-9.3817053 5.5996861 -1.3378532 0
-98.992752 49.00502 0.7039904 0.10980392
-96.239372 59.95388 -0.58557129 0.16862746
-10.404704 5.5811443 -1.2247496 0
-8.9561462 5.9317317 -0.96333414 0
-13.146094 7.1147637 0.34744787 0
-94.792877 65.672813 1.4134543 0.062745102
-10.646753 5.7164025 -0.81205374 0
-9.7922468 5.8563619 -0.89506453 0
-99.037857 49.025974 3.2692299 0.24705882
-96.273079 59.973564 2.0448577 0.10980392
-12.004581 5.7528572 -0.82133788 0
-9.1392202 6.0589705 -0.61149651 0
-97.593781 54.380859 6.5525274 0.078431375
-7.0913024 4.1654878 0.32454941 0
-10.904593 5.8605843 -0.55232853 0
-9.9120073 5.9311371 -0.57961905 0
-5.2424521 2.6905208 0.67991698 0
-96.234673 59.945656 9.2977161 0.16862746
-58.374165 28.810173 -2.5988362 0.14901961
-29.957504 20.5488 -1.2331629 0.015686275
-12.643812 6.8339801 -0.31767255 0
-4.558641 2.6020563 -2.272835 0.0039215689
-63.98177 31.874792 -1.1995884 0.17647059
-7.4155617 3.9406176 -2.2406623 0.0078431377
-9.3988962 5.6545157 -2.1142297 0
-97.545204 54.803345 0.067988813 0.24705882
-29.825972 20.60951 -0.39487728 0.035294119
-10.303238 5.5699883 -1.7571616 0.0078431377
-9.3218212 5.6054912 -1.3318061 0
-98.885437 49.381035 0.70464808 0.10980392
-96.144539 60.360493 -0.5860967 0.16862746
-10.329738 5.5846457 -1.2179152 0
-8.9255981 5.9545932 -0.96221143 0
-94.677666 66.082161 1.415345 0.062745102
-10.546802 5.7069168 -0.80567288 0
-9.6064997 5.7847848 -0.87922424 0
-98.862541 49.368084 3.2693081 0.24705882
-96.107109 60.335487 2.0459769 0.10980392
-9.144166 6.1076736 -0.61332035 0
-8.2899923 4.4325643 0.53055495 0
-5.3087058 3.0737517 0.23806942 0
-10.810987 5.855866 -0.5484513 0
-9.8642063 5.9471483 -0.57794696 0
-5.6340837 2.9336076 0.73675674 0
-96.03492 60.286091 9.2988787 0.16862746
-58.37685 29.064222 -2.6033745 0.14901961
-29.882315 20.649446 -1.2329732 0.074509807
-6.6644917 3.9281969 1.3479605 0
-4.5508819 2.6222641 -2.2778955 0.0039215689
-63.94099 32.135742 -1.2009501 0.17647059
-7.3972902 3.9668393 -2.2417283 0.0078431377
-9.387845 5.6962533 -2.1181266 0
-4.1636982 2.1258655 0.0020800815 0
-29.80821 20.755651 -0.3956652 0.035294119
-10.196903 5.559391 -1.7430592 0.0078431377
-9.264245 5.6172814 -1.3272703 0.0039215689
-98.8013 49.772518 0.70553064 0.10980392
-96.01358 60.74939 -0.58646649 0.16862746
-10.240146 5.5837002 -1.2102327 0
-8.9099617 5.9933529 -0.96367669 0
-97.45089 55.199715 2.6658983 0.074509807
-13.379048 9.1497393 0.19457439 0
-10.519006 5.7421331 -0.80565679 0
-9.4707632 5.7482882 -0.86887771 0
-98.7677 49.754055 3.2723484 0.24705882
-6.9170017 4.1247401 0.13865839 0
-11.892202 5.8010035 -0.81673265 0
-9.0954123 6.124176 -0.61192906 0
-97.436768 55.189526 6.5686407 0.078431375
-95.951241 60.70697 4.6832504 0.24705882
-10.730576 5.8623614 -0.54567987 0
-9.8153477 5.9671283 -0.57669234 0
-95.974556 60.719334 9.3144636 0.16862746
-29.857849 20.791147 -1.2352548 0.035294119
-19.939245 11.101572 -0.50922132 0.0039215689
-4.535594 2.6327431 -2.2745113 0.0039215689
-5.4492097 2.562784 -0.095721938 0
-16.177011 10.087563 -0.53304565 0
-7.3767147 3.9873242 -2.239563 0.0078431377
-10.365476 6.3665314 -2.3542612 0.0039215689
-86.681 49.473034 0.060892604 0.22745098
-29.79423 20.899847 -0.39640352 0.035294119
-9.2211876 5.6331253 -1.3237362 0.0039215689
-3.5259566 1.581184 0.021745356 0
-95.942398 61.173302 -0.5871585 0.16862746
-10.165391 5.5862703 -1.2033989 0
-8.9181871 6.0437264 -0.9669838 0
-152.74442 87.363098 4.1940918 0.074509807
-94.470551 66.925758 1.4196541 0.062745102
-10.498895 5.7773404 -0.80563742 0
-9.2827711 5.672318 -0.85271579 0
-95.938782 61.169586 2.0519664 0.10980392
-9.1000023 6.1729355 -0.61375302 0
-97.312782 55.567581 6.5735273 0.078431375
-95.853157 61.113354 4.6890502 0.24705882
-10.664983 5.8724613 -0.54327255 0
-9.7439966 5.9675617 -0.57357323 0
-95.594124 60.945019 9.2982388 0.16862746
-58.42831 29.602125 -2.6150222 0.14901961
-29.853487 20.942446 -1.2380785 0.015686275
-4.5355139 2.652983 -2.279568 0
-7.3594151 4.009644 -2.2384739 0.0078431377
-10.23113 6.3288641 -2.3276563 0
-10.000864 5.5357618 0.0062841172 0.0039215689
-29.786093 21.048861 -0.39722976 0.035294119
-10.130469 5.611659 -1.7381221 0.019607844
-9.141449 5.6250672 -1.3146745 0
-98.582985 50.525883 0.70686883 0.10980392
-95.855972 61.588799 -0.58776814 0.16862746
-8.8970308 6.0733452 -0.96696877 0
-152.00577 87.644096 4.1824417 0.074509807
-94.369614 67.34922 1.4218384 0.062745102
-10.413023 5.7745242 -0.8003636 0
-9.40695 5.7961802 -0.86658406 0
-147.40962 94.858696 3.16539 0.10980392
-9.0816402 6.2055159 -0.61396754 0
-97.232262 55.971436 6.5814686 0.078431375
-10.630577 5.9001784 -0.54251838 0
-9.6828251 5.9740691 -0.57107472 0
-95.086006 61.086666 9.2695494 0.16862746
-58.38858 29.837358 -2.6177952 0.14901961
-29.845173 21.091642 -1.2407653 0.015686275
-45.780354 26.224974 -1.1872748 0.031372551
-4.5140681 2.659409 -2.2728078 0
-9.9603872 4.9493437 -0.18172938 0
-11.668311 7.3110962 -0.38233227 0
-7.3520303 4.0377102 -2.2406123 0.0078431377
-10.208976 6.3630586 -2.3276381 0.0039215689
-13.634236 7.6983199 0.0089298217 0
-29.770805 21.193378 -0.39796832 0.011764706
-10.103989 5.6415262 -1.7368786 0.015686275
-9.0884905 5.6338277 -1.3096333 0
-98.480568 50.90691 0.70760119 0.10980392
-95.75106 61.993492 -0.58827478 0.16862746
-10.05055 5.6100807 -1.1939915 0
-8.8919191 6.1145473 -0.96879953 0
-97.050598 56.319496 2.6715178 0.074509807
-95.670891 68.78672 1.4453357 0.062745102
-10.268692 5.7370124 -0.79038888 0
-9.2696781 5.7514215 -0.85526633 0
-98.486084 50.908314 3.2811255 0.24705882
-95.784294 62.01371 2.0582533 0.10980392
-4.3907914 2.0577693 -0.28443101 0
-9.0858173 6.254406 -0.6157915 0
-97.094933 56.343197 6.585649 0.078431375
-95.809433 62.028667 4.7084227 0.24705882
-10.57194 5.9136367 -0.54047877 0
-9.6116781 5.9736857 -0.56795609 0
-6.9731822 4.2571316 0.64235467 0
-58.383404 30.091074 -2.6221731 0.14901961
-30.944534 22.041517 -1.2902862 0.019607844
-45.657444 26.365013 -1.1863731 0.031372551
-4.5047569 2.6736715 -2.2728004 0
-63.971489 33.273636 -1.2096844 0.17647059
-6.0009794 3.6530781 -0.19036146 0
-7.3378901 4.0618706 -2.2405992 0.0078431377
-10.199827 6.4057794 -2.3307483 0
-10.668958 6.0179038 0.0068315347 0.0039215689
-82.186455 59.484676 -1.1103781 0.082352944
-9.9138374 5.5751467 -1.7062378 0.0039215689
-98.458176 51.330521 0.7089228 0.10980392
-95.661209 62.40918 -0.58888531 0.16862746
-9.9554644 5.5993214 -1.1846033 0
-8.8834 6.1534448 -0.9702611 0
-96.939583 56.707092 2.6740904 0.074509807
-95.588661 69.234077 1.4479153 0.062745102
-10.196992 5.7410207 -0.78622204 0
-98.431747 51.315228 3.2854755 0.24705882
-147.91795 96.651924 3.1913388 0.10980392
-4.9458671 2.3660579 -0.32471979 0
-9.0800705 6.2963543 -0.61692578 0
-96.973366 56.724812 6.5910039 0.078431375
-10.478882 5.9065166 -0.53660315 0
-9.5773993 5.9969654 -0.56711221 0
-5.6778502 3.4409552 0.51640296 0
-58.409016 30.361809 -2.627995 0.14901961
-30.835077 22.124407 -1.2888631 0.019607844
-11.165092 7.0358758 2.3495543 0
-45.472042 26.468052 -1.1838419 0.031372551
-4.4953957 2.687902 -2.2727931 0.0039215689
-64.003487 33.573696 -1.2123903 0.17647059
-7.3236666 4.0859814 -2.2405858 0.0078431377
-10.180676 6.4420285 -2.3315122 0
-96.919327 57.150658 0.069489978 0.24705882
-32.21912 23.301096 -0.43320075 0.011764706
-9.8535042 5.584065 -1.6988705 0.0078431377
-85.552132 44.952019 0.61681968 0.10980392
-95.53289 62.800758 -0.58926898 0.16862746
-9.8947926 5.6082363 -1.1794744 0
-8.8779249 6.1947126 -0.97209197 0
-96.820175 57.090515 2.6764715 0.074509807
-95.388336 69.596581 1.4487222 0.062745102
-10.166586 5.7690015 -0.78537387 0
-9.1594315 5.7669048 -0.84845352 0.011764706
-98.333321 51.69997 3.2883997 0.24705882
-95.619347 62.856457 2.0644662 0.10980392
-11.287929 5.7355661 -0.7806325 0
-9.0837994 6.3454204 -0.61874974 0
-96.891579 57.130672 6.5991797 0.078431375
-16.648207 10.711017 0.80416745 0.0039215689
-10.410065 5.9130731 -0.53401327 0
-9.5764017 6.0420909 -0.56833601 0
-15.04939 8.6594324 2.0974247 0.0039215689
-58.415768 30.623753 -2.6330144 0.14901961
-30.867287 22.310774 -1.2934655 0.019607844
-10.686483 6.0766478 -0.27069673 0
-4.4890051 2.7041075 -2.2744739 0.0039215689
-14.931263 7.7241287 -0.27758148 0.0039215689
-95.435127 63.21492 -3.2477899 0.15686275
-7.3093596 4.1100416 -2.2405729 0.011764706
-10.151597 6.4716983 -2.3299305 0
-96.880661 57.583504 0.069790557 0.24705882
-32.446495 23.639997 -0.43735853 0.011764706
-98.235123 52.08699 0.71030837 0.10980392
-95.422997 63.20546 -0.58977717 0.16862746
-9.8102703 5.6025233 -1.1713643 0
-8.8722649 6.2360144 -0.97392267 0
-95.209183 69.975136 1.4498729 0.062745102
-10.053876 5.7477441 -0.77788919 0
-9.1160078 5.7819023 -0.84617752 0.0078431377
-98.236946 52.086514 3.2914422 0.24705882
-95.412674 63.197208 2.0649295 0.10980392
-11.225554 5.7509365 -0.77757019 0
-9.0648041 6.3779836 -0.61896443 0
-98.138428 58.330799 6.6985569 0.078431375
-95.34095 63.148098 4.7182083 0.24705882
-10.337894 5.917171 -0.53123999 0
-94.515846 62.596733 9.2991076 0.16862746
-58.42141 30.886108 -2.6380341 0.14901961
-30.757059 22.393156 -1.292043 0.019607844
-6.7917337 3.7987187 1.9918031 0
-13.157994 7.6006856 -0.33641505 0
-4.4795375 2.7182841 -2.2744665 0.0039215689
-37.264069 19.783091 -0.70522082 0.047058824
-95.320129 63.617474 -3.2512574 0.15686275
-7.2883649 4.1300821 -2.2384083 0.0039215689
-10.145234 6.5165443 -2.3338225 0
-29.836039 17.696976 0.020983782 0.023529412
-32.347717 23.739712 -0.43708333 0.011764706
-9.7025166 5.5825 -1.6786249 0.011764706
-98.09848 52.452732 0.71083349 0.10980392
-82.915413 55.300034 -0.51324731 0.15294118
-9.7497568 5.6106496 -1.1662359 0
-8.8696127 6.2797341 -0.97612262 0
-95.099113 70.405861 1.4521062 0.062745102
-10.033746 5.7813301 -0.77787101 0
-9.0494022 5.7811317 -0.84164149 0.019607844
-14.78381 7.7096477 0.4836902 0.0039215689
-95.321014 63.615292 2.0679262 0.10980392
-3.4824324 1.6407646 -0.22104576 0
-9.0585012 6.4200292 -0.62009883 0
-95.222809 63.548069 4.7235093 0.24705882
-10.313745 5.949688 -0.53103769 0
-9.6799736 6.2037239 -0.57739967 0
-29.748209 17.64185 4.2234616 0.011764706
-6.9296198 4.3592768 0.64404261 0
-37.242954 19.772295 -1.6780102 0.035294119
-30.723604 22.532316 -1.2939069 0.019607844
-29.860632 17.706793 9.2277126 0.011764706
-4.4760303 2.7364867 -2.2778354 0.0039215689
-7.3298435 3.7380469 -0.13291694 0
-41.282608 27.597473 -1.403433 0.023529412
-7.2804904 4.1580162 -2.2405469 0.0039215689
-10.122425 6.5504394 -2.3338048 0
-32.283852 23.865395 -0.43729115 0.011764706
-9.6153746 5.5738535 -1.6663588 0.0039215689
-98.016785 52.84861 0.71176869 0.10980392
-82.784851 55.630192 -0.51348996 0.15294118
-9.6961031 5.6225443 -1.1619596 0
-8.8571978 6.3163447 -0.97721529 0
-94.078087 70.155602 1.4403521 0.062745102
-9.9793797 5.794148 -0.77508771 0
-9.0555935 5.829062 -0.84420878 0.015686275
-97.983376 52.829075 3.2956254 0.24705882
-95.194481 64.01107 2.0701981 0.10980392
-11.083331 5.7710843 -0.77017903 0
-9.0679903 6.4740767 -0.62238258 0
-95.139488 63.972549 4.7306294 0.24705882
-10.251913 5.9593101 -0.52881569 0
-9.6781168 6.2494154 -0.57862329 0
-14.539057 9.5317659 1.4012047 0
-58.485516 31.442541 -2.6506398 0.14901961
-28.997044 21.403582 -1.2233442 0.015686275
-29.650122 17.724789 -0.77446526 0.098039217
-4.4574585 2.7444923 -2.2727635 0.0039215689
-97.952682 53.256432 -1.8726705 0.24705882
-7.2626462 4.1799159 -2.2394583 0.0039215689
-10.099499 6.5842528 -2.3337874 0.0039215689
-32.0886 23.892136 -0.43570051 0.011764706
-9.5385284 5.5708523 -1.6559305 0.0078431377
-8.8799982 5.7537766 -1.2959722 0.082352944
-97.901924 53.227268 0.71247238 0.10980392
-95.113022 64.43988 -0.59149045 0.16862746
-9.6153355 5.6175337 -1.1542763 0
-8.8637047 6.3673368 -0.98052251 0
-29.638771 17.856833 0.81784952 0.10588235
-93.61232 70.315849 1.4371153 0.062745102
-9.9931374 5.8482823 -0.77783483 0
-9.028594 5.8546705 -0.84354746 0.011764706
-97.896622 53.222935 3.2991419 0.24705882
-95.178757 64.483238 2.0749321 0.10980392
-7.4439306 3.8317938 -0.50839287 0
-9.0548954 6.5114279 -0.62305725 0
-29.634363 17.853495 2.0149729 0.098039217
-95.037842 64.385963 4.7369213 0.24705882
-10.179907 5.9623199 -0.52604318 0
-9.6463318 6.2749386 -0.57798636 0
-29.658171 17.866854 4.2284718 0.10980392
-5.9366379 3.7496979 0.54827237 0
-58.522739 31.725466 -2.657264 0.14901961
-28.855145 21.452618 -1.2204198 0.015686275
-9.5149307 6.1841722 2.0119507 0
-29.625597 17.849636 -0.77540612 0.047058824
-7.3280873 3.7996771 -0.13336168 0
-7.2512903 4.2057843 -2.2405212 0.0078431377
-10.092628 6.6290817 -2.3376794 0
-28.948044 21.678988 -0.39353362 0.011764706
-9.4988317 5.5901947 -1.652239 0.0039215689
-8.8598566 5.7832613 -1.295957 0.06666667
-97.813637 53.621231 0.71338105 0.10980392
-30.419909 20.565908 -0.18816382 0.011764706
-9.5516472 5.6224642 -1.1487226 0
-8.8667898 6.4160433 -0.98346072 0
-93.570099 70.795609 1.4404287 0.062745102
-9.9726582 5.8816533 -0.77781689 0
-97.7873 53.605289 3.301945 0.24705882
-145.67336 99.590729 3.1888077 0.10980392
-10.930869 5.7837458 -0.76202893 0
-9.0607214 6.5632691 -0.6251111 0
-7.7321496 4.5005713 0.50485516 0.015686275
-21.729361 14.606357 1.0688593 0.0078431377
-10.121607 5.9732847 -0.52400535 0
-9.6375437 6.3161325 -0.57879668 0
-94.079712 64.211014 9.3444033 0.16862746
-58.579693 32.020603 -2.6648495 0.14901961
-6.4029598 4.5429931 -0.25781208 0
-11.787671 7.7888246 2.5210428 0
-4.4352107 2.7705264 -2.2710609 0.0078431377
-84.913467 46.904694 -1.6282985 0.24705882
-7.2365646 4.2295928 -2.2405083 0.0078431377
-10.072655 6.6650238 -2.338444 0
-28.732452 21.671448 -0.39155468 0.011764706
-9.3986664 5.5717907 -1.6375244 0.0039215689
-8.8494081 5.8194427 -1.2974492 0.015686275
-9.4981709 5.6333117 -1.144447 0
-8.8538227 6.4527435 -0.98455346 0
-97.624695 60.351913 2.7344303 0.074509807
-93.430374 71.202995 1.442264 0.062745102
-9.6503525 5.7275972 -0.75319105 0
-9.0301418 5.9440675 -0.84771347 0
-2.2999718 1.0396053 0.063226059 0
-95.015808 65.343231 2.0816467 0.10980392
-10.928061 5.83008 -0.7632755 0
-9.0853119 6.6297956 -0.62854409 0
-97.539619 60.296947 6.7295628 0.078431375
-12.688074 8.4702892 0.61655653 0
-10.059955 5.9818087 -0.52178413 0
-9.6187191 6.3505297 -0.57898682 0
-6.685915 3.8859899 0.9093492 0
-19.02722 12.848862 1.8602542 0.0039215689
-58.617832 32.30685 -2.6716335 0.15294118
-28.711023 21.655447 -1.2205957 0.015686275
-11.883423 7.9134245 2.5484254 0
-4.4241352 2.7879388 -2.2744336 0.011764706
-84.851128 47.240707 -1.6301031 0.24705882
-30.075832 20.633724 -1.0283949 0.023529412
-7.2081604 4.2480383 -2.2383482 0.0078431377
-10.045927 6.6991706 -2.3392131 0.0039215689
-15.851637 9.6535788 0.011001128 0.0039215689
-28.706579 21.806543 -0.39226043 0.011764706
-9.3053169 5.5595422 -1.625264 0.015686275
-8.8222609 5.8473063 -1.2974386 0.015686275
-97.543602 54.340889 0.71451235 0.10980392
-29.998985 20.579828 -0.18635322 0.050980393
-9.427803 5.6359019 -1.1388984 0
-1.944834 1.176911 -0.17957996 0.019607844
-96.321503 59.988335 2.703716 0.074509807
-9.5862913 5.7348332 -0.75013691 0
-9.0156727 5.9816375 -0.8489939 0
-2.341017 1.0751029 0.065008633 0
-144.8634 100.49168 3.1866193 0.10980392
-10.890415 5.8589754 -0.76249957 0
-9.0649691 6.66575 -0.62922359 0
-96.573334 60.143734 6.6770644 0.078431375
-94.765877 65.636986 4.757762 0.24705882
-9.9780617 5.9797726 -0.5188334 0
-9.6357164 6.4128776 -0.58186907 0
-93.842438 64.992157 9.3657169 0.16862746
-2.9471788 1.4143531 -0.11701144 0
-27.469389 20.853226 -1.1703166 0.015686275
-2.8956268 1.7230742 0.55243087 0
-5.8258657 3.3822572 -0.14502989 0
-4.4054689 2.7956672 -2.2693622 0.011764706
-84.832031 47.617668 -1.6327691 0.24705882
-29.843191 20.624674 -1.0227693 0.035294119
-7.1998048 4.2758307 -2.2404869 0.0078431377
-10.028905 6.7372465 -2.3407595 0
-96.151749 60.34948 0.071560629 0.24705882
-28.775612 22.017998 -0.39422929 0.011764706
-9.289196 5.5926456 -1.6258599 0.015686275
-8.8050432 5.8788919 -1.2979261 0.015686275
-97.527519 54.77784 0.71598488 0.10980392
-29.786114 20.58424 -0.18541408 0.074509807
-9.3609676 5.6376281 -1.1329197 0
-8.839653 6.5392442 -0.9889583 0
-96.07769 60.301395 2.7029383 0.074509807
-93.293159 72.111008 1.4481283 0.062745102
-9.5662117 5.766809 -0.75011986 0
-9.004529 6.0184851 -0.84994709 0
-8.7831945 4.7178278 0.28494757 0
-94.905289 66.22599 2.0895712 0.10980392
-10.612605 5.7503567 -0.74372941 0
-9.073185 6.7203927 -0.63150734 0
-95.977699 60.236259 6.6504412 0.078431375
-11.107049 7.4914589 0.53998649 0
-9.9165621 5.9875436 -0.51661271 0
-9.6198111 6.4496069 -0.58226603 0
-93.941437 65.546669 9.3986931 0.16862746
-58.778835 32.921768 -2.6893816 0.15294118
-28.621574 21.898802 -1.2233824 0.015686275
-7.1944251 4.7485499 1.5144449 0
-4.3956823 2.8095784 -2.2693551 0.011764706
-84.793907 47.985229 -1.6350986 0.24705882
-29.829796 20.768793 -1.0247639 0.047058824
-7.1783314 4.2953558 -2.238323 0.0078431377
-10.008529 6.7730279 -2.3415246 0
-96.014755 60.730515 0.071794294 0.24705882
-35.705669 27.596813 -0.49169439 0.019607844
-9.2395878 5.6045113 -1.6203321 0.0078431377
-8.8039131 5.9218793 -1.3009259 0.015686275
-97.443474 55.177818 0.71696872 0.10980392
-29.763083 20.721256 -0.18567093 0.062745102
-9.3009434 5.6432285 -1.1277928 0
-8.8606911 6.6029658 -0.99411088 0
-95.947601 60.686455 2.7054102 0.074509807
-38.626011 29.880131 0.59712452 0.015686275
-9.5460176 5.7987199 -0.75010294 0
-9.0160284 6.0714316 -0.85316008 0
-97.490158 55.202934 3.3183634 0.24705882
-94.58857 66.495476 2.0878561 0.10980392
-10.582051 5.7799997 -0.74294972 0
-9.0842657 6.7776375 -0.63402081 0
-95.878052 60.640163 6.6583772 0.078431375
-94.579552 66.487732 4.7719975 0.24705882
-9.902339 6.0249619 -0.51696223 0
-9.5972319 6.4817009 -0.58224964 0
-93.712013 65.87278 9.398859 0.16862746
-58.847679 33.23003 -2.6977687 0.15294118
-28.570139 22.016834 -1.2244295 0.015686275
-4.3858476 2.8234544 -2.2693481 0.011764706
-84.629356 48.28146 -1.635004 0.24705882
-29.796209 20.899158 -1.0260763 0.023529412
-7.1632938 4.3189359 -2.2383106 0.0078431377
-9.9944153 6.8132954 -2.3438532 0
-95.9403 61.152271 0.072076015 0.24705882
-38.239021 29.791397 -0.52832925 0.023529412
-8.8025866 5.9649277 -1.3039256 0.015686275
-86.645767 49.436291 0.63855571 0.10980392
-29.752493 20.867632 -0.1860103 0.074509807
-9.244339 5.65062 -1.1230922 0
-8.8438406 6.6373348 -0.99483466 0
-95.890091 61.118729 2.7099848 0.074509807
-37.792519 29.439154 0.58575445 0.015686275
-9.5257139 5.8305569 -0.75008607 0
-9.0077705 6.1106629 -0.85443616 0
-9.859992 5.4124923 0.32300624 0
-3.8726387 2.4571781 0.076299056 0
-9.1170139 6.8523369 -0.63814324 0
-95.786827 61.050533 6.6670175 0.078431375
-94.41851 66.866997 4.7758045 0.24705882
-9.8206692 6.0192604 -0.51364046 0
-9.6266241 6.5507646 -0.58554065 0
-58.922028 33.543137 -2.7064764 0.15294118
-28.584179 22.186716 -1.2283511 0.015686275
-9.1250772 5.5722041 2.7774827 0
-4.3848071 2.8436341 -2.2744052 0.0078431377
-29.794575 21.052824 -1.0285259 0.011764706
-7.1514115 4.3445511 -2.2393737 0.0039215689
-9.9737597 6.8489728 -2.3446181 0
-95.817009 61.543877 0.072321393 0.24705882
-37.736851 29.607527 -0.52269828 0.023529412
-9.1338072 5.6231146 -1.6080521 0.011764706
-8.794611 6.0034137 -1.3059206 0.015686275
-6.1775298 3.3281424 0.042232331 0
-29.728237 21.004856 -0.18626738 0.074509807
-9.1978207 5.6641531 -1.1196692 0
-6.6708379 4.9610386 -0.74053901 0
-9.4415913 5.821218 -0.74481648 0
-9.0025854 6.1522303 -0.85603499 0
-6.0262899 3.2406468 0.192063 0
-94.323578 67.295723 2.0926814 0.10980392
-9.1337051 6.9149356 -0.64111638 0
-95.693924 61.460983 6.6756573 0.078431375
-94.294975 67.273865 4.7815971 0.24705882
-9.9842653 6.1711955 -0.52371889 0
-9.6329174 6.6038198 -0.58738458 0
-93.573837 66.754723 9.4319983 0.16862746
-45.76606 26.210777 -2.1021562 0.062745102
-35.709538 27.999624 -1.5431055 0.031372551
-6.7253046 4.5190725 1.4201499 0
-4.3689742 2.853225 -2.2710221 0.0039215689
-29.77277 21.192694 -1.0302936 0.011764706
-7.1297412 4.3638358 -2.2372096 0.0078431377
-9.956152 6.8868876 -2.3461649 0.0039215689
-7.93048 4.8832006 0.0051934025 0.0039215689
-37.492653 29.625263 -0.52066314 0.023529412
-9.0610971 5.6190381 -1.5982382 0.015686275
-8.7864685 6.0419188 -1.3079157 0.015686275
-97.129898 56.3479 0.7195316 0.10980392
-29.719589 21.153873 -0.18662749 0.086274512
-9.1479788 5.6752639 -1.1158208 0
-8.8564053 6.7432556 -1.0018183 0
-147.10625 95.356567 4.1833639 0.074509807
-44.997795 35.621765 0.70281661 0.027450981
-8.9842844 6.1845016 -0.85634267 0
-97.089813 56.323124 3.3252182 0.24705882
-139.48817 100.3989 3.1074562 0.10980392
-10.300203 5.7575202 -0.72667712 0
-9.1750202 6.9976778 -0.64592803 0
-95.599312 61.871552 6.6842971 0.078431375
-9.6259966 6.6476464 -0.58840173 0
-4.0829644 2.381722 0.53943974 0
-93.501846 67.196175 9.4485683 0.16862746
-59.049038 34.162029 -2.7230895 0.15294118
-36.626568 28.933716 -1.5875273 0.031372551
-15.58499 10.947675 3.4234509 0.0039215689
-6.52705 3.9709475 -0.16551879 0
-4.3619199 2.8691413 -2.2727032 0.0039215689
-31.050261 22.27808 -1.0777684 0.011764706
-7.1209106 4.39147 -2.2393491 0.0039215689
-9.9574299 6.9386096 -2.3524029 0.0039215689
-7.833075 4.8568015 0.0051452387 0.0039215689
-8.9984426 5.6210232 -1.5902617 0.015686275
-8.7749491 6.0781054 -1.3094081 0.015686275
-97.008476 56.729733 0.72028196 0.10980392
-29.668205 21.272509 -0.18672007 0.011764706
-9.094841 5.683917 -1.1115465 0
-8.8855562 6.8151345 -1.0080779 0
-147.99345 96.667831 4.2185392 0.074509807
-37.606796 29.929253 0.58791471 0.015686275
-9.2638607 5.7944374 -0.73344886 0
-8.9916563 6.2354827 -0.85923284 0
-97.020172 56.735172 3.3297999 0.24705882
-95.588348 69.212868 2.1319294 0.10980392
-10.235291 5.7657084 -0.72336483 0
-9.2283077 7.0908089 -0.65165889 0
-11.35106 7.1608858 0.76924711 0
-95.565147 69.194611 4.8711262 0.24705882
-10.041208 6.3035378 -0.52919024 0
-9.6382637 6.7056036 -0.59065908 0
-93.427887 67.637947 9.4651375 0.16862746
-4.7021289 2.5156112 -0.20003827 0
-36.506664 29.044903 -1.5866455 0.031372551
-7.8582902 5.4099431 1.6837271 0
-96.059242 62.651463 -2.5873675 0.10196079
-4.3460264 2.8786125 -2.2693202 0.0039215689
-30.856184 22.299822 -1.0736219 0.011764706
-7.1119661 4.419096 -2.2414887 0.0039215689
-9.9331474 6.9718776 -2.3523862 0.0039215689
-95.534477 62.781952 0.073129259 0.24705882
-37.1078 29.739845 -0.51804155 0.019607844
-8.9556713 5.6357069 -1.5859597 0.0078431377
-8.7632771 6.1142874 -1.3109007 0.015686275
-96.950966 57.150131 0.7215209 0.10980392
-94.198204 68.705078 -0.59869456 0.16862746
-8.8802719 6.8597121 -1.0102781 0
-95.744896 62.919449 2.7312458 0.074509807
-37.362263 29.945572 0.58575791 0.015686275
-9.2202587 5.8099036 -0.73149753 0.0039215689
-8.9666128 6.2630286 -0.85889506 0
-96.880005 57.106697 3.3320041 0.24705882
-96.720505 70.551567 2.162972 0.10980392
-10.191051 5.7857184 -0.72157288 0
-9.2438211 7.154223 -0.65463179 0
-95.401588 62.690769 6.7013402 0.078431375
-10.059155 6.3635197 -0.53137517 0
-9.656682 6.7684526 -0.59332973 0
-93.19117 67.962242 9.4653006 0.16862746
-59.173653 34.786392 -2.7398622 0.15294118
-36.389515 29.158134 -1.5859009 0.031372551
-35.534023 25.722353 7.9666209 0.027450981
-95.633011 62.848381 -2.5815837 0.10196079
-4.3388696 2.8944674 -2.2710013 0.0039215689
-29.984844 17.644005 -0.58007324 0.023529412
-30.97118 22.548389 -1.08039 0.011764706
-7.0932889 4.4403081 -2.2404003 0.0078431377
-9.9245329 7.0167017 -2.3562789 0.0039215689
-95.447975 63.202179 0.073406272 0.24705882
-1.9052727 1.2141625 -0.021650843 0.043137256
-8.9096127 5.6479673 -1.5810452 0.0078431377
-8.7546511 6.1528134 -1.3128959 0.015686275
-6.2884645 3.5025651 0.043460626 0
-32.515301 23.687506 -0.20577139 0.011764706
-9.0085726 5.7135348 -1.1055534 0.0039215689
-8.8932943 6.9194431 -1.0146924 0
-95.338226 63.1278 2.7260633 0.074509807
-37.551842 30.31464 0.59050429 0.015686275
-9.179985 5.8273425 -0.72982281 0.0078431377
-8.9607325 6.3046746 -0.86049402 0
-98.28688 58.401913 3.3878157 0.24705882
-95.331284 70.04422 2.1374083 0.10980392
-10.126226 5.7932091 -0.71826106 0
-29.267166 23.552588 -2.1440191 0.015686275
-95.291901 63.094906 6.7092729 0.078431375
-95.410942 70.101646 4.8885055 0.24705882
-10.040204 6.3993549 -0.53154105 0.0039215689
-9.6779928 6.8338766 -0.59620708 0
-94.489845 69.419502 9.6226339 0.16862746
-36.272034 29.27088 -1.5851568 0.031372551
-9.3653412 6.6018252 2.0351651 0
-95.479652 63.224636 -2.5832195 0.10196079
-4.334559 2.9124732 -2.2743707 0.0039215689
-30.606699 22.44261 -1.070219 0.011764706
-7.0681448 4.4571557 -2.2371607 0.0078431377
-9.9031267 7.0521927 -2.3570442 0.0039215689
-95.419495 63.662678 0.073729672 0.24705882
-37.31636 30.338202 -0.52383399 0.023529412
-8.8701401 5.6643791 -1.5773557 0.0078431377
-8.7458553 6.1913571 -1.3148911 0.015686275
-32.287956 23.692026 -0.20478998 0.011764706
-8.9621391 5.7257829 -1.1021314 0.019607844
-8.899847 6.9742913 -1.0183687 0
-95.280045 63.567844 2.7309225 0.074509807
-9.1396933 5.8445735 -0.72814834 0.011764706
-8.9450655 6.3392243 -0.86112481 0
-95.066925 70.360817 2.1371386 0.10980392
-10.116201 5.8332458 -0.71900272 0
-28.65114 23.214382 -2.1042151 0.015686275
-95.19046 63.505737 6.7179103 0.078431375
-95.175247 70.439972 4.8891673 0.24705882
-10.014481 6.4306903 -0.53134012 0.0039215689
-9.8656569 7.0234666 -0.60983098 0
-12.139229 7.8533607 1.7415758 0
-94.310898 69.795052 9.6293602 0.16862746
-6.0138402 4.1590829 1.2761825 0
-9.072113 5.7990294 -0.23630007 0
-4.3209529 2.9246421 -2.2726753 0.0039215689
-30.697035 22.682566 -1.0763026 0.011764706
-7.058147 4.4858227 -2.2392998 0.0039215689
-9.892909 7.0986795 -2.3609359 0.0039215689
-8.1481438 5.2208991 0.0055019138 0.0039215689
-36.813721 30.149199 -0.51820695 0.019607844
-8.8263884 5.6798406 -1.5730532 0.015686275
-8.7453337 6.2385039 -1.3183926 0.015686275
-29.649523 17.728386 0.21966946 0.17254902
-32.156082 23.775114 -0.20444407 0.011764706
-7.21488 5.6307063 -0.81871021 0
-95.122627 63.966602 2.7333031 0.074509807
-37.327782 30.574503 0.59053141 0.015686275
-9.1115923 5.8720436 -0.72757888 0.011764706
-8.9536762 6.3943491 -0.86433703 0
-29.671589 17.741341 1.0167918 0.14901961
-94.139412 70.206131 2.1221595 0.10980392
-9.9991789 5.8107948 -0.71189058 0
-28.504358 23.266764 -2.09957 0.015686275
-95.079475 63.935387 6.7267919 0.078431375
-94.4814 70.460953 4.8668299 0.24705882
-10.014016 6.4814868 -0.53260648 0.0039215689
-9.261179 6.624557 -0.57240808 0
-11.350399 7.383028 1.6283935 0
-93.100418 69.424133 9.5314188 0.16862746
-29.646765 17.727571 -1.371894 0.14901961
-36.024708 29.496109 -1.5833932 0.031372551
-4.3170199 2.9419444 -2.2760451 0.0039215689
-29.607332 17.835901 -0.5761385 0.12156863
-28.866003 21.458544 -1.0137334 0.011764706
-7.0400476 4.5056567 -2.2382128 0.0039215689
-9.8661852 7.1277041 -2.3601387 0.0039215689
-95.062035 64.385109 0.074143454 0.24705882
-36.713543 30.26973 -0.51815009 0.019607844
-8.7977009 5.7010283 -1.5712018 0.011764706
-8.7404356 6.2780404 -1.320891 0.015686275
-29.638353 17.854427 0.22008245 0.11764706
-8.9087944 5.7763619 -1.1003973 0.031372551
-8.933527 7.102231 -1.0283043 0
-95.075302 64.392754 2.7382488 0.074509807
-37.183182 30.660873 0.58989847 0.015686275
-8.9356022 6.4250283 -0.86464578 0
-29.660357 17.867443 1.0185084 0.10588235
-93.599571 70.285332 2.1153533 0.10980392
-9.9696341 5.8362985 -0.71111351 0
-28.175571 23.150045 -2.080683 0.015686275
-94.999001 64.338776 6.7363605 0.078431375
-93.57399 70.264687 4.8320599 0.24705882
-9.9957685 6.5155277 -0.53277349 0
-12.451983 9.0763817 1.2404504 0
-35.911346 29.601223 -1.5826534 0.031372551
-42.515217 28.638567 -1.1521782 0.031372551
-4.2873478 2.9467497 -2.2692897 0.0039215689
-28.595371 21.414833 -1.0069841 0.011764706
-7.0228124 4.5330749 -2.2403557 0.0078431377
-9.8521833 7.1748385 -2.3648176 0.0039215689
-30.497608 20.621557 0.023284309 0.023529412
-36.13139 30.002449 -0.51139802 0.019607844
-8.776453 5.7346778 -1.5724151 0.011764706
-8.7296162 6.3214235 -1.323895 0.015686275
-32.259708 24.198528 -0.2061113 0.019607844
-8.9004459 5.8194203 -1.1029404 0.015686275
-8.9283247 7.1549325 -1.0316159 0
-145.63904 99.53746 4.2117023 0.074509807
-37.086643 30.804247 0.59024674 0.015686275
-9.1030979 5.958127 -0.73086911 0
-8.9465799 6.4860435 -0.86883104 0
-93.508652 70.733002 2.1191983 0.10980392
-9.7782326 5.7690787 -0.69894058 0
-27.83003 23.030891 -2.061342 0.015686275
-94.868454 64.737953 6.7438102 0.078431375
-93.448021 70.685593 4.8388281 0.24705882
-10.001408 6.5737286 -0.53477871 0
-9.7360582 7.085742 -0.60668635 0
-34.244144 23.18684 5.0633597 0.019607844
-14.605889 10.784711 1.4672152 0
-35.794014 29.719591 -1.5823294 0.031372551
-30.446838 20.587196 -0.82418561 0.011764706
-4.282794 2.9646833 -2.2726591 0.0039215689
-97.555046 60.295712 -1.9238528 0.24705882
-28.704603 21.654043 -1.0135281 0.011764706
-7.0101161 4.5583282 -2.24142 0.011764706
-9.836422 7.2149153 -2.3671467 0.0039215689
-36.728809 30.72109 -0.5214113 0.023529412
-8.7758961 5.7773347 -1.5760741 0.015686275
-8.7453089 6.3793778 -1.3299094 0.015686275
-96.411911 59.584778 0.72780418 0.10980392
-32.025745 24.195312 -0.205091 0.011764706
-145.33347 100.07337 4.2132063 0.074509807
-35.296261 29.508839 0.56312066 0.015686275
-9.0953751 5.9975152 -0.7319591 0
-8.9270468 6.5182352 -0.86913919 0
-97.472786 60.241806 3.3966885 0.24705882
-93.448547 71.200966 2.1236362 0.10980392
-9.8258648 5.8438592 -0.70398903 0
-94.763458 65.151245 6.7526813 0.078431375
-93.308601 71.092529 4.8446164 0.24705882
-10.060596 6.6639442 -0.53934908 0
-9.6573315 7.0769901 -0.60315734 0
-13.611523 9.1147223 1.9803252 0.0039215689
-35.668686 29.824863 -1.581314 0.031372551
-4.2700663 2.9753032 -2.2709649 0.0078431377
-96.323677 59.972942 -1.9032317 0.24705882
-28.607296 21.728239 -1.0125729 0.011764706
-9.72855 7.1814871 -2.3460226 0.011764706
-30.054407 20.615791 0.023147514 0.050980393
-8.7988729 5.8343959 -1.5840199 0.015686275
-8.7618217 6.4360609 -1.3359246 0.015686275
-96.257866 59.930389 0.72830933 0.10980392
-31.958 24.309799 -0.20512179 0.011764706
-8.883482 5.892993 -1.1058912 0.0039215689
-20.617533 17.209286 -2.4600208 0.027450981
-94.888885 65.70372 2.7529938 0.074509807
-35.36264 29.764402 0.56583911 0.015686275
-9.0852604 6.0331292 -0.7327736 0
-8.9369593 6.5707889 -0.87235296 0
-96.27578 59.940182 3.361902 0.24705882
-134.33493 103.19685 3.0651221 0.10980392
-9.7150412 5.8179154 -0.69713354 0
-27.322985 22.919266 -2.0348303 0.015686275
-94.687836 65.561829 6.7629542 0.078431375
-93.293922 71.570984 4.8563542 0.24705882
-10.067961 6.7164526 -0.54098415 0
-9.6243124 7.1003113 -0.60252243 0
-5.1501808 3.6521406 0.49231121 0
-9.5806084 5.7337184 -0.4344798 0
-35.517838 29.897564 -1.5789335 0.031372551
-4.7706833 3.3594587 1.0076147 0
-29.997391 20.576569 -0.81558084 0.035294119
-4.271112 2.9976623 -2.2777104 0
-96.174652 60.345737 -1.9042643 0.24705882
-28.692366 21.951571 -1.018321 0.011764706
-9.6724358 7.1899219 -2.3381886 0.0078431377
-29.857773 20.631929 0.02310029 0.050980393
-35.289215 29.913044 -0.50356567 0.019607844
-8.7849255 5.8681865 -1.5852295 0.015686275
-8.7549744 6.4773479 -1.3384223 0.015686275
-96.119148 60.309368 0.729029 0.10980392
-38.830948 29.820244 -0.25028637 0.023529412
-8.8693695 5.9271073 -1.1067276 0.0078431377
-20.581524 17.300465 -2.46294 0.050980393
-94.753937 66.099655 2.7559371 0.074509807
-35.331398 29.948727 0.56708008 0.015686275
-9.073946 6.0702524 -0.73358732 0
-8.9328613 6.6151881 -0.87427485 0
-96.116684 60.306404 3.3638637 0.24705882
-93.302933 72.097443 2.131778 0.10980392
-9.6777821 5.8397255 -0.69584978 0
-27.07913 22.872684 -2.0223789 0.015686275
-94.576118 65.973015 6.7715893 0.078431375
-8.0223532 5.907877 0.39870191 0
-10.073904 6.7707691 -0.54261839 0
-28.735229 21.985247 -1.8555409 0.015686275
-92.644615 71.58284 9.6106119 0.16862746
-35.252441 29.882002 -1.5716255 0.031372551
-4.0520339 2.550694 1.1949898 0
-29.856604 20.631538 -0.81362927 0.062745102
-4.2549086 3.0066621 -2.2743278 0.0039215689
-5.2586894 3.0784607 -0.097224019 0
-28.508459 21.96644 -1.0144091 0.011764706
-6.9502301 4.6171832 -2.237082 0.31764707
-9.6132841 7.1956387 -2.3295727 0.011764706
-29.746351 20.706924 0.023120973 0.074509807
-35.012035 29.885603 -0.50101423 0.019607844
-8.7708464 5.9019537 -1.5864393 0.015686275
-8.7541904 6.5235562 -1.3419247 0.011764706
-96.01947 60.713863 0.73005778 0.10980392
-38.033333 29.412209 -0.24570456 0.023529412
-8.8681183 5.9703712 -1.1092672 0.0078431377
-20.484838 17.339539 -2.4584794 0.05882353
-94.542213 66.442413 2.7566791 0.074509807
-35.344688 30.172417 0.56906122 0.015686275
-9.072257 6.114275 -0.73523027 0
-8.947403 6.6743755 -0.87813342 0
-96.027084 60.717293 3.3683221 0.24705882
-140.01997 109.13934 3.2130976 0.10980392
-9.5697174 5.8164077 -0.68924737 0
-26.823835 22.814249 -2.0090089 0.015686275
-94.492035 66.404945 6.7823405 0.078431375
-93.072205 72.436768 4.8714037 0.24705882
-35.912296 27.755089 -2.3317742 0.039215688
-92.582596 72.051697 9.6304588 0.16862746
-24.495438 20.802816 -1.0898609 0.015686275
-19.658094 15.044935 4.4715466 0.0039215689
-29.836674 20.771107 -0.81502354 0.062745102
-4.2386894 3.0155842 -2.2709453 0.0039215689
-96.003685 61.17453 -1.9089541 0.24705882
-35.914436 27.956486 -1.2850519 0.023529412
-6.9403496 4.6444588 -2.239222 0.12941177
-9.5603704 7.205883 -2.322521 0.0078431377
-29.74234 20.857891 0.02322853 0.074509807
-34.765659 29.882837 -0.49890143 0.019607844
-8.769516 5.9448566 -1.5900981 0.015686275
-8.7563057 6.5722933 -1.3459295 0.011764706
-95.948448 61.137787 0.73131835 0.10980392
-37.848717 29.479029 -0.24510725 0.023529412
-8.8569441 6.006784 -1.1105294 0.0078431377
-20.29497 17.297112 -2.4425805 0.039215688
-94.446579 66.867935 2.7608652 0.074509807
-34.131592 29.330843 0.55100274 0.011764706
-9.0606108 6.1514215 -0.73604399 0
-8.9491062 6.7238779 -0.88070095 0
-5.5832858 3.3098526 0.18220495 0
-93.158669 73.02874 2.1404338 0.10980392
-9.5090036 5.8225327 -0.68619114 0
-26.641596 22.817211 -2.0011547 0.015686275
-94.354019 66.800072 6.7893276 0.078431375
-35.815193 27.878851 -2.3317142 0.039215688
-13.982795 9.6501884 2.0558934 0.0039215689
-7.7176251 5.7534151 0.76537442 0
-24.280907 20.763458 -1.0833924 0.015686275
-13.672815 10.441384 3.0896032 0.0039215689
-29.825903 20.91774 -0.81668913 0.062745102
-13.152551 8.2168016 -0.25556153 0
-35.659992 27.956028 -1.2793103 0.023529412
-6.9146996 4.6604996 -2.2359834 0.11372549
-9.5167208 7.2231607 -2.3178148 0
-29.747389 21.016064 0.023343993 0.10196079
-24.43457 21.044546 -0.35008842 0.0078431377
-8.7647762 5.985518 -1.5931449 0.015686275
-8.7612896 6.6235871 -1.3504367 0.015686275
-95.858833 61.551109 0.73244941 0.10980392
-8.8488522 6.045505 -1.1122175 0.0078431377
-20.162565 17.303434 -2.4336929 0.027450981
-94.31987 67.272621 2.7641897 0.074509807
-34.919563 30.228466 0.56566834 0.015686275
-8.9724331 6.7908134 -0.88552755 0
-4.1570587 2.4156709 0.13214543 0
-26.474676 22.832331 -1.9944495 0.015686275
-94.259834 67.227577 6.7996073 0.078431375
-92.864815 73.320312 4.8876095 0.24705882
-36.747375 28.81893 -2.399632 0.039215688
-92.389633 72.941147 9.6635866 0.16862746
-16.066269 10.09603 -0.74772716 0.0039215689
-24.367657 20.986273 -1.0906045 0.015686275
-10.54186 7.2560706 3.3485208 0
-15.532319 11.991107 3.5325236 0.0039215689
-29.824223 21.071531 -0.81862599 0.062745102
-95.906258 62.056171 -1.9152592 0.24705882
-35.652782 28.151287 -1.2825464 0.023529412
-9.4945107 7.2573624 -2.3185813 0
-29.745193 21.169855 0.02345413 0.074509807
-34.346218 29.936758 -0.49572861 0.019607844
-8.7534409 6.021596 -1.594967 0.015686275
-8.7598162 6.6700473 -1.3539393 0.015686275
-95.710449 61.92754 0.73314112 0.10980392
-36.879414 29.130581 -0.23997593 0.047058824
-8.8341408 6.0795918 -1.1130542 0.0078431377
-20.069181 17.343306 -2.4296026 0.039215688
-95.614975 68.704575 2.80953 0.074509807
-33.973972 29.607906 0.55190027 0.011764706
-8.9735899 6.840579 -0.88809508 0
-95.724579 61.935329 3.3808615 0.24705882
-45.00502 35.620453 1.0347549 0.043137256
-9.3409233 5.8032742 -0.67653382 0
-26.281008 22.822798 -1.9856771 0.015686275
-94.218842 67.695007 6.8138852 0.078431375
-36.637184 28.938133 -2.3989511 0.039215688
-45.090218 35.686733 4.7072001 0.047058824
-9.7639685 6.0780582 -0.44801733 0
-24.00045 20.810612 -1.0771605 0.015686275
-7.4906335 5.6548133 1.6586804 0
-4.2238421 3.0691776 -2.2810538 0
-95.933296 62.549088 -1.9199921 0.24705882
-35.563644 28.281664 -1.2828282 0.023529412
-6.9069257 4.7239413 -2.2445664 0.011764706
-9.5363588 7.3431396 -2.3357654 0
-24.26013 21.187872 -0.34961826 0.0078431377
-8.7419567 6.0576653 -1.5967891 0.015686275
-8.7735796 6.7290134 -1.3599534 0.015686275
-95.661003 62.3694 0.73460704 0.10980392
-36.895924 29.352993 -0.24069417 0.023529412
-8.8353796 6.1253414 -1.1160196 0.0078431377
-19.993633 17.398607 -2.4277265 0.027450981
-95.516853 69.139961 2.8139083 0.074509807
-33.652119 29.530985 0.54834932 0.011764706
-8.990037 6.9029303 -0.89227617 0
-95.638229 62.353092 3.3856747 0.24705882
-37.467144 29.812008 0.86223727 0.031372551
-24.320362 21.242058 -1.8408923 0.011764706
-94.162804 68.153557 6.8272219 0.078431375
-44.93087 35.815876 2.3666818 0.05882353
-36.504822 29.039383 -2.3968241 0.039215688
-63.893753 41.570171 -3.043267 0.16078432
-24.28928 21.214104 -1.0936747 0.015686275
-25.830692 18.475962 8.4433527 0.011764706
-15.512582 12.148209 3.547698 0.0039215689
-31.245127 22.41688 -0.86236203 0.011764706
-4.207469 3.0779116 -2.2776716 0.0039215689
-95.677673 62.857899 -1.9190784 0.24705882
-36.415314 29.174463 -1.3175371 0.023529412
-6.8935018 4.7488742 -2.245631 0.0078431377
-9.6478167 7.4861007 -2.3709302 0.0039215689
-94.184845 68.674568 0.076962866 0.24705882
-24.180063 21.265667 -0.34949309 0.0078431377
-8.739892 6.1007338 -1.6004483 0.015686275
-8.7685337 6.7731633 -1.3629537 0.015686275
-95.549561 62.771984 0.73560768 0.10980392
-8.8267775 6.1641216 -1.1177077 0.0078431377
-19.956526 17.48811 -2.4306474 0.0078431377
-95.403984 69.566017 2.8179038 0.074509807
-33.551811 29.649509 0.54845124 0.011764706
-8.9875669 6.9504151 -0.89452088 0
-8.5200768 5.3502836 0.28858161 0
-37.599007 30.13253 0.86781323 0.031372551
-24.204401 21.288113 -1.837638 0.011764706
-94.062851 68.581848 6.8375001 0.078431375
-5.8132954 4.3778377 0.28768012 0
-36.390823 29.155138 -2.3959377 0.039215688
-8.2319088 5.7273154 1.1967983 0
-5.9205561 4.4646058 0.58360434 0
-23.985672 21.092093 -1.0831045 0.015686275
-25.70368 18.518953 8.4226389 0.011764706
-9.1874647 7.11097 2.0677633 0
-31.024731 22.42042 -0.85833114 0.011764706
-4.1826525 3.0796897 -2.2692254 0
-95.49099 63.212215 -1.919577 0.24705882
-36.294666 29.284813 -1.3167955 0.023529412
-6.8675828 4.7646222 -2.2423923 0.0078431377
-9.6793699 7.5654378 -2.3857684 0.0039215689
-13.002583 9.289382 0.0098844934 0
