# .PCD v0.7 - Point Cloud Data file format
VERSION 0.7
FIELDS x y z intensity
SIZE 4 4 4 4
TYPE F F F F
COUNT 1 1 1 1
WIDTH 1173
HEIGHT 1
VIEWPOINT 0 0 0 1 0 0 0
POINTS 1173
DATA ascii
113.11479 17.400391 0.6712755 0.10980392
9.2537107 0.50671965 -0.05320162 0
19.220634 1.9978082 -2.0754204 0.011764706
22.65325 0.13760227 -2.1087165 0.0078431377
9.2713175 0.9614166 0.21611626 0
29.154894 3.0329475 -2.0447493 0.0039215689
25.576296 1.4043561 -2.085608 0.0078431377
107.76534 16.577511 3.177876 0.24705882
32.660343 5.0187893 -2.1130447 0.019607844
35.13184 0.21354918 -2.0407801 0.015686275
43.2271 4.4992537 -2.019697 0.015686275
39.753342 2.184236 -2.081449 0.019607844
6.5119123 0.6739701 0.79814762 0
17.057285 0.93618578 1.391625 0
53.734211 0.32677531 -1.8708937 0.047058824
14.616997 0.80211359 2.6611674 0
4.9753685 0.2538203 -2.3006542 0
109.3511 16.430428 -1.9231081 0.24705882
69.135063 3.558672 -2.0085926 0.070588239
8.0618105 0.80678183 -2.2544765 0
11.192186 0.57405269 -2.2312868 0
15.227056 1.5284206 0.00072335906 0
55.431892 0.14391939 -0.64071208 0.035294119
13.882751 1.3927939 -2.1626177 0.0039215689
17.044104 0.87548894 -2.1653078 0.0039215689
131.37009 19.740686 0.77935129 0.10980392
6.0437326 0.30915037 -0.034737773 0
19.239363 1.9320607 -2.0766957 0.011764706
22.665541 0.058719076 -2.1098208 0.0078431377
29.113693 2.9261241 -2.0411119 0.0039215689
25.596968 1.3160504 -2.0868971 0.0078431377
18.56039 0.95392066 0.32462686 0.0039215689
32.586868 4.891264 -2.1071496 0.019607844
34.932713 0.09055642 -2.0291522 0.015686275
11.935395 1.1971406 0.69631469 0
39.800617 2.0476689 -2.0835211 0.019607844
53.774998 0.13946258 -1.8722625 0.047058824
13.981586 1.4029937 -0.32522866 0
4.9617405 0.23592313 -2.2938912 0
109.47903 16.059214 -1.924307 0.24705882
69.11113 3.315748 -2.0075164 0.070588239
8.0607443 0.77842891 -2.2533948 0
11.194123 0.5351457 -2.2312818 0
136.93936 13.298763 0.008792541 0.24705882
55.468052 -0.049455196 -0.64110351 0.035294119
13.883596 1.3441074 -2.1619966 0
17.051022 0.81634182 -2.1658049 0.0039215689
19.242033 1.8646691 -2.0762584 0.0039215689
22.68552 -0.020255608 -2.1116681 0.0078431377
136.78265 13.283973 3.2055097 0.074509807
29.127705 2.825026 -2.0413768 0.0039215689
25.625301 1.2279998 -2.0888362 0.0078431377
106.20906 15.580048 3.1287766 0.24705882
32.516857 4.764894 -2.1015108 0.019607844
35.176407 -0.0314443 -2.0433035 0.015686275
18.271597 0.87532496 0.74436158 0.0039215689
43.086449 4.1810646 -2.0116637 0.015686275
39.807526 1.9088835 -2.0835028 0.019607844
22.207924 3.2522106 -0.91144264 0.0078431377
11.440863 -0.0099558374 -0.39723179 0
26.370356 2.5584004 7.0879345 0.0039215689
14.610446 0.69980699 2.6590276 0
13.59236 1.3160657 -0.31603596 0
4.9813604 0.22009806 -2.2989445 0
110.6878 15.860482 -1.943364 0.24705882
68.542572 3.0602579 -1.9896352 0.070588239
8.0827875 0.75290883 -2.2565811 0
11.227346 0.49919787 -2.2358911 0
55.395569 -0.23303993 -0.63946897 0.035294119
13.899914 1.2985485 -2.1624961 0.0039215689
17.061636 0.75990266 -2.1656356 0.0039215689
138.21677 19.807541 0.82060724 0.10980392
19.260073 1.8013246 -2.0765095 0.011764706
22.705276 -0.095442303 -2.1125185 0.0078431377
7.5391674 -0.031176344 0.087493233 0
29.144918 2.7284915 -2.0410852 0.0039215689
25.65715 1.1439886 -2.0901847 0.0078431377
107.59003 15.417212 3.1688073 0.24705882
32.394283 4.6361394 -2.0917585 0.019607844
35.200077 -0.14810823 -2.043798 0.015686275
42.84552 4.0135632 -1.9989469 0.015686275
39.861538 1.7786857 -2.0851367 0.019607844
11.103853 0.49416187 0.90344048 0
55.625565 -0.23420282 -1.9357352 0.047058824
14.05453 1.313341 -0.32640427 0
4.9820986 0.20290256 -2.2989419 0
68.153351 2.8047066 -1.9779967 0.070588239
8.0815315 0.72453713 -2.2554986 0
11.221185 0.45987388 -2.2343171 0
55.474407 -0.42684147 -0.64036399 0.035294119
13.920108 1.2516333 -2.164947 0
17.084005 0.7013486 -2.1681502 0.0039215689
143.35963 20.034544 0.85082573 0.10980392
15.010826 0.61628222 -0.086032175 0
19.250401 1.7328435 -2.0747867 0.0039215689
22.704803 -0.17450857 -2.1125069 0.0078431377
14.09083 1.2674388 0.32869598 0
29.05094 2.6176012 -2.0338228 0.0039215689
25.728703 1.057398 -2.0956976 0.0078431377
106.62553 14.899447 3.138891 0.24705882
35.231289 -0.27103898 -2.0456371 0.015686275
42.747849 3.8541059 -1.9937207 0.015686275
39.851543 1.6390595 -2.0842793 0.019607844
12.728514 1.1446494 1.5630373 0
19.01952 2.6513898 -0.77908999 0.0039215689
55.836273 -0.42982411 -1.9430854 0.047058824
7.1513877 0.64122474 1.9092847 0
20.423433 1.8389925 -0.47459611 0.0039215689
4.9755311 0.185432 -2.2955589 0
7.1848035 0.97162807 -0.12539859 0
67.367622 2.5370033 -1.9548727 0.070588239
8.0878487 0.69684881 -2.2565722 0
11.22664 0.42104173 -2.235095 0
55.47258 -0.62030065 -0.64033526 0.035294119
8.4903421 0.73191613 -1.3167924 0
17.086349 0.64190078 -2.1681409 0.0039215689
144.09451 19.624874 0.85486001 0.10980392
19.260294 1.6661702 -2.0752039 0.0039215689
22.688124 -0.25339422 -2.1110094 0.0078431377
29.02412 2.513262 -2.0312982 0.0039215689
25.740206 0.96807015 -2.0963342 0.0078431377
108.60226 14.789658 3.1956408 0.24705882
35.222141 -0.39374208 -2.0451543 0.015686275
42.681423 3.6981418 -1.9899808 0.015686275
39.896942 1.5016304 -2.0863483 0.019607844
11.328303 0.97855657 1.3898789 0
55.654552 -0.62253088 -1.9367913 0.047058824
11.010427 0.95122367 2.9469395 0
13.70859 0.51530778 2.491931 0
4.9942656 0.16887762 -2.3040071 0
13.020147 1.7205707 -0.22766477 0
13.88185 0.47307369 -0.40173471 0
8.0940704 0.66912913 -2.2576458 0
11.212362 0.38151285 -2.2319527 0
55.470074 -0.81372577 -0.64030659 0.035294119
13.932449 1.1551406 -2.1655464 0
17.100384 0.58285975 -2.1696463 0.0039215689
105.62857 14.008934 0.62624717 0.10980392
19.277884 1.6001182 -2.0764778 0.0039215689
22.730909 -0.33303303 -2.1150832 0.0078431377
18.148228 1.5064762 0.42357418 0
29.060555 2.4144516 -2.0332334 0.0039215689
25.783274 0.87977684 -2.0995717 0.0078431377
105.67659 14.015708 3.1080999 0.24705882
32.239254 4.2704577 -2.0786707 0.019607844
35.21656 -0.51642662 -2.0449042 0.015686275
13.382926 1.1098602 0.77956778 0
42.546741 3.5370741 -1.9830825 0.015686275
39.93787 1.3637869 -2.0882077 0.019607844
8.6536064 -0.12598027 -0.29978743 0
4.9912009 0.15152638 -2.3023145 0
8.9445858 1.1482335 -0.15611927 0
67.291779 2.0641961 -1.9521327 0.070588239
8.1078768 0.64198261 -2.2608755 0
11.225389 0.34292516 -2.2342992 0
8.8617067 -0.15975706 -0.10202266 0
13.936397 1.1066921 -2.1655388 0
17.090418 0.52299047 -2.1681228 0.0039215689
105.89501 13.668478 0.62760115 0.10980392
14.760582 0.45178232 -0.084542714 0
19.267492 1.5317421 -2.074755 0.0039215689
22.737572 -0.41233242 -2.115814 0.0078431377
29.072781 2.3135016 -2.0334961 0.0039215689
25.786188 0.78995943 -2.0995579 0.0078431377
131.28566 16.947931 3.8600831 0.24705882
7.87886 0.24054845 0.13697937 0
32.230213 4.155015 -2.0771196 0.019607844
35.242489 -0.63967484 -2.0465112 0.015686275
21.88327 0.67059606 0.89128184 0.0078431377
42.46722 3.3814182 -1.9787859 0.015686275
39.870518 1.2223481 -2.0844247 0.019607844
10.081583 0.30827558 0.81940615 0
8.4391518 1.0829316 -0.34409618 0
55.768761 -1.0128483 -1.9409106 0.047058824
22.888029 0.70194072 4.166616 0.0039215689
4.9916992 0.13430163 -2.3023119 0
107.54698 13.500183 -1.8834728 0.24705882
67.650299 1.8391001 -1.962306 0.070588239
8.098546 0.61300004 -2.257637 0
11.222595 0.30383551 -2.2335088 0
55.463043 -1.2005442 -0.64024943 0.035294119
13.940174 1.0582429 -2.1655312 0
17.108007 0.46396902 -2.1701329 0.0039215689
19.296516 1.4664983 -2.0773127 0.0039215689
22.819613 -0.49330139 -2.1236019 0.0078431377
168.60081 12.846889 3.9465652 0.074509807
29.088636 2.212826 -2.0340376 0.0039215689
25.844582 0.70167428 -2.1040957 0.0078431377
7.6997437 0.20834938 0.1338263 0
32.204906 4.0377288 -2.0745461 0.019607844
35.224075 -0.76212448 -2.0455644 0.015686275
16.643366 1.2647613 0.96984231 0
42.359241 3.2242744 -1.9731884 0.015686275
17.165073 1.3047019 2.1079328 0.0039215689
8.2493887 0.22338493 0.66954005 0
24.059202 3.0148623 -0.98417205 0.0078431377
56.076618 -1.2140354 -1.9517406 0.047058824
8.5687666 0.6491608 -0.19830303 0
4.9885135 0.11698487 -2.3006191 0
112.17079 13.683502 -1.9635662 0.24705882
9.7489462 0.23017865 -0.28164303 0
8.1044779 0.58519942 -2.2587106 0
11.239273 0.26522338 -2.2366397 0
168.71855 12.263195 0.013331484 0.24705882
55.406532 -1.3926505 -0.63962054 0.035294119
13.947725 1.0100542 -2.1661382 0
17.113489 0.40453291 -2.1706283 0.0039215689
13.694306 1.6649362 0.080538645 0
19.313416 1.400187 -2.0785863 0.0039215689
22.837656 -0.57326555 -2.125447 0.0078431377
29.104141 2.1120403 -2.034579 0.0039215689
25.862818 0.61202192 -2.1053827 0.0078431377
32.143517 3.9162869 -2.0696726 0.019607844
35.440762 -0.89041591 -2.058316 0.015686275
12.84813 0.93035185 -0.59674454 0
6.4390726 0.77939165 -0.26184291 0
53.766167 -1.3515518 -1.8713843 0.047058824
15.653884 0.37068102 2.8458467 0
7.3186231 0.5283891 -0.16918126 0
4.9816427 0.099618942 -2.2972362 0
10.001532 0.2014306 -0.28894636 0
8.1026287 0.55683345 -2.2576282 0
10.134242 0.20385288 -2.0155115 0
13.959052 0.96209854 -2.1673598 0
17.106861 0.34482363 -2.16961 0.0039215689
136.77666 16.202866 0.80999446 0.10980392
31.428825 0.6347307 -0.17991275 0.0078431377
19.33009 1.3337758 -2.0798602 0.0039215689
22.867371 -0.65370452 -2.1284068 0.0078431377
24.96381 -0.7134304 0.29216889 0.0039215689
29.127262 2.0117245 -2.0356781 0.0039215689
25.908644 0.52281457 -2.1089451 0.0078431377
32.061859 3.7929747 -2.0635219 0.019607844
35.297729 -1.009931 -2.0501719 0.015686275
3.6888711 0.25179631 0.21206674 0
42.081753 2.9081578 -1.9592073 0.015686275
39.98098 0.80737585 -2.089586 0.019607844
14.640133 0.29545236 1.191825 0
50.084076 5.9287353 -2.0490749 0.054901961
53.76112 -1.5390418 -1.8713567 0.047058824
4.9928203 0.083465934 -2.302304 0
108.79279 12.520611 -1.9027587 0.24705882
67.605682 1.1418982 -1.9604605 0.070588239
7.2626643 0.47473717 -2.0215449 0
11.197678 0.18836138 -2.2280028 0
13.950335 0.91520602 -2.1655087 0
17.103943 0.2882072 -2.1690967 0.0039215689
19.334408 1.2698478 -2.0798502 0.0039215689
22.880997 -0.72986197 -2.1298811 0.0078431377
29.125811 1.9147769 -2.0351057 0.0039215689
25.882326 0.43660259 -2.1066566 0.0078431377
13.600445 1.5600308 0.3974849 0
32.022709 3.6808739 -2.060183 0.019607844
35.322124 -1.1276952 -2.0517797 0.015686275
42.007442 2.7632532 -1.9552839 0.015686275
40.019379 0.6755715 -2.0914471 0.039215688
24.12804 0.40756416 1.9672692 0.0039215689
50.103462 5.7627892 -2.0490484 0.054901961
56.42474 -1.8025051 -1.9643242 0.047058824
11.855313 0.20013933 2.152442 0
4.9894567 0.066187598 -2.3006115 0
67.009552 0.89810389 -1.9430244 0.06666667
8.1023874 0.50181264 -2.2565417 0
11.233566 0.14994839 -2.235054 0
13.953444 0.86670941 -2.1655014 0
17.100876 0.22865541 -2.1685829 0.0039215689
19.354597 1.2035484 -2.0815523 0.0039215689
22.914131 -0.8107872 -2.1332121 0.0078431377
29.136299 1.8135606 -2.0353689 0.0039215689
25.879707 0.34641337 -2.1063178 0.0078431377
31.963945 3.5613186 -2.0555656 0.019607844
16.800915 -0.59376919 -0.97449964 0.0039215689
7.516861 0.10047971 0.30435166 0
41.949032 2.6125996 -1.9521025 0.015686275
40.053448 0.53652471 -2.0930977 0.039215688
15.837707 0.21223393 1.2895848 0
49.726067 5.5437603 -2.0327673 0.054901961
56.45406 -2.0004942 -1.9655483 0.047058824
31.285526 0.42009649 5.6970868 0.011764706
4.989666 0.048103705 -2.3006086 0
113.77046 12.269954 -1.9881301 0.24705882
67.412209 0.65657824 -1.9545876 0.070588239
8.1118641 0.47276661 -2.258693 0
11.23012 0.10893837 -2.2342637 0
8.7248354 0.50908738 0.00039946535 0.0039215689
15.119208 -0.58928978 -0.17435029 0
13.960473 0.81599462 -2.1661079 0
17.113506 0.16629244 -2.1700878 0.0039215689
19.382698 1.1341999 -2.0841095 0.0039215689
22.942842 -0.89581382 -2.1361709 0.0078431377
29.1786 1.7090596 -2.0378604 0.0039215689
25.860874 0.25156149 -2.1046782 0.0078431377
13.662935 1.4686496 0.39901701 0
10.697605 0.10411204 0.18640453 0
31.818035 3.4272101 -2.0453255 0.019607844
35.48074 -1.3865695 -2.0614939 0.015686275
13.907549 0.1354558 0.56529701 0
41.886528 2.4548123 -1.9487345 0.015686275
40.155006 0.39088503 -2.0983002 0.039215688
13.856034 0.81046438 1.6982218 0
6.8408041 0.066575721 0.55422199 0
49.889099 5.3770943 -2.038589 0.054901961
56.534229 -2.2106454 -1.9685807 0.047058824
9.7753201 0.57113701 2.6093829 0
24.059998 1.408914 -0.55785221 0.0039215689
4.9934235 0.031766742 -2.3022964 0
14.793193 1.5410812 -0.25784233 0
67.414024 0.43322685 -1.954554 0.070588239
8.1133871 0.44605124 -2.2586889 0
11.246107 0.071985595 -2.2373946 0
13.295479 0.73326164 0.00078558584 0
19.492937 -0.82505602 -0.22490145 0.0039215689
13.967048 0.7701022 -2.1667154 0
17.121899 0.10978096 -2.1710885 0.0039215689
19.123043 0.12295911 -0.10940974 0
19.378412 1.0696681 -2.0832434 0.0039215689
4.1741529 -0.1745808 -0.38470465 0
29.196058 1.6131432 -2.0386815 0.0039215689
25.869537 0.16604425 -2.1053154 0.0078431377
35.452011 -1.5030112 -2.0600839 0.015686275
5.3152585 0.034214035 0.21444057 0
41.854546 2.3138838 -1.9468551 0.011764706
40.208008 0.25825128 -2.100997 0.039215688
18.429218 1.0177956 2.2606723 0.0039215689
49.763557 5.1968627 -2.032712 0.054901961
56.362835 -2.3909564 -1.9628459 0.047058824
5.0051174 0.014523217 -2.3039641 0
6.2274065 0.62302148 -0.10796003 0
52.881283 0.15520871 -1.5319943 0.039215688
8.1344252 0.41848981 -2.2618663 0
11.238589 0.0328352 -2.2341514 0
2.0889859 0.10542412 -0.00017068627 0
13.99343 0.72230357 -2.169044 0
17.122227 0.050119203 -2.1698928 0.0039215689
2.6016252 0.13195693 -0.27386153 0
23.027746 -1.0555055 -2.1436687 0.0078431377
13.645747 0.70471406 0.31741121 0
29.213488 1.5115076 -2.0386398 0.0039215689
25.901865 0.075904973 -2.1069603 0.0078431377
136.8768 13.821411 4.0135546 0.24705882
31.8526 3.2112169 -2.0452435 0.019607844
35.310925 -1.620096 -2.0512562 0.015686275
41.918243 2.1702824 -1.9486047 0.015686275
40.224644 0.11795439 -2.100915 0.039215688
13.90947 0.041252185 1.1313957 0
49.789406 5.0231185 -2.0321848 0.054901961
56.126511 -2.5768847 -1.9538594 0.047058824
16.78606 0.8682788 4.4881282 0.0039215689
6.2456474 0.018752294 1.1274343 0
13.97728 0.72179157 -0.32322389 0
4.9978862 -0.002721468 -2.3005812 0
52.705574 -0.029074783 -1.5268613 0.039215688
8.1281414 0.3899422 -2.2597058 0
11.234712 -0.0061724298 -2.2333605 0
2.2491534 0.10608064 -0.00015399471 0
13.984022 0.67310017 -2.167192 0
17.102455 -0.0094187018 -2.1673594 0.0039215689
136.72142 13.323371 0.80971867 0.10980392
168.94493 -0.093510211 -0.96417063 0.16862746
19.41326 0.93562746 -2.0851741 0.0039215689
23.063696 -1.1376319 -2.1473684 0.0078431377
10.804221 0.51977676 0.25089124 0
14.177476 -0.69769484 0.16574654 0
29.214598 1.409547 -2.038343 0.0039215689
25.941837 -0.014316216 -2.1101952 0.0078431377
15.273084 1.4832593 0.44571328 0
31.70072 3.0843472 -2.0347486 0.019607844
35.305054 -1.7431304 -2.0512359 0.015686275
19.103827 -0.010026977 0.77735215 0.0039215689
41.933544 2.0245452 -1.9489504 0.015686275
12.095259 -0.0063763382 -0.62964553 0
13.357659 1.2963448 -0.54336691 0
56.117172 -2.772579 -1.953827 0.047058824
5.0087199 -0.020850919 -2.3056483 0
52.809067 -0.22244373 -1.5298429 0.039215688
8.1256685 0.36021289 -2.2586226 0
11.234613 -0.047112852 -2.2333536 0
9.8859081 0.43925476 0.00059029332 0.0039215689
13.998241 0.62260801 -2.1690264 0
17.110243 -0.071897849 -2.1683576 0.0039215689
166.08017 15.571588 0.98351747 0.10980392
168.92348 -0.71236831 -0.96395099 0.015686275
19.392721 0.86364198 -2.0825937 0.0039215689
23.083235 -1.2231859 -2.1495824 0.0078431377
29.223557 1.3028795 -2.0386031 0.0039215689
25.91769 -0.10905643 -2.1082287 0.0078431377
8.6583061 0.8065598 0.25162464 0
31.691938 2.9665151 -2.0334504 0.019607844
35.49781 -1.8828731 -2.0628197 0.015686275
6.6140223 0.29313782 0.38212913 0
41.95266 1.8716159 -1.9494807 0.015686275
40.232449 -0.16946577 -2.1012838 0.039215688
13.556642 0.60354966 1.6593455 0
49.426151 4.6298437 -2.015873 0.039215688
56.418003 -2.9945414 -1.9646462 0.047058824
78.963814 3.52525 -1.8304777 0.05882353
4.9977474 -0.037164442 -2.3005753 0
52.824036 -0.39746201 -1.5302769 0.039215688
8.1306677 0.3336378 -2.2596958 0
11.234396 -0.084153645 -2.2333472 0
10.970385 0.45147508 0.00070198183 0.0039215689
13.992332 0.57607305 -2.1677892 0
17.098007 -0.12833169 -2.1668341 0.0039215689
19.415348 0.80036575 -2.0847225 0.0039215689
23.114843 -1.3015307 -2.1529119 0.0078431377
29.255627 1.2073352 -2.0405364 0.0039215689
25.901243 -0.19466445 -2.106914 0.0078431377
31.630043 2.8551512 -2.0288329 0.019607844
35.467449 -1.9990075 -2.0614076 0.015686275
6.9022226 0.28329903 0.3989051 0
41.994564 1.7341914 -1.951128 0.015686275
40.247643 -0.30278096 -2.1020968 0.039215688
8.8857431 0.36545101 1.0846478 0
49.043179 4.4301367 -1.9995959 0.039215688
56.096451 -3.16381 -1.9537624 0.047058824
3.4337437 0.13994259 0.90376067 0
8.1421404 -0.060219567 1.4734699 0
78.683388 3.251543 -1.8236676 0.05882353
4.9975872 -0.05438536 -2.3005724 0
8.1279335 0.30533388 -2.2586129 0
11.241879 -0.12322973 -2.2349088 0
13.986356 0.52715451 -2.1665516 0
17.101423 -0.18783121 -2.1673288 0.0039215689
11.568119 1.0005003 0.067786902 0
55.503441 -0.61097449 -0.31668022 0.039215688
19.429943 0.73326713 -2.0859947 0.0039215689
23.106184 -1.3817424 -2.1525273 0.0078431377
8.1845579 -0.48656043 0.095281802 0
29.287571 1.1064924 -2.042469 0.0039215689
25.924322 -0.28511098 -2.108849 0.0078431377
9.444314 0.81591541 0.27451247 0
31.659697 2.7466822 -2.0300903 0.019607844
35.484173 -2.1240036 -2.0627799 0.015686275
9.3372822 0.35161009 0.54100811 0
42.004356 1.5879757 -1.9512881 0.015686275
40.322227 -0.44387558 -2.1060424 0.039215688
48.8951 4.2449613 -1.9929038 0.039215688
56.79137 -3.4017284 -1.9783577 0.047058824
77.986954 2.9503307 -1.8072189 0.05882353
4.9973674 -0.071607955 -2.3005695 0
52.775993 -0.76514906 -1.5289391 0.32549021
8.1212502 0.27691704 -2.2564523 0
11.233537 -0.16213609 -2.2333341 0
2.6341891 0.088746026 -0.00011063847 0
13.996013 0.4788205 -2.1677721 0
17.116533 -0.24753729 -2.1693375 0.0039215689
55.508965 -0.80462235 -0.31669304 0.082352944
19.456232 0.66647643 -2.0885508 0.0039215689
23.049547 -1.4588921 -2.147687 0.0078431377
29.295246 1.0046051 -2.0427299 0.0039215689
25.919186 -0.37532786 -2.1085088 0.0078431377
20.069666 1.6692865 0.5857029 0.0039215689
9.1693449 -0.13176215 0.15956919 0
31.581575 2.6290684 -2.0244503 0.019607844
35.568195 -2.2534587 -2.0680976 0.015686275
42.041588 1.4426528 -1.9527482 0.015686275
40.256531 -0.58348292 -2.1026762 0.039215688
48.889706 4.0728087 -1.9920609 0.039215688
56.870907 -3.6055632 -1.9815253 0.047058824
77.517197 2.6618104 -1.7960527 0.05882353
5.0043373 -0.088960819 -2.3039465 0
8.1337185 0.24914394 -2.259681 0
11.236825 -0.20119801 -2.2341115 0
13.993649 0.43006 -2.1671493 0
17.115564 -0.30706498 -2.1693275 0.0039215689
55.525814 -0.9985323 -0.31677443 0.039215688
19.498194 0.60000193 -2.092819 0.0039215689
23.088026 -1.5420523 -2.1517582 0.0078431377
17.914324 0.55154365 0.41698614 0
29.306549 0.90280098 -2.0432694 0.0039215689
25.925688 -0.46572781 -2.1091435 0.0078431377
13.634652 1.084793 0.39708641 0
31.59454 2.5193446 -2.0246859 0.019607844
35.516289 -2.3744516 -2.0655243 0.015686275
23.213293 0.71528882 1.3507668 0.0039215689
24.091772 -0.43217635 0.98132116 0.0078431377
42.022408 1.2953639 -1.9516084 0.015686275
40.290192 -0.72443604 -2.1045325 0.039215688
48.712391 3.8870587 -1.9842319 0.039215688
56.857975 -3.8038495 -1.9814929 0.047058824
76.886497 2.3716714 -1.7811809 0.05882353
5.0003719 -0.10612619 -2.3022537 0
52.713402 -1.1319268 -1.5272539 0.039215688
8.1306887 0.22087014 -2.2585983 0
11.232132 -0.24011061 -2.233321 0
158.97884 -11.200929 -1.8364373 0.082352944
13.995066 0.38143653 -2.167141 0
17.106455 -0.36641008 -2.1683078 0.0039215689
168.71742 12.883656 0.99820191 0.10980392
55.505989 -1.1917694 -0.31665048 0.039215688
19.567755 0.53401309 -2.1000829 0.0039215689
23.09045 -1.6229675 -2.1524878 0.0078431377
29.349411 0.80181736 -2.0460379 0.0039215689
25.935862 -0.55625123 -2.1101034 0.0078431377
168.64049 12.878486 4.9354939 0.24705882
31.587221 2.4080572 -2.0236444 0.019607844
35.4799 -2.4962161 -2.0638795 0.015686275
42.118538 1.1514167 -1.9558545 0.015686275
40.295403 -0.86501092 -2.1049266 0.039215688
48.454674 3.6965322 -1.9731541 0.039215688
57.219196 -4.0284863 -1.9945389 0.047058824
8.9157486 0.2431674 2.3733752 0
76.814362 2.1013234 -1.7792811 0.05882353
4.9927225 -0.12317573 -2.2988706 0
52.665161 -1.3146083 -1.5259478 0.039215688
8.1352606 0.1928014 -2.2596712 0
11.24299 -0.2793892 -2.2356665 0
6.5258641 0.15475395 0.00028637514 0
14.000263 0.33289805 -2.1677468 0
17.093172 -0.42560172 -2.166784 0.0039215689
20.924852 -0.52102947 -0.11937059 0.0039215689
19.652992 0.46791899 -2.1090586 0.0039215689
23.076698 -1.70275 -2.151732 0.0078431377
10.357959 0.24632198 0.24028313 0
168.12465 -12.434668 1.9812859 0.062745102
29.375971 0.7001549 -2.0476918 0.0039215689
25.96166 -0.64725858 -2.1123631 0.0078431377
31.611361 2.2991624 -2.0246465 0.019607844
35.530708 -2.6242509 -2.0673406 0.015686275
42.06638 1.0032713 -1.9532291 0.015686275
40.356033 -1.0070422 -2.1082454 0.039215688
6.7313795 -0.16615483 0.54485387 0
48.40749 3.5232313 -1.9706869 0.039215688
57.228703 -4.2297473 -1.9953411 0.047058824
7.4514279 -0.18401724 1.3478602 0
76.421448 1.8238453 -1.7699698 0.05882353
4.9922867 -0.13951947 -2.2988677 0
52.700481 -1.4901652 -1.5270778 0.039215688
8.1320038 0.16595586 -2.2585888 0
11.214556 -0.31568074 -2.2301719 0
6.3303809 0.12929365 0.00027021513 0
144.55869 -11.173443 -1.6705095 0.082352944
14.001289 0.28668171 -2.1677387 0
17.111498 -0.48263234 -2.1692979 0.0039215689
8.7720766 -0.24616022 -0.050042886 0
19.551054 0.4008325 -2.0979199 0.0039215689
23.031218 -1.7759824 -2.1480064 0.0078431377
29.390095 0.60319471 -2.0485108 0.0039215689
25.931475 -0.73234475 -2.1100738 0.0078431377
7.3390241 0.5064069 0.21255617 0
31.642704 2.1961958 -2.0261605 0.019607844
35.58551 -2.7467747 -2.0710349 0.015686275
42.145374 0.86554086 -1.9567336 0.015686275
40.384415 -1.1415548 -2.1098943 0.039215688
20.148335 0.41390622 2.468307 0.0039215689
48.243477 3.3506997 -1.9635102 0.039215688
76.427063 1.5706245 -1.769926 0.05882353
4.9953661 -0.15769798 -2.300555 0
52.490856 -1.6765589 -1.5211334 0.039215688
8.1364098 0.13644876 -2.2596617 0
11.229005 -0.3570497 -2.2333012 0
14.010151 0.23573019 -2.1689591 0
17.101683 -0.54485768 -2.1682777 0.0039215689
14.208245 -0.45197079 -0.081054218 0
19.524555 0.32893604 -2.0949116 0.0039215689
23.032492 -1.860793 -2.1487355 0.0078431377
29.428015 0.49631134 -2.0509999 0.0039215689
26.024254 -0.83020908 -2.1178582 0.0078431377
31.634609 2.0793903 -2.0251181 0.019607844
35.626945 -2.8811419 -2.0740309 0.015686275
42.216183 0.71244621 -1.9598643 0.015686275
40.367981 -1.2889459 -2.1092427 0.039215688
17.220173 0.29071751 2.1082625 0.0039215689
48.067997 3.161747 -1.9558434 0.039215688
57.596233 -4.6610103 -2.0091887 0.050980393
17.316614 0.29191446 -0.40012679 0
4.9839463 -0.1736657 -2.2954819 0
14.2529 -0.50056064 -0.411993 0
8.132967 0.10962659 -2.258579 0
11.227759 -0.39407241 -2.233295 0
14.006904 0.18942797 -2.1683364 0
17.111679 -0.6017741 -2.1697824 0.0039215689
11.408455 -0.40008894 -0.065083459 0
19.533493 0.26450831 -2.0957565 0.0039215689
23.026196 -1.9369494 -2.1487231 0.0078431377
29.409554 0.39866301 -2.0495901 0.0039215689
26.005419 -0.91572911 -2.1165438 0.0078431377
10.635492 -0.37276021 0.18545412 0
31.669224 1.9764303 -2.0268879 0.019607844
35.732594 -3.0087929 -2.0807421 0.015686275
6.2007036 0.083831221 0.35770309 0
42.286236 0.57358223 -1.9629973 0.015686275
40.475262 -1.4265387 -2.1150694 0.039215688
6.9075856 0.093516022 0.84074795 0
47.9426 2.9940627 -1.9502916 0.039215688
11.018142 -0.92371809 -0.3829526 0
13.324443 -0.46731123 2.4204333 0
76.436172 1.037475 -1.7698339 0.05882353
4.9985542 -0.1911377 -2.298835 0
7.1183515 0.41636878 -0.12287206 0
8.1451511 0.081469581 -2.2595925 0
11.242152 -0.43338397 -2.2347453 0
129.19348 -11.346516 -1.4919987 0.082352944
14.01943 0.14074656 -2.1688073 0
17.125402 -0.66164821 -2.1705883 0.0039215689
10.075986 -0.38772696 -0.057343312 0
19.562183 0.19667532 -2.0976777 0.0039215689
23.05109 -2.019268 -2.1506379 0.0078431377
129.30867 -11.35609 1.5273881 0.062745102
29.430735 0.29623795 -2.0500739 0.0039215689
26.010057 -1.0063723 -2.1162112 0.0078431377
31.679947 1.8657433 -2.0262823 0.019607844
16.665337 -0.6432628 0.6782276 0.0039215689
42.303967 0.42611936 -1.9628427 0.015686275
40.533909 -1.5699134 -2.1174507 0.039215688
47.825111 2.8187318 -1.9442168 0.039215688
58.367596 -5.1227202 -2.0361195 0.050980393
13.311003 -0.5127849 2.4169915 0
76.847214 0.77462554 -1.7781055 0.05882353
4.9869909 -0.20787305 -2.293762 0
8.1569424 0.053363957 -2.2628207 0
11.220976 -0.47154304 -2.230818 0
129.27258 -11.808086 -1.4932975 0.082352944
14.015883 0.092033923 -2.1681833 0
17.138849 -0.72184306 -2.1725957 0.0039215689
19.538889 0.12848353 -2.0950973 0.0039215689
23.00424 -2.0958426 -2.1469107 0.0078431377
18.39427 0.12141929 0.42809644 0
129.33994 -11.813694 1.528318 0.062745102
29.45154 0.19388616 -2.0514469 0.0039215689
26.062153 -1.0992666 -2.1207438 0.0078431377
31.706194 1.756506 -2.0275373 0.019607844
35.885723 -3.2731316 -2.0899537 0.015686275
25.879053 -1.0909275 1.0552108 0.0078431377
42.437054 0.27956811 -1.968941 0.015686275
40.536171 -1.7114805 -2.117842 0.039215688
15.352365 0.1016314 1.8776751 0
21.465111 -0.90409875 1.7503238 0.0039215689
47.714939 2.6453793 -1.9393116 0.039215688
59.145557 -5.3989525 -2.063894 0.050980393
52.880379 0.34860715 -1.2230957 0.031372551
4.9970994 -0.22552697 -2.2988286 0
14.434587 -0.65736437 -0.4170264 0
8.1031494 0.024977082 -2.2477252 0.0078431377
11.234937 -0.51117605 -2.2339468 0
17.152081 -0.78213984 -2.1746025 0.0039215689
20.375864 1.0567572 0.11995159 0.0039215689
19.555124 0.060579404 -2.0967956 0.0039215689
22.965065 -2.1728671 -2.1439264 0.0078431377
29.471989 0.091392621 -2.05282 0.0039215689
26.129845 -1.193267 -2.1265757 0.0078431377
31.728077 1.6469002 -2.0285373 0.019607844
35.909859 -3.4015212 -2.0920191 0.015686275
42.489708 0.13184525 -1.9713259 0.015686275
40.55389 -1.8538133 -2.1190686 0.039215688
47.691952 2.4773967 -1.9379795 0.039215688
10.192037 -0.96018308 -0.35402843 0
4.9781771 -0.24182355 -2.2903752 0
8.1340046 -0.0030707205 -2.2563426 0
11.229166 -0.54994565 -2.2331555 0
17.149244 -0.84175587 -2.1745915 0.0039215689
18.941143 0.91608459 0.11144011 0
21.513296 -1.0564927 -0.12244606 0.0039215689
19.583059 -0.0074412995 -2.0997779 0.0039215689
22.945452 -2.2515953 -2.1427984 0.0078431377
29.47213 -0.011233326 -2.0528002 0.0039215689
7.8842459 -0.3847658 -0.63796216 0
6.8777404 0.33062518 -0.43637213 0
35.88982 -3.5258157 -2.0915325 0.015686275
42.477928 -0.016216584 -1.9707407 0.015686275
40.555153 -1.9955037 -2.1194599 0.039215688
4.2125187 -0.0010322111 0.5085181 0
10.197559 -0.49852368 0.82852077 0
47.520672 2.3024414 -1.9306388 0.039215688
59.898121 -5.8891673 -2.091491 0.078431375
52.873528 -0.020068634 -1.2228395 0.24313726
4.977303 -0.258948 -2.2903721 0
8.153204 -0.031288218 -2.2617264 0
11.22326 -0.5886814 -2.2323644 0
168.98239 -0.65407157 0.019653542 0.4627451
14.004224 -0.053942904 -2.166312 0
17.162052 -0.90219879 -2.1765988 0.0039215689
6.5290208 0.29120839 0.03786464 0
19.590868 -0.075578809 -2.100621 0.0039215689
22.917641 -2.3294046 -2.1409278 0.0078431377
7.2176685 -0.027197396 0.16672385 0
29.491858 -0.11393671 -2.0541732 0.0039215689
8.3876972 0.374935 0.24276569 0
31.766716 1.4271166 -2.0302813 0.019607844
35.889206 -3.6520374 -2.0922062 0.015686275
168.20903 -8.8747711 6.8808079 0.24705882
42.489594 -0.16428766 -1.971269 0.015686275
40.583836 -2.1386998 -2.1213129 0.039215688
24.79347 -0.094753966 3.0380485 0.0039215689
10.100205 -0.52882403 0.82070404 0
47.544388 2.1375191 -1.9312555 0.039215688
61.177658 -6.2305732 -2.1369231 0.078431375
52.877132 -0.20439638 -1.2228967 0.20784314
4.9872284 -0.27668157 -2.295439 0
4.1634769 -0.22990531 -0.11915385 0
8.1453419 -0.059439726 -2.2595654 0
11.228971 -0.62804443 -2.2339251 0
168.99509 -1.2437937 0.01976837 0.090196081
130.76573 -13.787101 -1.5122981 0.082352944
14.00395 -0.10257533 -2.1663027 0
17.178608 -0.96296471 -2.1791105 0.0039215689
19.546738 -0.14338902 -2.0959008 0.0039215689
22.933134 -2.4116445 -2.1431408 0.0078431377
15.858974 -1.6649523 0.18658748 0
29.51123 -0.21677794 -2.0555463 0.0039215689
26.1199 -1.4662983 -2.1268499 0.0078431377
8.9562225 0.36946476 0.25935733 0
31.803411 1.3177969 -2.0323024 0.019607844
35.999352 -3.7900295 -2.099376 0.015686275
16.998421 -0.12402872 0.9874174 0
42.528721 -0.31264666 -1.9730972 0.015686275
40.56815 -2.2796507 -2.1208692 0.039215688
3.5306408 -0.19420573 0.28285873 0
47.567535 1.9724596 -1.9318725 0.039215688
60.531384 -6.3779869 -2.1150541 0.078431375
6.0832453 -0.043510199 1.6111981 0
52.860096 -0.38860208 -1.222491 0.20784314
4.9934702 -0.29427087 -2.2988157 0
10.938185 0.41369078 -0.18901905 0
3.987035 -0.23368493 -0.11405402 0
8.1412334 -0.087578811 -2.258482 0
11.218879 -0.66651738 -2.2323499 0
14.02327 -0.15142176 -2.1693656 0
17.167217 -1.0221982 -2.1780901 0.0039215689
19.522257 -0.21110851 -2.0933201 0.0039215689
22.928534 -2.4918616 -2.1434977 0.0078431377
3.2048914 -0.3411265 0.036718279 0
29.518272 -0.31962588 -2.0560837 0.0039215689
26.106663 -1.5567378 -2.1261833 0.0078431377
20.899723 0.79269671 0.6084922 0.0039215689
31.815794 1.2073283 -2.0327914 0.019607844
36.081173 -3.9258044 -2.1049213 0.015686275
42.487411 -0.46041277 -1.9712123 0.015686275
40.571907 -2.4217107 -2.1214693 0.039215688
47.673977 1.8104528 -1.9358995 0.039215688
60.397476 -6.576858 -2.1111228 0.078431375
4.9997587 -0.31018701 -2.3021929 0
8.1409187 -0.11292872 -2.2584772 0
11.228475 -0.70227283 -2.2346954 0
13.120919 -1.463739 -0.15145895 0
14.030629 -0.19536115 -2.1705861 0
17.167887 -1.0761491 -2.1785851 0.0039215689
19.509569 -0.27204505 -2.0920246 0.0039215689
22.892891 -2.5605464 -2.1408863 0.0078431377
29.553038 -0.41263571 -2.058573 0.0039215689
26.113583 -1.6392721 -2.1271429 0.0078431377
7.6558232 0.26508138 0.2212898 0
31.83938 1.1082923 -2.0340488 0.019607844
36.20359 -4.0540514 -2.1127892 0.015686275
5.2064362 -0.071362026 0.29927716 0
42.545692 -0.59450185 -1.9739717 0.015686275
40.552139 -2.5481796 -2.1208193 0.039215688
47.679424 1.6608984 -1.9358701 0.039215688
60.026928 -6.7271161 -2.0988531 0.078431375
52.844368 -0.73852825 -1.2221466 0.34509805
4.9914103 -0.32690492 -2.2988098 0
9.9972944 0.31200233 -0.1726355 0
70.750038 -4.6968741 -2.0526364 0.070588239
8.1443272 -0.14116156 -2.2595499 0
11.214213 -0.74043143 -2.2323363 0
8.9200163 -1.0236613 -0.10286743 0
14.018007 -0.24387717 -2.1687336 0
17.171942 -1.1363449 -2.1795828 0.0039215689
19.516455 -0.34003264 -2.0928679 0.0039215689
22.911507 -2.6433964 -2.1434705 0.0078431377
29.555407 -0.51561117 -2.0588322 0.0039215689
1.7026565 -0.1079504 -0.13363431 0.019607844
9.7587671 0.30460393 0.2827369 0
31.863005 0.99802256 -2.0353038 0.019607844
36.415325 -4.2063217 -2.1259909 0.015686275
42.587296 -0.74352819 -1.9759854 0.015686275
40.542995 -2.6894665 -2.1207933 0.039215688
7.1285148 -0.46839675 0.57787555 0
47.73687 1.4963369 -1.9379483 0.039215688
59.451103 -6.8724675 -2.079489 0.050980393
52.861458 -0.92308384 -1.2225744 0.27843139
4.9902391 -0.34407502 -2.2988067 0
8.1437845 -0.1693386 -2.2595444 0.0039215689
11.215473 -0.77959454 -2.2331131 0
13.99336 -0.29205844 -2.1650376 0
17.179747 -1.1968591 -2.1810853 0.0039215689
7.7328248 -0.5355379 -0.044038102 0
19.519123 -0.40798819 -2.0932827 0.0039215689
22.890278 -2.7216904 -2.1423426 0.0078431377
29.549437 -0.61844087 -2.0585339 0.0039215689
26.109457 -1.8215922 -2.1277595 0.0078431377
5.4912529 0.15168361 0.1579878 0
31.890236 0.88771236 -2.0368147 0.019607844
36.491619 -4.3440375 -2.131304 0.015686275
42.576454 -0.8917625 -1.9755861 0.015686275
40.597118 -2.8351815 -2.1241083 0.039215688
7.7085195 -0.15959908 0.93842888 0
47.789734 1.331283 -1.9398644 0.039215688
61.506733 -7.3278093 -2.1523082 0.078431375
16.849037 -1.1727568 3.0682859 0.0039215689
52.853912 -1.1072646 -1.2224468 0.27843139
4.988945 -0.3620992 -2.2988033 0
23.426594 -1.7196681 -0.67885566 0.0039215689
8.1431103 -0.19892228 -2.2595389 0
11.216455 -0.82072079 -2.2338896 0
6.9335914 -0.16868059 0.00043256296 0
88.31678 -10.853655 -1.0229865 0.082352944
14.019855 -0.34376371 -2.1693292 0
17.183159 -1.2601376 -2.1820834 0.0039215689
167.85457 -12.356317 -0.95602721 0.16862746
19.533401 -0.47965539 -2.094981 0.0039215689
22.955252 -2.8145444 -2.1493809 0.0078431377
88.40387 -10.863997 1.0482075 0.062745102
29.546972 -0.72647738 -2.0585134 0.0039215689
26.074774 -1.9149624 -2.1254673 0.0078431377
18.606325 0.44965276 0.54126281 0.0039215689
168.09462 -12.373278 2.9626014 0.10980392
31.921211 0.77176291 -2.0385795 0.019607844
8.5652294 -1.0443133 -0.49757433 0
32.546547 -0.79966688 1.895421 0.0078431377
168.14787 -12.376479 6.8879876 0.24705882
42.608849 -1.04843 -1.9772271 0.015686275
40.642223 -2.987803 -2.1270044 0.039215688
13.327873 -0.32598776 1.6293923 0
21.028812 -1.5426403 1.7178491 0.0039215689
47.802288 1.1565728 -1.9401549 0.039215688
60.967628 -7.4899721 -2.1343324 0.078431375
7.3867846 -0.53802407 1.3379314 0
52.889477 -1.3016992 -1.2233357 0.082352944
4.9841027 -0.378124 -2.2971103 0
8.1501064 -0.22590193 -2.2616894 0
11.221491 -0.85827518 -2.2354505 0
119.12495 -15.043978 -1.3804893 0.082352944
14.002835 -0.38957235 -2.1668627 0
17.174931 -1.316569 -2.1815684 0.0039215689
19.519777 -0.54385555 -2.0936849 0.0039215689
22.850962 -2.8784277 -2.1404581 0.0078431377
6.8032026 -0.18777505 0.15712138 0
2.5398755 -0.31142783 0.028904393 0
29.576311 -0.82510906 -2.0607233 0.0039215689
26.060328 -2.0005682 -2.1248016 0.0078431377
31.935566 0.66639251 -2.039325 0.019607844
36.904121 -4.6542611 -2.1572421 0.015686275
42.716976 -1.1926107 -1.9823982 0.015686275
40.663952 -3.1247756 -2.1286504 0.039215688
47.833832 0.99887127 -1.9412609 0.039215688
8.4519186 -1.0585619 -0.29418778 0
5.2663031 -0.39925364 0.95021766 0
4.9942822 -0.39643458 -2.2987683 0
74.255432 -5.9839268 -2.1551812 0.074509807
8.1456614 -0.25517118 -2.2583833 0
11.237983 -0.90012175 -2.2376735 0
114.86867 -14.933194 -1.3298308 0.082352944
14.021149 -0.44105422 -2.1685483 0
17.181925 -1.3796273 -2.1818521 0.0039215689
19.557432 -0.61620861 -2.0968704 0.0039215689
22.769243 -2.9517043 -2.1327033 0.0078431377
114.14249 -14.838192 1.3567692 0.062745102
29.604998 -0.93410861 -2.0620112 0.0039215689
26.084639 -2.097827 -2.1263924 0.0078431377
8.1709747 0.14006834 0.23609401 0
31.985695 0.55017227 -2.0414937 0.019607844
37.0215 -4.8058529 -2.1640992 0.015686275
42.776211 -1.3508327 -1.9844236 0.015686275
40.89114 -3.2923181 -2.1401737 0.039215688
47.96904 0.82576555 -1.9456947 0.039215688
60.676033 -7.8831749 -2.1247189 0.078431375
52.959015 -1.6728598 -1.2242478 0.031372551
4.9893284 -0.41242513 -2.297075 0
8.1640167 -0.28259075 -2.2637665 0.0039215689
11.234936 -0.93711817 -2.2376661 0
110.38213 -14.721639 -1.2783588 0.082352944
13.988008 -0.48617676 -2.1636238 0
17.181206 -1.4366641 -2.1823449 0.0039215689
9.3265724 0.12928165 0.054479457 0
19.575155 -0.68149024 -2.0989959 0.0039215689
22.763277 -3.0274556 -2.1330595 0.0078431377
112.11035 -14.95179 1.3332448 0.062745102
29.645605 -1.0335463 -2.0650539 0.0039215689
26.04973 -2.1817133 -2.1241009 0.0078431377
32.047215 0.44519883 -2.0453007 0.019607844
37.187431 -4.9526324 -2.1747437 0.015686275
9.8450356 -0.34076717 0.56996393 0
6.5514116 -0.54313982 0.26510784 0
42.875324 -1.496042 -1.989219 0.015686275
41.090965 -3.4453607 -2.1512098 0.039215688
9.4275274 -0.32605004 1.1493381 0
48.087406 0.6685679 -1.9503676 0.039215688
59.78178 -7.9682498 -2.0942461 0.078431375
4.9913955 -0.43073326 -2.2987614 0
2.2424202 -0.18918538 -0.063314781 0
8.1513796 -0.31177175 -2.2605271 0.0039215689
11.219706 -0.97696847 -2.2353063 0
108.4254 -14.864852 -1.2562339 0.082352944
14.017729 -0.53837079 -2.1685278 0
17.187685 -1.5003742 -2.1838455 0.0039215689
19.616241 -0.75462896 -2.1036873 0.0039215689
22.720461 -3.1062422 -2.130074 0.0078431377
29.63364 -1.1415948 -2.0644743 0.0039215689
26.009787 -2.2740958 -2.1214826 0.0078431377
129.25974 -11.328645 2.2824125 0.10980392
32.080563 0.32835683 -2.047318 0.019607844
37.299583 -5.1065187 -2.1823704 0.015686275
129.29933 -11.331508 5.3036933 0.24705882
42.833611 -1.6514963 -1.9875158 0.015686275
129.32652 -11.332821 10.610618 0.16862746
48.05756 0.49227926 -1.9490312 0.039215688
2.352948 -0.3114036 -0.080218799 0
4.9863296 -0.44668889 -2.2970681 0.0039215689
75.910049 -6.9040394 -2.2050359 0.078431375
8.1503019 -0.33853599 -2.2605217 0
11.232028 -1.0153271 -2.2384343 0
13.763597 -0.57355291 0.001462808 0
104.81475 -14.723476 -1.2148763 0.082352944
14.019817 -0.58475322 -2.1691327 0
17.154953 -1.5545782 -2.1803029 0.0039215689
129.15169 -11.751219 -0.73428923 0.16862746
19.64542 -0.8207441 -2.1070964 0.0039215689
22.717924 -3.1824131 -2.1308017 0.0078431377
113.58755 -15.956263 1.3522787 0.062745102
29.689493 -1.2421024 -2.0686312 0.0039215689
26.045776 -2.3640473 -2.1250389 0.0078431377
10.155087 0.070521481 0.29408464 0
37.440624 -5.2521548 -2.1916232 0.015686275
42.939686 -1.7979546 -1.9926821 0.015686275
41.177299 -3.7417283 -2.1569967 0.039215688
48.214794 0.33425725 -1.9553273 0.039215688
58.521271 -8.215662 -2.0519209 0.050980393
27.228226 -1.1369022 7.2844467 0.0039215689
4.9847407 -0.46381265 -2.2970648 0
75.332184 -7.1163659 -2.1888921 0.078431375
8.1567678 -0.36705497 -2.2626715 0
11.232323 -1.0546186 -2.2392104 0
14.524722 -0.6560024 0.0015802258 0
101.99551 -14.6901 -1.1827047 0.082352944
14.017691 -0.63340884 -2.1691225 0
17.145473 -1.613798 -2.1797864 0.0039215689
19.666273 -0.89011914 -2.1096494 0.0039215689
22.718506 -3.2631199 -2.1318998 0.0078431377
109.66341 -15.794883 1.3062363 0.062745102
29.684977 -1.3454511 -2.0686097 0.0039215689
26.053244 -2.456172 -2.1263199 0.0078431377
32.133953 0.11070787 -2.0505905 0.019607844
37.611778 -5.409883 -2.2027297 0.015686275
7.2081285 -0.32338428 0.41612744 0
43.004993 -1.9508179 -1.9959912 0.015686275
41.422482 -3.9096096 -2.1705363 0.039215688
8.9162979 0.030935094 -0.35931715 0
57.340839 -8.2536373 -2.0114448 0.050980393
6.559269 -0.6120109 1.1872306 0
23.301439 -1.0550077 -0.53809816 0.0039215689
4.9866982 -0.48128498 -2.2987511 0
75.06813 -7.3555818 -2.1818941 0.078431375
8.1438942 -0.39468053 -2.2594321 0.0039215689
11.209053 -1.0916258 -2.2352831 0
103.13065 -15.2211 -1.1964116 0.082352944
14.019342 -0.68225032 -2.1697268 0
17.151583 -1.6745206 -2.181288 0.0039215689
169.00066 -0.0058989245 1.0034713 0.10980392
165.01338 -16.178104 -0.93856752 0.16862746
19.643183 -0.95751035 -2.107496 0.0039215689
22.738493 -3.3467793 -2.1348536 0.0078431377
109.6353 -16.181396 1.3066412 0.062745102
29.692057 -1.4493694 -2.0694234 0.0039215689
26.096092 -2.5518813 -2.1305249 0.0078431377
32.098209 -0.0011805824 -2.0482686 0.019607844
37.568962 -5.5373597 -2.201313 0.015686275
42.942047 -2.0979075 -1.9933624 0.015686275
41.639153 -4.0765181 -2.1826141 0.039215688
48.371826 -0.0018003965 -1.9615852 0.039215688
56.813389 -8.3798599 -1.9938974 0.047058824
12.501939 -1.2175403 2.277267 0
7.0574098 -0.3410655 -0.1620291 0
4.992116 -0.50000101 -2.3021274 0
52.823357 -0.19506785 -0.91414505 0.39215687
76.631767 -7.7923493 -2.2281406 0.078431375
8.1462402 -0.42443642 -2.2605038 0
11.19327 -1.1312166 -2.2329233 0
7.3296022 -0.38099602 0.00057793967 0
110.18459 -16.675621 -1.2788987 0.082352944
14.032536 -0.73416746 -2.1721735 0
17.149277 -1.7374821 -2.1817799 0.0039215689
168.98349 -0.62496716 1.0035081 0.023529412
19.651459 -1.029834 -2.1087649 0.0039215689
22.777264 -3.4375591 -2.139662 0.0078431377
13.93267 -0.72839659 0.32431737 0
109.85603 -16.625355 1.310071 0.062745102
29.730381 -1.5602009 -2.0724642 0.0039215689
26.082596 -2.6468143 -2.1301808 0.0078431377
7.571753 -0.76210088 0.13214259 0
32.113964 -0.11859304 -2.0492649 0.019607844
38.342003 -5.794929 -2.2479 0.015686275
4.7794027 -0.47784904 0.19272822 0
42.926094 -2.254571 -1.9929588 0.015686275
41.79879 -4.2466135 -2.1917679 0.039215688
7.0165157 -0.7054944 0.56983203 0
48.335526 -0.1786658 -1.9600868 0.039215688
56.173607 -8.4955521 -1.9724587 0.047058824
14.063311 -1.4224043 2.5645058 0
4.9868255 -0.51590818 -2.3004344 0
52.81842 -0.36994264 -0.91403854 0.35686275
22.578121 -2.3651974 -0.65537572 0.0039215689
8.1409416 -0.45096758 -2.2594204 0.0039215689
11.208963 -1.1701154 -2.2368355 0
109.40536 -16.928642 -1.2704256 0.082352944
14.010293 -0.77932757 -2.1690924 0
17.159206 -1.7957367 -2.1837864 0.0039215689
17.057766 -1.784654 -0.097067609 0
19.659847 -1.0953969 -2.1100347 0.0039215689
22.809036 -3.5195124 -2.1437299 0.0078431377
111.77264 -17.294708 1.3337008 0.062745102
29.705122 -1.6574022 -2.0710516 0.0039215689
26.097467 -2.7355299 -2.1321127 0.0078431377
32.12537 -0.22490533 -2.0500083 0.019607844
38.219978 -5.9058905 -2.2418461 0.015686275
6.8415322 -0.37772083 0.39492837 0
42.926361 -2.3970883 -1.9933007 0.015686275
42.062569 -4.4141779 -2.2063518 0.039215688
7.1132574 -0.73891467 0.57798827 0
6.5341539 -0.044858165 -0.26256719 0
55.374779 -8.5622263 -1.9453276 0.047058824
21.316729 -1.1877625 -0.49236211 0.0039215689
4.9776931 -0.53310406 -2.297051 0.0039215689
52.83271 -0.56340802 -0.91427463 0.035294119
75.776573 -8.2396173 -2.2047684 0.078431375
8.1430798 -0.48073912 -2.2604921 0
11.208499 -1.2113218 -2.2376111 0
23.685709 -1.40701 0.0029419472 0.0078431377
14.015234 -0.83085042 -2.1703105 0
19.691433 -1.1692847 -2.1138704 0.0039215689
22.823521 -3.6071627 -2.1463118 0.0078431377
7.4205828 -0.43715957 0.17172553 0
110.52737 -17.516636 1.3196622 0.062745102
29.72673 -1.7676357 -2.0729783 0.0039215689
26.103121 -2.8325965 -2.133393 0.0078431377
32.136303 -0.34248435 -2.0507491 0.019607844
37.835236 -5.9880891 -2.2204838 0.015686275
42.893356 -2.552685 -1.9921548 0.015686275
42.335999 -4.5995789 -2.2215583 0.039215688
48.265163 -0.5148198 -1.9572561 0.039215688
55.212734 -8.7441683 -1.9407034 0.047058824
10.07121 -0.59528744 -0.23192734 0
4.9794044 -0.55060232 -2.2987373 0
75.357956 -8.4600344 -2.1933727 0.078431375
8.1413527 -0.50888175 -2.2604864 0
11.200305 -1.2497222 -2.2368195 0
109.21431 -17.699633 -1.2694945 0.082352944
14.016193 -0.87973779 -2.1709149 0
17.157751 -1.9192362 -2.1852756 0.0039215689
21.369118 -0.30128878 0.12614936 0.0039215689
19.679293 -1.2372332 -2.1130004 0.0039215689
22.869759 -3.6960959 -2.1518636 0.0078431377
2.414345 -0.14686488 0.054319113 0
110.14573 -17.850197 1.3159117 0.062745102
29.716398 -1.8708601 -2.0726786 0.0039215689
26.085148 -2.9225259 -2.1327255 0.0078431377
7.3717852 -0.1028256 0.21276861 0
32.170834 -0.45488954 -2.0530229 0.019607844
37.668251 -6.0961866 -2.2118781 0.015686275
14.430591 -0.90528059 0.83905554 0
42.932034 -2.7051373 -1.9943506 0.015686275
42.577702 -4.7760525 -2.2350962 0.039215688
54.878036 -8.8872843 -1.9299678 0.047058824
6.5943856 -0.73140633 1.1958704 0
81.004837 -5.1086211 -1.8755777 0.10196079
4.9702501 -0.56686574 -2.2953539 0.0039215689
73.508919 -8.511878 -2.1403103 0.074509807
8.135684 -0.536762 -2.2594028 0.0039215689
11.191978 -1.2880803 -2.236028 0
109.24261 -18.09552 -1.2704772 0.082352944
14.032756 -0.9296937 -2.1739767 0
17.147003 -1.9783804 -2.1847594 0.0039215689
13.62128 -0.2387363 0.080089226 0
19.698664 -1.3072274 -2.1155534 0.0039215689
22.911726 -3.7847443 -2.1570437 0.0078431377
8.0557566 -0.53093523 0.18671726 0
109.11601 -18.074039 1.3044161 0.062745102
29.705706 -1.9740342 -2.0723791 0.0039215689
25.975782 -3.0018055 -2.1245863 0.0078431377
32.173042 -0.56697583 -2.0532548 0.019607844
37.67432 -6.2319298 -2.2134762 0.015686275
3.3308771 -0.21609396 0.18978412 0
17.409025 -2.0081792 0.71299636 0.0039215689
43.006054 -2.8602827 -1.9982164 0.015686275
42.862339 -4.9593301 -2.2509301 0.039215688
10.204808 -0.67391932 1.2470098 0
48.452206 -0.85459197 -1.9649749 0.039215688
53.986935 -8.9359884 -1.8996418 0.047058824
4.9648452 -0.58179718 -2.2936614 0
52.812302 -1.0971335 -0.9139539 0.39215687
70.932907 -8.4389143 -2.0659592 0.074509807
8.1301146 -0.56179881 -2.2583199 0.0039215689
11.203457 -1.3248396 -2.2391565 0
109.42185 -18.478367 -1.2731658 0.082352944
14.025823 -0.97324795 -2.1733534 0
17.168287 -2.0352743 -2.1882796 0.0039215689
19.702393 -1.369409 -2.1163962 0.0039215689
22.935068 -3.8624272 -2.1603701 0.0078431377
109.43335 -18.479813 1.3089679 0.062745102
29.687414 -2.066263 -2.0715246 0.0039215689
25.934551 -3.0793722 -2.1219714 0.0078431377
88.469131 -10.526858 1.5671377 0.10980392
32.195045 -0.66829497 -2.054765 0.019607844
37.575809 -6.3366957 -2.2088156 0.015686275
5.9690542 -0.70090222 0.24210627 0
43.012798 -2.996238 -1.9989311 0.015686275
43.207493 -5.1367044 -2.269897 0.039215688
88.742966 -10.558337 7.3027081 0.16862746
6.4050479 -0.13118389 -0.25735515 0
51.87344 -8.7528963 -1.8261107 0.043137256
4.9741707 -0.60100973 -2.2953146 0
52.823673 -1.2999763 -0.91337407 0.39215687
70.11425 -8.6135454 -2.0416989 0.070588239
8.1397362 -0.5930171 -2.2593174 0.0078431377
11.214066 -1.3685395 -2.2405846 0
14.759858 -1.0801103 0.0018719961 0
110.21325 -19.046398 -1.2812383 0.082352944
14.033919 -1.0271295 -2.1737962 0
17.215595 -2.106751 -2.1940947 0.0039215689
88.345001 -10.855693 -0.5020349 0.16078432
19.720848 -1.4459838 -2.1178482 0.0039215689
22.994766 -3.961781 -2.1663213 0.0078431377
168.13821 -12.376195 3.9477007 0.074509807
109.33399 -18.893782 1.3104165 0.062745102
29.738985 -2.1838524 -2.0747297 0.0039215689
25.958223 -3.182127 -2.1238625 0.0078431377
88.447876 -10.867897 1.5687636 0.10980392
32.252117 -0.79300219 -2.0576632 0.019607844
37.645741 -6.495738 -2.2133021 0.015686275
14.555708 -1.0648842 0.84671527 0
88.554375 -10.880548 3.6462355 0.24705882
43.17234 -3.1732612 -2.0059154 0.015686275
43.472965 -5.3365712 -2.2838356 0.039215688
48.8526 -1.2023075 -1.9805107 0.039215688
52.517052 -9.0677176 -1.8488541 0.047058824
1.7396654 -0.20258352 0.30327964 0.0078431377
82.944954 -6.102664 -1.9203719 0.10196079
4.9864297 -0.61988443 -2.3020704 0
52.822811 -1.484164 -0.91340077 0.26666668
69.357849 -8.7660627 -2.0204782 0.070588239
8.1299362 -0.62052643 -2.2571559 0
13.219625 -2.3179464 -0.15330496 0
14.018425 -1.0748914 -2.1719422 0
17.168772 -2.1615419 -2.1890378 0.0039215689
5.4613781 -0.15070304 0.03155712 0
5.7820921 -0.72008437 -0.032868117 0
19.707752 -1.5138946 -2.1169775 0.0039215689
23.016094 -4.0479493 -2.1696441 0.0078431377
108.73563 -19.181131 1.3041114 0.062745102
29.727203 -2.287034 -2.0744283 0.0039215689
25.935093 -3.2709103 -2.1228688 0.0078431377
9.1856194 -1.1507607 0.16115791 0
5.9892063 -0.16565613 -0.37798092 0
37.190266 -6.5504241 -2.1877742 0.015686275
10.530722 -0.80514073 0.61119199 0
43.575325 -3.3556106 -2.0251715 0.015686275
43.683918 -5.5170712 -2.2959049 0.039215688
15.057827 -1.8936594 1.2339641 0
48.848103 -1.3725209 -1.9804714 0.039215688
51.280453 -9.0379868 -1.8063227 0.043137256
4.9700766 -0.63340306 -2.2953076 0
68.695564 -8.9013224 -2.001924 0.070588239
8.1279459 -0.64578795 -2.2571502 0
11.189185 -1.4402808 -2.2374337 0
110.87183 -19.91791 -1.2902516 0.082352944
14.030738 -1.1199164 -2.1743896 0
17.161898 -2.2151923 -2.1890261 0.0039215689
19.70686 -1.5758431 -2.1173911 0.0039215689
23.073824 -4.132647 -2.1763077 0.0078431377
112.90274 -20.282499 1.3549813 0.062745102
29.692024 -2.3779001 -2.0724585 0.0039215689
25.987946 -3.3603036 -2.1280475 0.0078431377
18.954294 -0.58973771 0.55170763 0.0039215689
114.10614 -14.792191 2.0263119 0.10980392
32.298016 -1.007928 -2.0609317 0.019607844
38.207088 -6.8535151 -2.248951 0.015686275
16.868813 -2.1765437 0.69185233 0.0039215689
43.644218 -3.4986126 -2.0288506 0.015686275
43.951591 -5.6910133 -2.3108981 0.039215688
10.961318 -0.33982849 -0.44207078 0
50.571136 -9.0763826 -1.7822654 0.043137256
22.90181 -1.830637 6.1361995 0.0039215689
6.6161761 -0.84621841 1.2009786 0
