# .PCD v0.7 - Point Cloud Data file format
VERSION 0.7
FIELDS x y z intensity
SIZE 4 4 4 4
TYPE F F F F
COUNT 1 1 1 1
WIDTH 1202
HEIGHT 1
VIEWPOINT 0 0 0 1 0 0 0
POINTS 1202
DATA ascii
8.8771162 2.731519 0.37816751 0
2.0587182 0.74430621 -0.10187077 0
8.3416386 2.5666866 -0.4572897 0
7.6300044 2.7621865 0.99583799 0
12.497673 3.8460414 1.0670795 0
53.189812 22.259247 -2.3491807 0.074509807
89.354378 22.791977 -3.2204905 0.23529412
26.77429 8.2408304 5.1068439 0.0039215689
98.74984 35.765282 -2.4442058 0.10196079
4.8040996 1.4594016 -2.3396854 0
53.210896 22.050106 -1.0055373 0.098039217
7.8654017 2.816462 -2.337837 0.011764706
7.9829407 2.0057325 -0.095866568 0
9.5961599 3.4365013 -1.585322 0.54509807
10.64888 3.2362986 -1.4163153 0
3.9206254 1.6232392 0.024576962 0
6.3029456 1.9150591 -0.038341526 0
11.976993 4.2894344 -1.3700778 0
9.4282827 2.3690524 -0.90722328 0
96.444778 24.242344 1.157271 0.062745102
42.279049 15.145166 -3.1403461 0.027450981
11.439178 3.4765584 -0.97581649 0
7.2285762 2.9941177 0.22752917 0
5.1082358 1.5518481 0.09305428 0
5.8941855 1.4806845 -0.3537938 0
8.8636551 2.6935513 0.37719041 0
2.050019 0.73308498 -0.1013124 0
53.178577 22.03672 -2.345274 0.070588239
50.838337 12.778288 -1.8306513 0.043137256
14.954488 4.5452423 2.8489895 0
4.7853603 1.4336696 -2.3278525 0.0039215689
53.380295 21.880518 -1.0071446 0.098039217
7.868896 2.7836823 -2.3356805 0.0078431377
53.869576 19.064384 -0.00022675993 0.05882353
96.630325 23.894888 -1.1592143 0.082352944
9.6018343 3.3970046 -1.5840926 0.16862746
10.790456 3.234143 -1.4334885 0.0078431377
88.414169 36.241848 0.55502677 0.10980392
6.0995245 1.8276746 -0.037062328 0
10.205052 3.6104949 -1.1657312 0
28.343136 7.0080957 -2.72528 0.0078431377
53.953022 19.093908 1.3314483 0.031372551
96.92543 23.96785 1.1619238 0.062745102
25.187714 8.9132156 -1.8682132 0.0039215689
11.593738 3.4749849 -0.98785919 0
21.74029 6.51717 0.39597026 0.0078431377
49.652069 20.352234 -3.4390688 0.082352944
49.362732 12.206053 -2.9613748 0.043137256
6.2209101 1.8640671 0.26435879 0
28.692854 8.601737 -1.5698137 0.0078431377
53.943424 19.090473 7.0252976 0.035294119
53.610424 21.974863 -2.3605824 0.074509807
53.824833 19.048557 -1.3287381 0.035294119
4.8007636 1.4200577 -2.3329239 0.0039215689
53.823215 21.842974 -1.0140581 0.098039217
8.2350092 2.4366667 -0.24991237 0
7.8785634 2.7562125 -2.3356805 0.0078431377
54.022621 18.906645 -0.00022828704 0.05882353
157.96191 38.477081 -1.8933461 0.082352944
10.873969 3.2178729 -1.4430853 0.0039215689
88.299217 35.835258 0.5535143 0.10980392
81.912773 24.247129 -0.49681675 0.16470589
4.240869 1.0321287 -0.40716505 0
6.2428303 2.1836886 0.15374161 0.0039215689
4.2279153 1.0289704 0.050545454 0
25.060486 8.7698936 -1.8564942 0.0039215689
11.720479 3.4684582 -0.99762356 0
10.458694 4.2432094 0.32828894 0
82.181633 24.32671 1.4956098 0.10980392
49.841167 20.226854 -3.447257 0.082352944
49.405037 12.033694 -2.961376 0.043137256
5.8495207 2.0460286 0.36062154 0
6.9018636 2.0420191 0.29301426 0
63.305706 22.15575 -3.1243577 0.039215688
18.204924 5.3880172 -0.99491966 0.0039215689
6.7638454 2.366039 0.87933326 0
5.3097196 1.5707035 0.4516629 0
60.445332 24.530611 -2.6577668 0.14901961
50.876263 12.392062 -1.8286991 0.13725491
28.711281 10.047606 8.1495476 0.011764706
105.37772 36.880978 -2.5982354 0.10196079
4.7987313 1.4012713 -2.3295429 0.0039215689
13.185334 5.2963243 -0.24805711 0
7.8990569 2.7324882 -2.3389156 0.011764706
10.75991 3.1433213 -2.2413204 0.0039215689
90.436989 31.2978 -0.00034739744 0.23137255
158.69031 38.06826 -1.9004761 0.082352944
9.6514597 3.3389671 -1.5883974 0.031372551
10.946073 3.1977196 -1.451167 0.0039215689
34.66209 13.925607 0.21692951 0.0078431377
10.63489 3.1067727 -0.064464189 0
10.181149 3.5222836 -1.1601624 0
28.329401 6.7952271 -2.7193325 0.0078431377
7.9497252 1.9062109 0.095046885 0
8.3108292 2.8749859 -0.61477518 0
11.870275 3.4677987 -1.0093406 0
81.386948 23.782824 1.4796245 0.10980392
34.63615 13.915202 -2.392169 0.019607844
49.322475 11.831378 -2.9539347 0.043137256
8.7623224 3.0312343 0.53968018 0
63.529926 21.98563 -3.1316187 0.039215688
27.007664 7.8914413 -1.4745574 0.0078431377
2.6600363 0.91931236 0.34507123 0
50.860889 12.200431 -1.8266059 0.043137256
15.648687 4.5719495 2.9716744 0.0039215689
105.44913 36.493328 -2.5968418 0.10196079
4.8068352 1.3863668 -2.3312335 0
7.9044318 2.7050416 -2.3378377 0.0078431377
10.834338 3.1261237 -2.2546568 0
10.988222 2.5966394 -0.13150023 0
9.647522 3.301832 -1.585938 0.027450981
11.090051 3.1999264 -1.4688452 0
34.745247 13.82538 0.2171611 0.031372551
82.056702 23.683485 -0.49670398 0.16470589
28.297522 6.6884236 -2.7141278 0.0078431377
36.07008 12.348316 0.88689828 0.0078431377
11.031042 2.60676 0.13182092 0
24.94972 8.5409698 -1.8439386 0.0039215689
12.034925 3.4726489 -1.0223598 0
81.496117 23.521667 1.4801812 0.10980392
49.260403 11.643868 -2.9478889 0.043137256
36.094387 12.35663 2.2214365 0.011764706
64.014534 21.915907 -3.1519089 0.039215688
8.9207916 3.0529978 1.1571882 0
11.036739 2.6081102 -0.39599574 0
7.5338454 2.5781317 2.1325905 0
15.395327 4.4425588 2.9207342 0.0039215689
105.78901 36.218563 -2.6022418 0.10196079
4.8223438 1.3717321 -2.3363051 0
79.029289 22.496254 -2.3915761 0.15294118
7.9069939 2.6735988 -2.3356812 0.0078431377
11.554944 3.2883036 -2.4021399 0.0078431377
99.907539 23.230127 -1.1945294 0.082352944
9.70823 3.2829311 -1.593932 0.011764706
11.239094 3.1983852 -1.4870286 0
4.28759 1.6866015 0.026690997 0
82.015991 23.346466 -0.49593827 0.16470589
10.179121 3.4422252 -1.1571641 0
28.290812 6.5774674 -2.7111545 0.0078431377
106.89272 24.854342 1.2771256 0.062745102
24.897701 8.4213562 -1.8378004 0.0039215689
12.147265 3.4569118 -1.0308224 0
0.9486962 0.37204379 0.029498976 0.0078431377
49.703369 11.556421 -2.9718449 0.043137256
6.9382443 1.9740497 0.29366508 0
35.922985 12.151081 -1.7664936 0.0078431377
26.228409 7.4654002 -1.4291281 0.0078431377
9.4245882 3.18696 1.221046 0
61.561665 24.236027 -2.6955502 0.14901961
11.797705 2.7423956 -0.42294124 0
4.82686 1.3556238 -2.3346863 0.0039215689
95.950394 37.426228 -1.7982877 0.24705882
79.107124 22.249084 -2.3920302 0.15294118
7.9263787 2.6512256 -2.3379185 0.011764706
11.576485 3.2541513 -2.4038048 0.0039215689
36.03783 12.062701 -0.00034626323 0.023529412
99.929138 22.903793 -1.1943152 0.082352944
9.7784348 3.2712708 -1.6032428 0.011764706
11.394138 3.2028496 -1.505812 0
81.834648 23.01626 -0.4947274 0.16470589
10.231319 3.4228876 -1.1615365 0
28.268465 6.4779434 -2.7068558 0.0078431377
106.35799 24.377367 1.2693081 0.062745102
24.893692 8.3317509 -1.835426 0.0039215689
12.338328 3.4684246 -1.0458926 0
1.024367 0.39668226 0.031652261 0.0078431377
171.85175 48.336113 3.11462 0.10980392
49.747414 19.403015 -3.4221387 0.078431375
50.428173 11.557338 -3.0130253 0.043137256
15.647082 4.3990846 0.66168058 0.0039215689
26.39773 7.4230404 -1.4370233 0.0078431377
25.028334 8.3767605 3.2395012 0.0039215689
8.9660015 3.494626 -0.39192963 0
96.562988 22.132238 -3.4600837 0.22745098
11.265793 3.1667027 2.1321485 0
4.8245764 1.3368523 -2.3313055 0.0039215689
59.322739 22.899952 -1.1103036 0.16862746
11.587774 3.2137446 -2.4038053 0.0039215689
87.503479 19.734379 -1.0449848 0.082352944
9.0655947 2.9974911 -1.4845607 0.015686275
11.516129 3.193851 -1.5204604 0
89.712631 34.632599 0.55821818 0.10980392
13.724798 3.8067725 -0.082945094 0
10.288513 3.402169 -1.166678 0
28.252056 6.3704848 -2.7031391 0.0078431377
37.057049 12.260251 0.90774566 0.011764706
87.550316 19.744921 1.0439839 0.062745102
24.926416 8.2460785 -1.8357064 0.0039215689
12.450241 3.4530754 -1.0543557 0
7.8922253 2.1881411 0.14266559 0
49.989868 19.296827 -3.4341662 0.082352944
50.931763 11.485805 -3.040705 0.043137256
15.672112 5.1836548 0.96070933 0
4.3470702 1.436044 -0.21306366 0
6.4276733 1.7817116 -0.34933996 0
59.401897 22.930532 -2.5943387 0.14901961
87.495087 19.732512 -3.1326606 0.23921569
8.2471056 2.2866082 1.5589067 0
66.608612 22.039335 -1.6329718 0.054901961
4.8327093 1.3209877 -2.3329964 0.0039215689
59.637676 22.7827 -1.1147059 0.16862746
44.791939 12.260203 -1.3517444 0.082352944
7.9410315 2.5946789 -2.3368406 0.0078431377
11.580005 3.1681263 -2.399883 0.0039215689
3.0907547 1.0083809 -0.00012902552 0
87.65773 19.447922 -1.0460135 0.082352944
9.9250031 3.2435212 -1.6235365 0.015686275
11.664985 3.1913795 -1.5386446 0
139.80899 38.272038 -0.84354007 0.16862746
10.360804 3.3860421 -1.173533 0
28.289671 6.2753105 -2.704627 0.0078431377
17.508625 3.8831689 0.20845805 0.0039215689
24.886778 8.1367235 -1.8306844 0.0039215689
26.28973 7.1950541 -2.2248027 0.0078431377
5.3410187 2.0377693 0.16602395 0
50.217262 19.183512 -3.4451702 0.082352944
52.983128 11.754319 -3.1607215 0.043137256
15.652157 5.1165342 0.95838338 0
4.9775119 1.360603 -0.27019778 0
35.9529 9.8403759 3.0420134 0.75686276
8.5608311 3.2679577 -0.37320253 0
87.547813 19.423557 -3.1321058 0.23921569
14.699761 4.0221252 2.7771332 0
109.79774 35.90659 -2.6887577 0.10196079
4.8337913 1.30319 -2.3313057 0
96.550293 36.500065 -1.8022817 0.24705882
44.822884 12.100663 -1.3513972 0.21960784
7.9243846 2.5586758 -2.3292928 0.0078431377
11.58342 3.1256633 -2.3983147 0.0039215689
81.672424 26.393044 -0.00065676105 0.24313726
187.47083 40.90844 -2.2353442 0.082352944
10.011484 3.2331898 -1.6358356 0.015686275
11.836947 3.1941082 -1.5598592 0.0039215689
87.576393 33.107265 0.54346204 0.10980392
13.480723 3.6379271 -0.081316993 0
10.436893 3.3706703 -1.1808164 0
28.264711 6.1663518 -2.7001669 0.0078431377
24.865671 8.0338707 -1.827058 0.0039215689
26.668787 7.1988721 -2.2547483 0.0078431377
14.197072 3.8313444 0.25633925 0
50.500492 19.089994 -3.460012 0.082352944
52.801456 11.520786 -3.1474662 0.043137256
16.809841 5.4302945 1.0281419 0
7.4235101 2.0024092 0.31279549 0
9.9193668 3.2034037 -0.48540157 0
5.9887552 1.6150177 -0.32484403 0
59.553059 22.512497 -2.5940189 0.14901961
8.7681465 2.3654587 1.6543264 0
110.38663 35.67313 -2.7001183 0.10196079
4.8350315 1.2845604 -2.3296154 0.0039215689
5.9637809 2.2269976 -0.11114278 0
7.9520564 2.5354986 -2.3346848 0.015686275
11.602379 3.0852337 -2.3998842 0.0039215689
10.098574 3.2205374 -1.6481349 0.015686275
11.986619 3.1874628 -1.5780433 0.0078431377
88.071808 32.926189 0.54578018 0.10980392
9.5434904 2.5373707 -0.057529766 0
10.517374 3.3541894 -1.1885284 0
28.252071 6.0552349 -2.6968217 0.0078431377
81.468407 25.997728 1.9890844 0.074509807
14.020094 3.0040877 0.16662256 0
24.887346 7.9402843 -1.826501 0.0039215689
12.008565 3.1932955 -1.0139972 0
50.824368 18.999872 -3.4774125 0.082352944
52.956558 11.351496 -3.1542139 0.043137256
16.091614 5.1331453 0.98303008 0
3.726855 0.98966318 0.15666898 0
18.980356 5.0483661 -1.0291716 0.0039215689
13.94881 4.4492717 1.7966391 0
15.833976 3.3929641 -0.56546384 0.0039215689
11.517347 3.6732671 3.2371225 0
8.6740818 2.3060153 1.6349549 0
6.5409422 2.0851221 -0.15973771 0
4.8390436 1.2693863 -2.3296156 0.0039215689
97.036522 35.93095 -1.80676 0.24705882
7.9526377 2.5082059 -2.3325284 0.023529412
11.604427 3.0467949 -2.3983157 0.0039215689
81.384834 25.689644 -0.00066080759 0.24313726
110.4576 23.316071 -1.3151566 0.082352944
10.15764 3.2042842 -1.6561295 0.015686275
12.130895 3.1850991 -1.5957224 0
88.088539 32.617386 0.54524231 0.10980392
10.653014 3.3606606 -1.2026665 0
28.255369 5.9631724 -2.6953356 0.0078431377
7.2071853 2.2728453 0.17552593 0
24.927391 7.8668799 -1.8276182 0.0039215689
27.54233 7.2340136 -2.3244047 0.0078431377
90.189987 33.395542 2.79807 0.24705882
7.4006467 2.7377844 -0.50541931 0
6.5909634 1.3897835 -0.39201692 0
1.9533461 0.61428559 0.11871452 0
14.806711 4.6719155 -0.7231164 0
11.678823 3.0663183 -0.63262147 0
64.371117 23.834606 -2.7967756 0.15294118
95.166939 20.08823 -3.3971312 0.23137255
11.160384 3.5207744 3.1335969 0
7.1360574 1.8728144 1.343671 0
117.7923 37.182987 -2.8750224 0.10196079
4.6855211 1.2116122 -2.2535436 0
7.9466348 2.4758718 -2.3282156 0.011764706
11.607397 3.0043311 -2.3967471 0.0039215689
80.706459 25.166088 -0.00065923261 0.24313726
110.56573 22.936104 -1.3154873 0.082352944
10.221587 3.1853099 -1.664739 0.015686275
12.291747 3.1815631 -1.6154219 0
88.288246 32.341396 0.54577231 0.10980392
10.789968 3.362555 -1.2168046 0
28.260412 5.8613038 -2.6938496 0.0078431377
81.261093 25.339025 1.9798677 0.074509807
6.9942122 1.4494491 0.082907498 0
24.901369 7.7632203 -1.8237126 0.0039215689
28.034399 7.2588081 -2.3637898 0.0078431377
8.3345098 3.0505855 0.2579304 0
9.3629694 3.4273713 -0.63871944 0
52.917286 10.976549 -3.1474729 0.043137256
21.973171 6.8500175 1.3397298 0.0039215689
9.1545992 2.8525529 -0.44649741 0
64.675339 23.690922 -2.8063872 0.15294118
15.433395 3.2002244 -0.55038518 0.0039215689
13.621781 4.2455945 3.8210032 0
52.433044 13.577734 9.8734035 0.043137256
4.844276 1.2347277 -2.3279259 0
104.3728 37.821251 -1.938405 0.24705882
8.8054829 2.2458847 -0.26443177 0
7.9515471 2.4470069 -2.3271375 0.0078431377
11.625416 2.9657581 -2.3983169 0.0039215689
81.803032 25.19508 -0.00066978158 0.24313726
1.7789174 0.36105534 -0.021169484 0.043137256
10.296861 3.1694136 -1.6751934 0.011764706
12.445032 3.1749735 -1.6341112 0
89.036156 32.263332 0.54969305 0.10980392
95.534477 24.385302 -0.5738216 0.15294118
10.896661 3.3541615 -1.2275156 0
28.284605 5.763433 -2.6942225 0.0078431377
81.112106 24.982233 1.9740963 0.074509807
24.916878 7.6727452 -1.8228767 0.0039215689
28.438128 7.2575583 -2.3956885 0.0078431377
53.796181 19.492609 1.6645769 0.062745102
96.711227 24.685663 1.7412772 0.10980392
9.2772989 3.3593292 -0.63206768 0
6.9470916 1.771492 -0.37551317 0
11.511683 3.5435688 1.4778441 0
9.1195307 3.3021517 -0.39502683 0
98.211304 20.015789 -3.5007439 0.24705882
4.8591032 1.2204909 -2.3329976 0.0039215689
53.855873 19.301908 -0.99893844 0.098039217
89.500229 22.512529 -2.6864104 0.14901961
7.967411 2.4215059 -2.3292944 0.015686275
11.616676 2.9204042 -2.3943946 0.0039215689
2.1925893 0.6647321 -0.0001235176 0
130.37196 26.097103 -1.5489393 0.30588236
10.402392 3.1622374 -1.6905673 0.0039215689
12.640747 3.1780069 -1.6583565 0
96.472412 24.266405 -0.57894653 0.15294118
10.995813 3.3427548 -1.2373695 0
28.242067 5.6521907 -2.6882749 0.0078431377
82.20118 25.003918 1.9984657 0.074509807
24.947325 7.586915 -1.8231568 0.0039215689
34.034595 8.5597858 -2.8647158 0.011764706
96.408943 24.25041 1.7342949 0.10980392
6.459425 2.3127038 -0.43940997 0
15.514359 4.7173023 0.94372976 0
6.8562317 1.7228497 0.28755987 0
7.3508644 2.233923 -0.35770428 0
5.4265213 1.3631877 1.0186665 0
14.641179 4.4516912 -0.35613549 0
4.867063 1.2035706 -2.3346882 0
50.884171 12.600284 -1.5258789 0.039215688
7.9688544 2.3900974 -2.3271382 0.0078431377
11.642533 2.8816032 -2.3975332 0.0039215689
130.45105 25.616005 -1.5487585 0.39607844
10.557766 3.1672993 -1.7139353 0.0039215689
12.829487 3.1755581 -1.6815919 0
53.87326 19.0856 0.33168557 0.078431375
4.5734339 1.1308213 -0.027481716 0
11.156545 3.3470514 -1.2540781 0
9.7462978 1.912484 -0.92665243 0
81.909271 24.58749 1.9891591 0.074509807
25.020826 7.5092163 -1.8265065 0.0039215689
33.910957 8.3966665 -2.8516982 0.011764706
96.691292 23.944962 1.7377796 0.10980392
42.627823 8.3696442 -2.5299604 0.027450981
8.5822334 2.5742023 0.52122289 0
8.4142933 2.0820546 0.35267961 0
12.330194 3.6993811 -0.59951484 0
13.529276 4.0593243 1.7332674 0
53.882236 19.088816 -2.3290732 0.070588239
4.8675051 1.1865902 -2.332998 0.0039215689
7.9841228 2.3658757 -2.3292952 0.0078431377
11.640594 2.8402157 -2.39518 0.0039215689
10.685678 3.1671388 -1.7329987 0.0078431377
6.4967427 1.5843345 -0.038980618 0
11.278153 3.3428593 -1.2665026 0
28.319944 5.4624829 -2.6919951 0.0078431377
82.13604 24.358986 1.9926907 0.074509807
13.010761 2.5087821 0.15396218 0
25.034113 7.4228287 -1.8256704 0.0039215689
33.919247 8.2794724 -2.8500719 0.011764706
25.540241 8.9515581 -1.7342901 0.0078431377
42.678867 8.2328119 -2.5313575 0.027450981
5.7883368 1.7145804 0.35101095 0
7.9397025 1.9366235 0.33249205 0
28.661276 8.4986258 -1.3925196 0.0039215689
19.01993 5.6389914 2.4347086 0.0039215689
16.231386 3.960995 1.3631133 0
67.130775 23.532793 -2.8984115 0.15686275
9.834753 2.9147015 2.7464108 0
82.047813 24.33287 -1.9919124 0.10196079
4.8718224 1.168768 -2.3329983 0.0039215689
105.42233 36.524082 -1.9481317 0.24705882
50.904808 12.228913 -1.5239047 0.078431375
7.9853463 2.3344584 -2.3271389 0.0078431377
11.650927 2.7975562 -2.3951807 0.0039215689
2.8022692 0.81779557 -0.00012804178 0
96.258591 23.125868 -0.57616585 0.15294118
11.370487 3.3249795 -1.2755001 0
28.241943 5.3401647 -2.6827011 0.0078431377
8.343565 2.4392452 0.20194326 0
25.107109 7.3444934 -1.8290203 0.0039215689
33.875717 8.1374187 -2.8438892 0.011764706
22.815042 7.9023414 0.70222187 0.0039215689
25.41069 8.801712 -1.7232895 0.0078431377
20.400358 5.9672012 1.2371794 0.0039215689
9.6137924 2.8109381 -0.4664177 0
67.443161 23.365105 -2.9081857 0.15686275
14.677184 4.2924924 4.0953412 0
24.759438 5.9469976 4.6410542 0.0039215689
4.879385 1.152649 -2.333071 0
66.192574 22.68507 -1.2219898 0.17647059
7.9930563 2.3069432 -2.3261433 0.019607844
11.648583 2.755343 -2.3921411 0.0039215689
6.9952993 1.2969788 -0.082945362 0
10.961847 3.1649652 -1.7736783 0.011764706
13.618159 3.2216539 -1.7801939 0
36.052082 12.353762 0.22091873 0.011764706
6.2466922 1.4763346 -0.037476119 0
11.46922 3.3115954 -1.2850201 0
28.247541 5.2436514 -2.6813829 0.0078431377
1.7399471 0.49964029 0.041692708 0.011764706
5.4583936 1.5743446 -0.39671606 0
33.894569 8.0223694 -2.843096 0.011764706
106.55308 25.225101 1.9097377 0.10980392
25.349045 8.6851101 -1.7170311 0.0078431377
19.679533 5.6844721 1.1919445 0.0039215689
8.8279314 2.0874677 0.36887106 0
15.822217 4.5696783 -0.76697654 0
13.795017 3.2634737 1.156033 0
35.96608 12.324317 -1.5490195 0.019607844
4.8765149 1.1331546 -2.32969 0.0039215689
8.0051613 2.2787297 -2.3272219 0.015686275
11.650963 2.7108943 -2.390573 0.0039215689
129.62305 23.578403 -1.5354261 0.082352944
11.091207 3.1583984 -1.7927426 0.0078431377
10.700924 2.4895923 -0.064076059 0
11.550124 3.2892039 -1.2927327 0
28.270485 5.1408439 -2.6817563 0.0078431377
25.430096 7.245707 -1.8487004 0.0039215689
33.846088 7.8800478 -2.8365884 0.011764706
36.052166 12.206349 1.106901 0.023529412
106.94084 24.903402 1.9150327 0.10980392
25.297523 8.5640173 -1.7114038 0.0078431377
17.00202 3.9570749 0.71039295 0.0039215689
26.294573 7.4921169 -1.2735336 0.0039215689
3.2909393 0.9348864 0.41854557 0
8.840745 2.0563502 0.73982805 0
10.383115 2.9565275 -0.25123566 0
4.8875084 1.1177831 -2.3330715 0.0039215689
100.07266 22.935968 -2.9889061 0.15686275
8.0167761 2.251853 -2.3283012 0.011764706
11.675648 2.6737494 -2.3937118 0.0078431377
191.0724 34.068371 -2.2618876 0.082352944
11.265771 3.1657193 -1.8191862 0.0078431377
106.72188 24.460047 -0.63767272 0.16862746
11.676389 3.2812083 -1.3055863 0
3.7085371 0.65928382 -0.3507928 0
171.95445 48.364079 4.1542859 0.074509807
11.673042 3.2802584 -0.8474099 0
33.815098 7.7485237 -2.831708 0.011764706
6.6045456 2.2074094 0.20212582 0
106.63729 24.440613 1.9080495 0.10980392
25.304554 8.4680882 -1.7098703 0.0078431377
42.712135 7.6140957 -2.5267076 0.027450981
25.578382 5.8604465 1.0681922 0.0078431377
13.681297 3.8451362 -0.66179514 0
5.4971843 1.2574952 -0.29519093 0
3.2521424 0.91160625 0.41318357 0
87.686287 20.096598 7.341815 0.16862746
17.031094 4.7872634 4.7370796 0.0039215689
8.8792429 2.0326891 1.6585389 0
79.111343 22.249308 -1.9130518 0.10196079
4.8913798 1.1007557 -2.3330717 0.0039215689
66.449318 21.985489 -1.222353 0.17647059
100.0117 22.554901 -2.9847219 0.15686275
8.0282993 2.224926 -2.3293798 0.015686275
11.665779 2.6287041 -2.3897898 0.0078431377
11.448135 3.1739788 -1.8468597 0.0078431377
19.562309 4.4097486 -2.5515106 0.0039215689
87.531143 19.739901 -0.5226143 0.16078432
28.219376 4.9283514 -2.6735797 0.0078431377
16.795795 2.9324663 0.1979958 0.0039215689
26.010658 7.2153249 -1.8872149 0.0039215689
33.768051 7.6138196 -2.8255258 0.011764706
87.581741 19.751276 1.5657768 0.10980392
25.265745 8.3571787 -1.7052665 0.0078431377
42.628311 7.4457612 -2.5201976 0.027450981
27.353762 7.5879912 1.6520873 0.0039215689
87.64727 19.76602 3.6589026 0.24705882
6.6065378 1.830304 0.8401776 0
26.63978 8.8118591 -1.1431627 0.0078431377
28.125896 6.3411007 5.2543044 0.0039215689
4.8773084 1.0806377 -2.3246195 0.0039215689
87.533165 19.435644 -2.6103618 0.14901961
8.0356321 2.1983297 -2.3293803 0.015686275
11.659114 2.5866427 -2.3866525 0.0039215689
147.97386 25.345554 -1.7496352 0.082352944
11.59964 3.1746764 -1.8696136 0.0078431377
19.557453 4.3405929 -2.5489862 0.0039215689
87.592209 19.448717 -0.52259624 0.16078432
11.924755 3.2637315 -1.3308651 0
28.212009 4.8307538 -2.6713505 0.0078431377
26.276894 7.1954932 -1.9047979 0.0039215689
33.758083 7.4940648 -2.822598 0.011764706
4.6206989 1.5084286 -0.31104246 0
14.730989 4.0324545 0.8885079 0
6.4176869 1.4226559 0.26712877 0
8.0754023 1.7907896 -0.4331789 0
10.65611 2.9161372 1.3549097 0
26.589083 8.6974096 -1.1397443 0.0078431377
44.700615 7.65518 -1.5840329 0.031372551
44.811909 12.273123 -1.0815448 0.14509805
4.8987598 1.0675116 -2.3330724 0
113.81056 36.800602 -2.0889649 0.24705882
8.0432577 2.1703033 -2.3293808 0.011764706
11.668074 2.545965 -2.3866534 0.0039215689
191.80754 32.16534 -2.266583 0.082352944
11.782355 3.1805971 -1.897287 0.0078431377
19.556986 4.2689452 -2.5469673 0.0039215689
7.4212356 2.3962674 0.045025926 0
107.84734 23.551973 -0.64293343 0.16862746
12.078131 3.2605054 -1.3467178 0
28.216919 4.7303009 -2.6702366 0.0078431377
14.233194 3.8427708 0.34248874 0
26.594616 7.1828613 -1.9260088 0.0039215689
33.729511 7.3643017 -2.8180432 0.011764706
25.238485 8.158061 -1.6996406 0.0078431377
8.0058022 1.3407482 -0.4723503 0
13.916153 3.7570968 0.83851635 0
5.9696765 1.3013589 0.24824542 0
66.560905 14.534859 -3.5708759 0.094117649
17.56953 3.8348041 1.4667978 0
26.535625 8.5775204 -1.136163 0.0078431377
44.794094 7.510365 -1.5864093 0.031372551
4.9058166 1.0520582 -2.3347631 0
117.27285 37.491142 -2.1502292 0.24705882
11.140209 2.3919985 -0.33157542 0
8.0578556 2.1456387 -2.3315382 0.015686275
11.672618 2.5064676 -2.3858695 0.0078431377
96.22554 25.654985 -0.0012113297 0.22745098
191.83815 31.516768 -2.265708 0.082352944
11.941778 3.1812558 -1.921271 0.0078431377
19.559395 4.2015982 -2.5454528 0.0039215689
81.18959 25.954491 0.49435365 0.10980392
19.239729 4.1328487 -0.11469558 0
12.234901 3.2594051 -1.362999 0
28.220659 4.6347961 -2.6691227 0.0078431377
7.9979053 2.1296065 0.19208993 0
26.976856 7.1902699 -1.9519637 0.0039215689
9.4553642 2.0298779 -0.78885728 0
9.1725435 1.9690735 0.16329446 0
25.238787 8.0658436 -1.6978513 0.0078431377
43.343784 7.1194892 -2.5581195 0.027450981
19.49239 5.1945238 1.1738007 0.0039215689
8.4047079 2.2380614 1.0663465 0
10.043944 2.156354 0.83744907 0
26.522049 8.476119 -1.1343732 0.0078431377
23.19799 3.8095515 -0.82100725 0.0078431377
13.176572 2.8296301 2.4548848 0
44.83646 11.952412 -1.0801541 0.20784314
4.9130058 1.0357167 -2.3364539 0.0039215689
117.76911 37.197266 -2.1569426 0.24705882
11.594451 2.4473634 -0.34484661 0
8.0690212 2.1185186 -2.3326168 0.015686275
11.677458 2.4649377 -2.3850856 0.0078431377
150.99138 24.264824 -1.7822908 0.082352944
12.10189 3.1787887 -1.9452548 0.011764706
19.566177 4.1317 -2.5444441 0.0039215689
80.898262 25.550501 0.49202728 0.10980392
1.9092522 0.40103021 -0.011460017 0.035294119
12.392362 3.2551458 -1.3792801 0
3.1176424 0.49925852 -0.2939046 0
128.17378 20.597635 1.5094401 0.062745102
6.672008 1.7511973 -0.48183432 0
33.646233 7.106595 -2.8069799 0.011764706
25.240141 7.9693227 -1.696062 0.0078431377
44.034676 7.0752821 -2.5974324 0.027450981
1.9848464 0.41700372 -0.10590443 0
2.1682365 0.455746 0.1797903 0
26.494308 8.3654757 -1.1319319 0.0078431377
21.11928 3.3924007 -0.74699557 0.0078431377
4.9025707 1.0147964 -2.3296919 0.0039215689
117.20977 36.548679 -2.1442382 0.24705882
110.49097 22.919954 -3.2852023 0.15686275
8.0767317 2.0889688 -2.3326175 0.015686275
11.686415 2.422159 -2.3850863 0.0078431377
95.612846 24.760244 -0.0012153914 0.22745098
128.1812 20.117226 -1.5121734 0.082352944
12.281812 3.1780519 -1.9723135 0.011764706
19.58119 4.0599947 -2.5444453 0.0039215689
7.969595 1.6510341 -0.047495566 0
12.600557 3.2605946 -1.4011309 0
28.194082 4.4235516 -2.6635487 0.0078431377
15.666451 2.457202 0.18412937 0
27.850391 7.2102194 -2.0114088 0.0039215689
33.57056 6.9622035 -2.7985191 0.011764706
2.0914583 0.64873499 0.063233398 0
25.265371 7.8756051 -1.6958078 0.0078431377
9.4159079 1.4761469 -0.55469406 0
3.4471712 0.88988996 0.4356043 0
26.517162 8.2659674 -1.1316081 0.0078431377
4.9059086 0.9985714 -2.3296924 0.0039215689
8.1940222 2.522095 -0.14970927 0
8.0761499 2.0603056 -2.3304613 0.015686275
11.694382 2.3834314 -2.385087 0.0078431377
158.73969 24.374582 -1.8717144 0.082352944
12.46461 3.1813688 -1.9999871 0.011764706
19.571218 3.9903216 -2.5414157 0.0039215689
81.372833 25.077076 0.4938266 0.10980392
12.761578 3.2572215 -1.4178405 0
28.228283 4.3330975 -2.6654093 0.0078431377
28.736292 7.33811 -2.0736427 0.0039215689
33.581745 6.848496 -2.7975447 0.011764706
2.1241658 0.65125495 0.064163849 0
25.26083 7.7824144 -1.6937624 0.0078431377
46.273563 7.1041555 -2.7265337 0.027450981
12.996751 2.6490653 0.53962529 0
69.931473 17.861797 -3.3625307 0.043137256
26.171721 5.3368139 -1.3997263 0.0078431377
26.490955 8.1615496 -1.1293296 0.0078431377
99.693199 15.307358 -3.5231924 0.24705882
13.783839 2.8095965 2.5624969 0
89.453827 22.848925 -2.1492705 0.10196079
4.9129186 0.98219264 -2.3313832 0.0039215689
117.31809 35.708214 -2.1417394 0.24705882
8.083292 2.0321429 -2.3304617 0.011764706
11.698783 2.3418667 -2.3843033 0.0078431377
95.49987 24.038666 -0.0012243135 0.22745098
17.340155 2.5991821 -0.20437957 0.0039215689
12.674946 3.1880567 -2.0319655 0.011764706
19.569464 3.9189055 -2.5393965 0.0039215689
17.142385 3.4325528 -0.10191182 0
12.954131 3.2583292 -1.4379776 0
28.231419 4.2328086 -2.6642957 0.0078431377
4.6569428 1.1695365 0.11126264 0
28.711422 7.2251377 -2.0700166 0.0039215689
33.52335 6.714829 -2.7907112 0.011764706
82.019676 24.963305 2.4937932 0.24705882
9.3324718 1.8676876 0.16566414 0
25.310755 7.7012095 -1.6952994 0.0078431377
51.475288 7.719173 -3.0314827 0.043137256
8.1113405 1.6230084 0.33630902 0
70.435112 17.728838 -3.3837583 0.043137256
42.910435 8.5956936 -2.2936149 0.039215688
4.8776731 1.2250947 0.6159547 0
14.099388 2.8228097 1.1726203 0
26.546045 8.0772209 -1.1304715 0.0078431377
13.407717 2.6841972 2.4907532 0
89.536903 22.537567 -2.1493695 0.10196079
4.9198742 0.96577495 -2.3330743 0.0039215689
122.55903 36.836609 -2.2350659 0.24705882
117.05691 23.027624 -3.473223 0.15686275
8.101552 2.0067332 -2.3336973 0.015686275
11.72613 2.3048379 -2.3882267 0.0039215689
16.119095 3.9953189 -0.00034263759 0.0039215689
3.7391806 0.54586333 -0.044073489 0
12.850954 3.1847441 -2.0584092 0.011764706
19.575235 3.8490729 -2.5383873 0.0039215689
190.26091 37.429726 -1.1293617 0.16862746
13.142987 3.2571681 -1.4576862 0
28.246021 4.1342678 -2.6642973 0.0078431377
41.203323 10.217133 -2.9683423 0.023529412
33.495739 6.5877953 -2.7864816 0.011764706
6.8345795 2.0510337 0.20712368 0
25.318367 7.6070981 -1.6940217 0.0078431377
51.304367 7.5105419 -3.0198555 0.043137256
16.638351 4.124094 0.99731725 0
6.2699232 1.2313378 0.25963801 0
8.0428381 1.9921343 -0.38571623 0
42.885307 8.4350891 -2.2906864 0.039215688
25.382154 6.29282 3.209105 0.0039215689
51.73243 10.175555 4.3024249 0.047058824
26.505182 7.9638319 -1.1275417 0.0078431377
9.2276878 1.8132223 1.7123412 0
8.71696 2.1593366 -0.20897684 0
4.9271011 0.94779557 -2.3331485 0.0039215689
81.972893 24.30868 -1.4935411 0.24705882
4.5336347 0.87182981 -0.13422205 0
8.1125708 1.9770899 -2.3337827 0.015686275
11.722812 2.2589414 -2.3851905 0.0078431377
7.4602304 1.8177646 -0.00032852811 0
13.012165 3.1733155 -2.0818813 0.0039215689
19.589033 3.7766304 -2.5380161 0.0039215689
82.210281 24.37904 0.49692672 0.10980392
132.52486 25.566097 -0.78668714 0.16862746
4.0097833 0.97535199 -0.4432303 0
28.29624 4.0353098 -2.667448 0.0078431377
41.096901 10.030198 -2.9579487 0.023529412
33.597752 6.4794369 -2.7928572 0.011764706
81.835762 24.267906 2.4823916 0.24705882
11.430622 2.2025068 0.20253713 0
25.353619 7.5154729 -1.6944221 0.0078431377
21.457375 4.137023 0.88913876 0.0078431377
50.852867 12.412097 -2.4386508 0.023529412
42.758839 8.2469387 -2.2823293 0.039215688
7.2842422 1.4025068 0.60404217 0
26.526413 7.8633075 -1.1272017 0.0078431377
10.861303 2.6481397 -0.26018223 0
4.9266553 0.93082446 -2.3314583 0.0039215689
126.78543 37.143089 -2.3078065 0.24705882
120.49088 22.830206 -3.5707443 0.15686275
8.1228285 1.9511253 -2.3348618 0.011764706
11.730238 2.2201006 -2.3851912 0.0078431377
95.855095 23.062771 -0.0016589568 0.22745098
7.8071475 1.0854601 -0.091941774 0
13.218597 3.1773548 -2.1132455 0.0039215689
19.620943 3.7153881 -2.5405433 0.0039215689
81.545998 23.888126 0.4924202 0.10980392
131.98012 25.007345 -0.78296769 0.16862746
13.664056 3.284534 -1.512633 0
28.38047 3.9513857 -2.6741433 0.0078431377
10.82976 1.5065055 0.12671943 0
40.994156 9.8612242 -2.948184 0.023529412
33.572048 6.3591199 -2.7889535 0.011764706
5.3214993 1.554792 0.16063741 0
15.241584 2.8854365 0.27005094 0
25.432035 7.4471116 -1.6980066 0.0078431377
13.220763 2.5024858 0.54716545 0
72.67955 17.485943 -3.482769 0.043137256
42.742783 8.0969563 -2.2800291 0.039215688
11.737764 2.8209226 1.4800754 0
9.3923016 1.7769891 0.77877873 0
26.51783 7.7652278 -1.125738 0.0078431377
28.098455 3.9120631 -0.99086386 0.0078431377
12.125853 2.9142661 3.3373315 0
33.13781 6.2766232 6.1458635 0.011764706
4.9227467 0.91234702 -2.3280778 0.0039215689
8.3865156 2.4211314 -0.15245019 0
122.40167 22.750004 -3.6250083 0.15686275
8.1183453 1.9201447 -2.3316274 0.015686275
11.737918 2.1791897 -2.3851922 0.0078431377
96.908073 22.958622 -0.0016818009 0.22745098
10.355378 1.4036494 -0.1218802 0
19.629892 3.6461971 -2.5400398 0.0039215689
81.117844 23.455564 0.48932818 0.10980392
132.69582 24.663473 -0.78670824 0.16862746
23.121704 5.4751639 -2.5584724 0.0078431377
28.24807 3.8325181 -2.6603873 0.0078431377
40.973972 9.7052279 -2.9442804 0.023529412
33.562687 6.2361064 -2.7863519 0.011764706
25.534571 7.3805175 -1.7031265 0.0078431377
50.398643 6.8393159 -2.9622154 0.043137256
72.351349 17.140043 -3.4641569 0.043137256
42.56657 7.9097862 -2.2691433 0.039215688
13.235738 2.4575319 1.0973394 0
26.537096 7.6704407 -1.1254146 0.0078431377
62.539009 8.4872713 -2.2047007 0.082352944
13.451143 3.183691 -0.32173064 0
79.103752 22.574316 -1.4369726 0.24705882
124.04979 22.608818 -3.6714721 0.15686275
8.1212463 1.8909769 -2.3305495 0.011764706
11.75317 2.1396701 -2.3867624 0.0078431377
10.653324 2.4815655 -0.00037861682 0.0039215689
13.636915 3.1775856 -2.1765897 0.0078431377
19.595657 3.5691803 -2.5339797 0.0039215689
81.514618 23.262398 0.49122289 0.10980392
2.7143967 0.49205256 -0.016208617 0
23.094196 5.3836465 -2.5533328 0.0078431377
28.22574 3.7292645 -2.6570432 0.0078431377
2.4060655 0.55776793 0.056880929 0
15.804487 2.0872278 0.18493107 0
40.906567 9.5386553 -2.9370277 0.023529412
33.517574 6.1068339 -2.7808211 0.011764706
13.77916 3.9287076 0.4161644 0
25.759775 7.348381 -1.7164348 0.0078431377
50.113419 6.6226168 -2.9440746 0.043137256
7.8826604 1.4341013 0.32547674 0
72.410721 16.887486 -3.4641628 0.043137256
42.758972 7.7913194 -2.2779419 0.039215688
13.452106 2.4492664 1.1145842 0
26.617508 7.5931888 -1.1276973 0.0078431377
62.742626 8.2920628 -2.210851 0.082352944
26.742754 4.8717608 4.9528012 0.0039215689
4.9539771 0.88252735 -2.3399122 0.0039215689
79.120491 22.280741 -1.4358618 0.24705882
126.09593 22.527311 -3.7296951 0.15686275
8.1240435 1.861805 -2.3294718 0.011764706
11.760567 2.0986798 -2.3867633 0.0078431377
11.184332 2.5643513 -0.00038748712 0.0039215689
6.0243831 1.379717 -0.95956802 0
19.596277 3.4987097 -2.5324657 0.0039215689
81.664627 22.997265 0.49163318 0.10980392
191.14087 34.148998 -1.1317425 0.16862746
23.097345 5.2994866 -2.5516212 0.0078431377
28.214888 3.6277113 -2.6548142 0.0078431377
8.2114038 1.881801 0.19534743 0
40.857941 9.3770971 -2.9311702 0.023529412
33.530834 5.9884386 -2.7801723 0.011764706
4.7563562 1.3354579 0.1430736 0
25.985071 7.3147392 -1.7297431 0.0078431377
50.421394 6.4843707 -2.9608274 0.043137256
24.557762 5.6346827 1.4659071 0.0039215689
17.188496 3.0684304 0.71025294 0.0039215689
10.081805 2.3112373 -0.48150247 0
42.766247 7.6385427 -2.2768984 0.039215688
15.075103 3.457576 1.8968152 0
14.037491 2.5054214 1.162416 0
26.886213 7.5685387 -1.1379613 0.0078431377
62.810833 8.0781355 -2.2122524 0.082352944
23.524981 4.2005029 4.3537593 0.0039215689
99.951118 22.944111 -2.3877029 0.10196079
4.9391723 0.86215633 -2.3314598 0.0039215689
129.23001 22.622158 -3.8200524 0.15686275
8.1530352 1.838582 -2.3359427 0.0078431377
11.771684 2.0583458 -2.3875487 0.0078431377
16.757 3.7822952 -0.00047373871 0.0039215689
17.735594 2.2167487 -0.20843348 0.0039215689
15.131484 3.4151239 -2.41151 0.0039215689
19.581009 3.4255507 -2.5289314 0.0039215689
16.837158 4.674799 0.10101818 0
23.111822 5.2180104 -2.5511947 0.0078431377
28.243183 3.5312357 -2.6563034 0.0078431377
87.583809 19.783125 2.0874703 0.074509807
18.989744 2.3736255 0.22207864 0.0039215689
40.816471 9.2177734 -2.9258711 0.023529412
33.50441 5.8631673 -2.7762692 0.011764706
3.1571529 0.8732124 -0.20927526 0
87.665848 19.80158 5.2316484 0.078431375
11.297821 1.9753194 0.46626705 0
8.7218094 1.9670308 -0.41615269 0
42.670673 7.4679213 -2.2704101 0.039215688
10.17275 2.29478 1.2782804 0
8.1592741 2.2632761 -0.34471723 0
63.009216 7.8802381 -2.2182629 0.082352944
12.465235 2.1796596 2.3041108 0
87.513519 19.767344 -2.0889137 0.10196079
4.9350057 0.8437354 -2.3280792 0.0039215689
44.811077 12.280315 -0.81163055 0.26666668
45.14875 7.7394552 -1.3336527 0.023529412
8.1594048 1.8101612 -2.3359435 0.0078431377
11.794259 2.0199428 -2.3906879 0.0039215689
87.652588 19.477413 -0.0015671083 0.23921569
20.109648 2.442512 -0.23622832 0.0039215689
15.139455 3.3614745 -2.4108963 0.0039215689
19.585026 3.3558853 -2.5279226 0.0039215689
23.079428 5.1261315 -2.5456266 0.0078431377
28.243477 3.4312301 -2.6551902 0.0078431377
40.770493 9.0579672 -2.9202926 0.023529412
33.540386 5.7489181 -2.7775738 0.011764706
5.1551042 0.88142163 0.090730436 0
6.6634712 1.8226259 -0.44213143 0
50.092808 6.0870166 -2.9389684 0.043137256
26.261759 4.50071 1.084283 0.0078431377
16.13566 3.5828409 -0.76971799 0
7.0386181 1.2044121 -0.37380162 0
16.708447 3.7100148 4.5816584 0.0039215689
87.589806 19.463507 -2.0891075 0.10196079
4.9447813 0.82947803 -2.3314605 0.0039215689
44.837856 12.136398 -0.81142455 0.39215687
45.17284 7.5976329 -1.333656 0.023529412
8.1499996 1.7812715 -2.3316307 0.011764706
11.79668 1.9822785 -2.3899043 0.0078431377
7.3909273 0.87304801 -0.086815625 0
15.142219 3.3122549 -2.4096677 0.0039215689
19.587646 3.2930741 -2.5269141 0.0039215689
6.6093545 1.785525 0.039394651 0
148.46599 24.976198 -0.87758648 0.16862746
23.110958 5.057054 -2.5473423 0.0078431377
28.242252 3.3411314 -2.6540768 0.0078431377
6.0112109 1.3129138 0.14252591 0
40.712994 8.9111176 -2.9141562 0.023529412
33.534691 5.6396031 -2.7756231 0.011764706
26.658863 7.2142301 -1.769668 0.0078431377
21.313877 2.5210369 -1.2496474 0.0078431377
15.704051 3.4351912 0.93488091 0
2.8073096 0.61139846 0.35072353 0
4.9476471 0.81226313 -2.331461 0.0039215689
44.841309 11.969532 -0.81072974 0.37254903
9.8344793 1.6168703 -0.29000473 0
8.1674652 1.7552938 -2.3348663 0.0078431377
11.807398 1.9417742 -2.3906898 0.0039215689
15.142097 3.2569306 -2.4078238 0.0039215689
19.614683 3.2273059 -2.5289359 0.0039215689
11.065926 1.8196322 -0.065493174 0
23.101254 4.9705362 -2.5443451 0.0078431377
28.26166 3.2434802 -2.6548226 0.0078431377
24.929522 2.8608041 0.29130512 0.0039215689
40.681442 8.7555513 -2.909694 0.023529412
13.173355 2.1666596 -1.0890914 0
21.375998 3.5172532 0.37730932 0.0078431377
4.6853647 1.2471058 -0.31009525 0
50.13208 5.7547512 -2.9389758 0.043137256
31.998642 6.886034 1.904618 0.0078431377
7.6337266 1.2545024 -0.40500465 0
10.301675 2.7467725 -0.43414328 0
79.817543 9.163372 -2.8066964 0.24705882
24.346628 5.2386184 -0.57975429 0.0039215689
4.9468727 0.79446399 -2.3297706 0.0039215689
8.173542 1.7268269 -2.334867 0.0078431377
11.806359 1.8993535 -2.3891215 0.0039215689
17.48394 3.6973174 -0.00048976566 0.0039215689
11.805325 1.3121519 -0.1385341 0
15.141772 3.2016547 -2.4059803 0
19.637583 3.1607671 -2.5304532 0.0039215689
95.572807 25.158804 0.57269776 0.10980392
13.386342 2.153796 -0.079155602 0
23.1029 4.8866305 -2.5426333 0.0078431377
28.253016 3.142664 -2.6529655 0.0078431377
15.616989 3.3021684 0.37063301 0
40.684425 8.60777 -2.9077437 0.023529412
33.411877 5.3794594 -2.7622819 0.011764706
7.9297376 2.0838342 0.23786071 0
128.08447 20.628689 2.2619319 0.10980392
27.480629 7.2313132 -1.8208498 0.0078431377
8.2460623 0.91605043 -0.48268306 0
14.946312 3.1602075 0.88837928 0
128.22278 20.650896 5.2882986 0.24705882
1.9929098 0.41864288 -0.0944269 0
43.7267 7.0409045 -2.3213098 0.039215688
20.224157 4.2772245 2.5358126 0.0039215689
8.2434425 2.1664417 -0.34700042 0
79.853012 8.885211 -2.8068419 0.24705882
8.7542543 1.8496224 2.3932052 0
12.338351 1.9849377 2.2754107 0
110.30907 23.343819 -2.6252768 0.10196079
4.953197 0.77780604 -2.3314617 0
127.71405 20.112062 -3.7645667 0.15686275
8.1795197 1.6983353 -2.3348677 0.0078431377
11.816792 1.8587896 -2.3899069 0.0078431377
5.7677865 1.1966264 -0.00030725345 0
15.172205 3.1528533 -2.4090564 0
19.628897 3.08916 -2.5279288 0.0039215689
127.97545 20.153162 -0.75522596 0.16862746
23.115921 4.8051925 -2.5422065 0.0078431377
28.29549 3.0474813 -2.6559422 0.0078431377
12.551135 2.6075926 0.29754063 0
40.651718 8.4527407 -2.9032817 0.023529412
33.37925 5.254777 -2.7580526 0.011764706
30.715769 4.835218 0.5417617 0.011764706
13.611557 3.529083 -0.90068293 0
8.2889128 0.89158893 -0.48500994 0
4.0261278 0.83434641 0.23832262 0
3.2150266 0.50400382 -0.17004824 0
5.9425917 1.2329692 0.74309307 0
80.854919 20.982433 -3.4040439 0.24705882
6.9298024 1.4382871 1.8921593 0
32.694836 5.1467862 6.031054 0.011764706
110.54257 22.990412 -2.6289175 0.10196079
4.9522982 0.76001281 -2.3297715 0.0039215689
89.607361 22.920635 -1.6157464 0.24705882
8.1853971 1.6698266 -2.3348684 0.0078431377
11.834837 1.8193742 -2.3922615 0.0039215689
15.163754 3.0959711 -2.4059827 0.0039215689
19.635637 3.020076 -2.5274253 0.0039215689
6.0872488 1.5534928 0.036122501 0
7.9058595 1.2145731 -0.046751466 0
23.120867 4.7221417 -2.5409231 0.0078431377
28.234653 2.9413192 -2.6492515 0.0078431377
15.600481 3.1851578 0.36970049 0
40.649696 8.3044567 -2.9010522 0.023529412
6.0987887 0.93643916 -0.50282592 0
96.338646 24.642603 2.8919396 0.24705882
6.8212905 1.7412962 -0.45057851 0
50.189594 5.2296267 -2.938987 0.043137256
12.481656 1.9188668 0.51346302 0
42.944057 8.7733259 -2.0419345 0.015686275
45.551392 7.0090251 -2.4155514 0.039215688
8.6658258 1.7679293 1.0837965 0
14.252189 3.6423597 -0.59914976 0
10.014619 1.0422468 -0.35148314 0
13.975775 2.8530407 3.8176618 0
12.351907 1.8988559 2.2754087 0
4.9550514 0.74225289 -2.3281567 0.0039215689
89.628464 22.592255 -1.6150222 0.24705882
8.4087524 1.261458 -0.24736811 0
8.1986675 1.6420774 -2.3360343 0.0039215689
11.837072 1.7769663 -2.3907976 0.0039215689
5.1836171 1.036785 -0.00037349397 0
15.158807 3.0392175 -2.4030235 0.0039215689
19.641922 2.9504292 -2.5265536 0.0039215689
96.637581 24.359312 0.57706141 0.10980392
23.133118 4.6399384 -2.5402141 0.0078431377
28.232613 2.8412538 -2.6479459 0.0078431377
12.180689 2.441328 0.28813717 0
40.580425 8.1422195 -2.8940139 0.023529412
33.395176 5.0182362 -2.7562995 0.011764706
8.5170145 2.1425781 0.25463706 0
14.16152 2.1263726 0.2490707 0
45.363697 11.432372 -2.9981618 0.047058824
50.211254 5.0545392 -2.9392684 0.043137256
42.680397 8.5637312 -2.0280108 0.015686275
21.266323 3.1946182 -1.1267782 0.0039215689
14.0435 2.8152149 1.7558324 0
9.7170401 1.4581295 0.80015135 0
50.902798 12.828851 -2.1391604 0.062745102
24.024746 3.6091912 4.4253302 0.0039215689
4.9576125 0.72501558 -2.3281572 0.0039215689
4.7229385 1.1685847 -0.084968157 0
8.2194653 1.616491 -2.3403482 0.0078431377
11.843204 1.7356981 -2.3907988 0.0039215689
15.15769 2.9840522 -2.40118 0.0039215689
96.694862 24.015123 0.57688886 0.10980392
7.50629 1.0990512 -0.044413891 0
23.141369 4.5576806 -2.5393593 0.0078431377
28.258211 2.7442842 -2.649436 0.0078431377
40.455917 7.9704771 -2.8831332 0.023529412
33.396709 4.899375 -2.7550006 0.011764706
15.747697 2.3087325 0.27689004 0
45.864346 11.388528 -3.0286191 0.047058824
50.137177 4.8704066 -2.9339223 0.043137256
24.246756 3.556221 0.99687159 0.0078431377
42.843323 8.441021 -2.0343463 0.015686275
4.2711787 0.62420034 -0.22561505 0
5.6513672 0.8267678 0.46436375 0
8.2137127 1.5856613 -2.3371141 0.0039215689
11.841424 1.6933023 -2.3892307 0.0039215689
15.168013 2.9311917 -2.4011815 0
19.681679 2.8161736 -2.5290828 0.0039215689
14.732268 3.6004975 0.087492347 0
23.129801 4.4716558 -2.5363624 0.0078431377
8.5163383 0.79586309 -0.79717833 0
11.687041 2.2576101 0.27604803 0
12.025295 1.1244657 0.13985117 0
40.393383 7.8118515 -2.876718 0.023529412
33.409657 4.7822752 -2.7546782 0.011764706
30.377693 7.4289908 0.90876365 0.019607844
46.407875 11.351784 -3.0618913 0.047058824
21.834028 2.0431309 -1.2767954 0.0078431377
42.578304 8.2345667 -2.0203855 0.015686275
17.255198 3.3348908 2.15501 0.0039215689
50.86301 12.441949 -2.1337957 0.1254902
3.1152 0.29000646 -0.10894793 0
12.586113 2.4314716 3.429348 0
10.357036 1.4805906 1.9036894 0
120.89159 23.38677 -2.8674929 0.10196079
4.9876862 0.69402736 -2.3399918 0.0039215689
19.03517 4.5831528 -0.34206763 0.0039215689
8.2229834 1.5577619 -2.3381937 0.0039215689
11.851149 1.6525621 -2.3900163 0.0039215689
4.0388312 0.76328057 -0.0003519195 0
12.4514 1.1206114 -0.1458782 0
15.166504 2.8760769 -2.3993382 0
19.679604 2.7458675 -2.5275693 0.0039215689
6.5864816 1.5829016 0.038870525 0
21.533478 3.0047078 -0.12698708 0.0039215689
23.133553 4.3887239 -2.5350797 0.0078431377
14.542787 1.3091073 0.16917562 0
40.306728 7.6492729 -2.868628 0.023529412
33.40641 4.6629233 -2.7530537 0.011764706
3.8726549 0.53823775 0.067571446 0
4.9704084 1.1934253 -0.32680368 0
21.876823 1.970189 -1.2788912 0.0078431377
11.913262 1.6611563 0.48877719 0
42.583241 8.0814724 -2.0192726 0.015686275
61.283112 8.5561247 -3.2434735 0.082352944
51.026577 12.293408 -2.1388509 0.062745102
3.2276733 0.28924304 -0.11285947 0
123.27081 23.401033 -2.9219871 0.10196079
4.9685254 0.67374289 -2.329849 0.0039215689
8.2321568 1.5298166 -2.3392727 0.0078431377
11.837412 1.6086006 -2.3860948 0.0039215689
3.9706886 0.73605865 -0.00035090308 0
15.176453 2.8231792 -2.3993397 0.0039215689
19.669411 2.6745403 -2.5250456 0.0039215689
96.773697 22.961689 0.57586151 0.10980392
9.1939049 1.2487539 -0.054285657 0
23.148731 4.3080044 -2.5350819 0.0078431377
8.014946 1.489288 0.18883657 0
6.7250843 0.58087772 0.077945061 0
40.144894 7.4735141 -2.8552351 0.023529412
33.45409 4.5506425 -2.7556615 0.011764706
2.3450253 0.55208778 0.0692693 0
3.1730847 0.42931664 0.05522975 0
46.664665 11.070026 -3.0736728 0.047058824
21.943239 1.8990405 -1.282383 0.0078431377
12.686986 2.3594298 0.74993217 0
9.7092075 1.3188742 0.39796457 0
42.489418 7.9101529 -2.0135045 0.015686275
12.521437 1.7016014 1.029536 0
80.420898 19.080997 -3.3684449 0.24705882
8.0446911 1.4947699 2.1871057 0
15.342501 2.0854986 2.8190799 0
8.8876877 1.6518459 -0.21037649 0
4.9708462 0.65646362 -2.3298495 0.0039215689
8.2185001 1.4976819 -2.3338816 0.0078431377
11.846843 1.5678588 -2.3868804 0.0039215689
11.390538 2.0769529 -0.00050130545 0.0039215689
14.627298 1.2139865 -0.17126065 0
15.182324 2.7695513 -2.398726 0.011764706
19.686489 2.6069856 -2.5260575 0.0039215689
107.13615 25.026314 0.63702989 0.10980392
11.121353 1.471633 -0.065602913 0
23.167538 4.2279696 -2.5355127 0.0078431377
18.180773 1.5093219 -1.7019312 0.16862746
17.655102 3.2211449 -1.2542913 0.0039215689
33.457909 4.432354 -2.754688 0.011764706
1.8797226 0.43480828 0.055314459 0.0078431377
3.1190577 0.41094798 0.054253303 0
46.376492 10.830878 -3.0521815 0.047058824
11.46167 2.0899243 0.67693323 0
6.4807305 0.85652238 0.26516438 0
42.583588 7.774087 -2.0166743 0.015686275
3.8522635 0.50812513 0.31534064 0
80.3936 18.778456 -3.3645437 0.24705882
17.742701 1.4728894 -0.62174439 0.0039215689
7.1507053 1.302598 -0.16911986 0
4.9694009 0.63957185 -2.3281596 0.0078431377
100.07153 23.026194 -1.7942613 0.24705882
9.0438042 1.1658214 -0.26530588 0
8.2347946 1.4725181 -2.3371174 0.0039215689
11.855866 1.5291253 -2.387666 0.0039215689
19.411734 1.5468345 -0.2272013 0.0039215689
15.179751 2.7171555 -2.3968825 0
19.683222 2.5402193 -2.524544 0.0039215689
23.197088 4.1539817 -2.5372288 0.0078431377
18.177738 1.4484475 -1.7011892 0.23921569
39.880608 7.1439157 -2.8329146 0.023529412
33.484283 4.3229632 -2.7556677 0.011764706
1.7993289 0.40980265 0.052872226 0.0078431377
46.276005 10.645743 -3.0432298 0.047058824
10.027134 1.2928232 0.41065675 0
42.597332 7.6307673 -2.0161197 0.015686275
11.531054 1.4871188 -0.60887241 0
15.055313 1.9423102 1.2371213 0
2.6671584 0.60952955 -0.11104562 0
21.52916 1.7157384 -0.75431043 0.0078431377
7.092485 1.2676766 1.9251989 0
132.17274 23.684 -3.1271017 0.10196079
4.9716034 0.62228507 -2.32816 0.0039215689
5.830564 1.3162081 -0.10439898 0
8.2398863 1.4438269 -2.3371181 0
11.845565 1.4858372 -2.3845289 0.0039215689
22.132246 3.8834457 -0.00072234013 0.0078431377
21.411093 1.6311736 -0.25053075 0.0039215689
15.173575 2.6614778 -2.3944242 0.0039215689
19.699844 2.4725456 -2.5255563 0.0039215689
23.207533 4.0723534 -2.5368025 0.0078431377
18.182684 1.3850467 -1.7011908 0.23921569
39.84243 6.9936738 -2.8284531 0.023529412
33.483349 4.204123 -2.7543685 0.011764706
87.579399 19.829525 2.6108472 0.24705882
46.219448 10.463037 -3.0370929 0.047058824
16.329018 2.8642924 0.96380621 0
42.568619 7.4724059 -2.0135171 0.015686275
5.7160387 1.0005174 0.70986706 0
7.0359788 0.88154495 0.57693934 0
80.730057 18.278559 -3.3733573 0.24705882
7.3316956 0.91867352 1.3434021 0
21.295195 3.7364628 -0.50337523 0.0039215689
4.9809413 0.60587174 -2.3315415 0.0039215689
87.546814 19.501341 -1.5672268 0.24705882
8.5000563 1.0354362 -0.24912131 0
8.2410803 1.4144691 -2.3360407 0.0039215689
11.877934 1.4478745 -2.390022 0.0039215689
27.148193 4.666759 -0.00082702906 0.0078431377
15.186667 2.6092341 -2.3950408 0
19.708353 2.4038346 -2.5255582 0.0039215689
176.76338 21.577446 -1.038977 0.16862746
23.225525 3.9920635 -2.5372336 0.0078431377
18.179461 1.3210596 -1.7004486 0.23529412
39.795811 6.8424525 -2.8234329 0.023529412
9.0809774 1.1063702 -0.7457667 0
8.2125607 1.0003272 0.1436379 0
46.240101 10.29824 -3.0360742 0.047058824
20.915903 1.5200957 -1.2209721 0.0078431377
18.991402 3.2636144 1.1204929 0
3.8549643 0.46834129 0.15710118 0
19.294971 2.3532548 1.5846158 0
81.862251 18.234875 -3.4180014 0.24705882
12.179078 0.8845588 -0.4263238 0
6.1706009 1.0582476 -0.14565241 0
4.9794254 0.58812058 -2.3298512 0.0039215689
12.37089 1.4642611 -0.36254311 0
8.2573614 1.3876798 -2.3392768 0.0078431377
11.886809 1.4069331 -2.3908079 0.0039215689
148.32584 24.978792 -0.0033221722 0.24705882
14.842155 1.0262626 -0.17359877 0
15.199579 2.5569317 -2.3956573 0.0039215689
19.708742 2.3341596 -2.5245497 0.0039215689
6.7625051 1.4778421 0.039723769 0
23.239317 3.9110372 -2.537236 0.015686275
18.179989 1.2573869 -1.7000785 0.21960784
5.7010589 0.95706123 0.1337005 0
39.74469 6.6909795 -2.8181341 0.023529412
33.436661 3.9614921 -2.7481899 0.011764706
10.03979 2.1960444 -0.65794861 0
20.825472 1.4405261 -1.2153903 0.0078431377
15.24732 1.8052101 0.62417221 0
42.670967 7.1838179 -2.0159464 0.015686275
7.8251925 0.92540908 -0.41243011 0
8.526598 1.0085242 0.69895232 0
82.838936 18.149286 -3.4561296 0.24705882
20.959711 1.4498072 -0.73378199 0.0078431377
16.122631 1.9089068 2.956094 0.0039215689
