# .PCD v0.7 - Point Cloud Data file format
VERSION 0.7
FIELDS x y z intensity
SIZE 4 4 4 4
TYPE F F F F
COUNT 1 1 1 1
WIDTH 1065
HEIGHT 1
VIEWPOINT 0 0 0 1 0 0 0
POINTS 1065
DATA ascii
-3.0798123 -15.59044 -0.28090364 0.019607844
-4.6862288 -15.478975 -0.47703755 0.05882353
-1.7171261 -7.7811155 -2.2640326 0.086274512
-2.5783086 -9.1240692 -1.9255993 0.10196079
-3.7361424 -15.035734 -0.0021780906 0.015686275
-6.1729126 -17.113863 -0.21620812 0.027450981
-3.591562 -12.17926 -1.6360456 0.019607844
-3.4969604 -17.433926 0.10221592 0.023529412
-4.6821394 -15.466219 -0.097108319 0.027450981
-4.4245596 -17.512863 -1.9601164 0.019607844
-4.3939681 -17.401999 -1.2651142 0.019607844
-5.9108133 -19.173079 -1.651219 0.035294119
-3.2811131 -16.479126 0.48996663 0.031372551
-4.7936015 -15.801908 0.28824481 0.062745102
-3.3925714 -16.974354 -1.1171464 0.023529412
-6.7179246 -18.523832 -1.1592252 0.035294119
-4.0322528 -16.098864 0.97116542 0.098039217
-4.6002116 -15.218326 0.65085477 0.019607844
-4.3385563 -17.202251 -0.83377242 0.031372551
-4.765481 -15.718405 -0.87031835 0.0078431377
-4.1493392 -16.518272 2.1033707 0.050980393
-6.0942068 -16.910793 -0.63579893 0.0039215689
-4.0402861 -16.123175 4.4827366 0.031372551
-4.6904163 -15.487741 2.9729748 0.035294119
-3.7992013 -15.262887 -0.37083176 0.062745102
-1.1757274 -4.838429 -2.3833735 0.0078431377
-4.7453208 -15.476125 -0.47752199 0.054901961
-1.743232 -7.769803 -2.2629645 0.098039217
-2.6176264 -9.1357641 -1.9303161 0.10196079
-6.1729236 -16.93791 -0.21433021 0.035294119
-2.479562 -10.380528 -1.6807001 0.050980393
-3.644151 -12.195184 -1.6400998 0.019607844
-3.5560038 -17.412252 0.10214712 0.06666667
-4.7335553 -15.440636 -0.097082429 0.023529412
-3.9091213 -15.44798 0.37135401 0.023529412
-5.4261632 -15.026742 0.1851327 0.054901961
-6.0842137 -19.468267 -1.6785592 0.05882353
-3.2803907 -16.21273 0.48235604 0.039215688
-3.6029294 -17.618322 -1.1603332 0.0078431377
-6.0994096 -16.75062 -1.050045 0.031372551
-4.0569973 -15.971674 0.96439087 0.074509807
-4.6011863 -15.045264 0.64414781 0.031372551
-4.4311061 -17.300812 -0.83936757 0.082352944
-4.3869309 -17.140255 2.1848154 0.082352944
-5.4942961 -17.706362 1.5225167 0.011764706
-3.2462821 -16.066132 -0.67351234 0.062745102
-4.7281799 -15.421219 2.9636238 0.035294119
-3.9392726 -15.55588 -0.37826779 0.050980393
-1.1949387 -4.8395987 -2.38676 0.0078431377
-3.1321814 -15.323974 -0.2766391 0.062745102
-4.7928901 -15.438974 -0.47696164 0.027450981
-1.7724593 -7.769516 -2.26513 0.10588235
-2.655802 -9.1435804 -1.9342492 0.094117649
-3.8311269 -14.971548 -0.0022191631 0.019607844
-6.2467008 -16.951899 -0.21481641 0.019607844
-2.5168679 -10.374047 -1.6813278 0.047058824
-3.6560972 -12.090644 -1.6280003 0.015686275
-9.2685652 -24.607395 -2.4719191 0.0078431377
-3.7762473 -14.779025 0.35545787 0.043137256
-5.4536138 -14.942904 0.18431765 0.070588239
-4.5010948 -17.317896 -1.2615352 0.11764706
-6.1880064 -19.551058 -1.6876899 0.043137256
-3.3342376 -16.187941 0.48198569 0.027450981
-6.1475792 -16.701664 -1.0484408 0.043137256
-4.6189966 -14.925366 0.63972455 0.019607844
-4.2785182 -16.538342 -0.80334699 0.043137256
-4.2940121 -16.588854 2.1164999 0.047058824
-5.5881052 -17.779892 1.5306369 0.0078431377
-3.3087077 -16.080385 -0.67466915 0.043137256
-6.1475191 -16.701107 -0.62971038 0.027450981
-4.1081548 -15.935442 4.4392004 0.023529412
-4.3873391 -14.240474 2.7396686 0.027450981
-4.0254107 -15.65198 -0.38097614 0.086274512
-1.2168603 -4.8512707 -2.3952172 0.0039215689
-3.1811359 -15.304236 -0.27651829 0.043137256
-4.81422 -15.334528 -0.47431052 0.023529412
-1.8014247 -7.7732115 -2.2683733 0.086274512
-2.6835632 -9.1258183 -1.9326919 0.10196079
-4.0097117 -15.403 -0.0021984284 0.031372551
-6.3665743 -17.089369 -0.21683177 0.019607844
-2.5468626 -10.348974 -1.678882 0.074509807
-3.7013204 -12.091982 -1.6300344 0.015686275
-4.8086882 -15.317996 -0.096592978 0.039215688
-4.5670691 -17.331871 -1.9456279 0.062745102
-7.2381825 -19.277248 -1.9398465 0.0078431377
-5.4898047 -14.889816 0.18387784 0.039215688
-4.580677 -17.378054 -1.2671299 0.047058824
-5.9694934 -18.703087 -1.6164966 0.015686275
-3.436784 -16.381506 0.48815519 0.023529412
-5.1507378 -16.314547 0.29869562 0.043137256
-3.6076782 -17.104818 -1.1284469 0.039215688
-3.9214418 -15.096758 0.91311568 0.06666667
-4.6580901 -14.878241 0.63840133 0.027450981
-4.3155713 -16.461166 -0.80039424 0.05882353
-5.4766703 -17.265921 -0.95902777 0.015686275
-4.3512082 -16.580671 2.1174555 0.019607844
-5.6043391 -17.635344 1.519866 0.023529412
-3.3214531 -15.896729 -0.66754133 0.074509807
-6.262084 -16.827682 -0.63530767 0.039215688
-4.1212368 -15.782934 4.4008641 0.078431375
-4.4319859 -14.216922 2.7382154 0.023529412
-4.0695138 -15.610174 -0.380346 0.027450981
-1.2281923 -4.8320217 -2.3884623 0.011764706
-3.2440312 -15.342669 -0.27743861 0.043137256
-1.8347692 -7.7915878 -2.2759285 0.10196079
-2.712527 -9.1116791 -1.9319191 0.094117649
-4.0011744 -15.184684 -0.0022344929 0.074509807
-6.4456148 -17.122335 -0.21754909 0.039215688
-2.5789464 -10.331401 -1.6776655 0.06666667
-3.8700964 -12.449313 -1.6800259 0.023529412
-3.7030694 -17.250282 0.10135175 0.011764706
-4.6088696 -17.261713 -1.939656 0.031372551
-7.3466821 -19.362494 -1.9510185 0.0078431377
-6.8071933 -18.020176 0.22355463 0.019607844
-6.0445452 -18.719372 -1.6197718 0.0039215689
-4.0596967 -18.732069 0.55912572 0.039215688
-5.2087431 -16.30723 0.29888558 0.078431375
-3.6559794 -17.056347 -1.1261681 0.019607844
-7.5792842 -19.939678 -1.2543586 0.0078431377
-4.0186353 -15.243141 0.92287862 0.06666667
-4.7597876 -15.012273 0.64490652 0.027450981
-4.3791218 -16.475958 -0.80190063 0.06666667
-6.2419281 -19.287945 -1.0721631 0.015686275
-4.6115518 -17.265711 2.2071915 0.023529412
-5.6575665 -17.600117 1.5185413 0.023529412
-3.3909779 -15.954091 -0.67048383 0.06666667
-6.2700872 -16.68667 -0.63086808 0.039215688
-4.1398768 -15.652762 4.368741 0.082352944
-4.2662663 -16.09017 -0.39232615 0.11372549
-1.2422948 -4.8155842 -2.3833983 0.0078431377
-3.3059428 -15.352347 -0.27787513 0.031372551
-4.9436598 -15.361561 -0.47632432 0.031372551
-1.8676991 -7.7979398 -2.280251 0.10588235
-2.7459052 -9.1000347 -1.9319316 0.098039217
-4.0192342 -15.041738 -0.0022654978 0.050980393
-6.5399799 -17.174761 -0.21854712 0.043137256
-2.6179211 -10.324027 -1.6782938 0.039215688
-3.9695609 -12.586919 -1.7007407 0.019607844
-4.0227203 -18.28405 0.10771213 0.015686275
-4.9406724 -15.352642 -0.097069785 0.05882353
-4.6913476 -17.307878 -1.9469562 0.035294119
-4.3630185 -16.199154 0.39107257 0.023529412
-6.8309956 -17.88973 0.22222023 0.015686275
-5.2583413 -19.216906 -1.403738 0.035294119
-6.1381946 -18.766928 -1.6259764 0.0039215689
-3.7438009 -17.142431 0.51181573 0.011764706
-4.7559872 -14.82594 0.27174798 0.031372551
-4.0562935 -15.165424 0.91913217 0.094117649
-4.8518357 -15.098683 0.64945227 0.039215688
-4.4372067 -16.450495 -0.80155092 0.027450981
-6.1604867 -18.829836 -1.0481445 0.0039215689
-5.9794698 -18.311176 1.5820312 0.019607844
-3.4674613 -16.013676 -0.67359078 0.05882353
-6.2965627 -16.576773 -0.62768513 0.050980393
-4.1972246 -15.63585 4.3687201 0.06666667
-4.3081403 -16.015282 -0.39095667 0.054901961
-1.2603083 -4.8130717 -2.3850949 0.011764706
-3.3681815 -15.374089 -0.278519 0.06666667
-4.9825449 -15.301203 -0.47506723 0.035294119
-1.897125 -7.7971888 -2.2824171 0.11764706
-2.7828987 -9.1036186 -1.9350803 0.11372549
-4.0993605 -15.11799 -0.0022770108 0.039215688
-6.7427759 -17.498034 -0.22293018 0.019607844
-2.66646 -10.3549 -1.6850675 0.027450981
-3.7905791 -11.943165 -1.6159468 0.015686275
-5.0356984 -15.450601 -0.097802766 0.027450981
-4.7746363 -17.366007 -1.9555397 0.043137256
-5.2329955 -13.824543 -1.3981372 0.011764706
-4.3573513 -15.975472 0.38600981 0.062745102
-6.891881 -17.860519 0.22214945 0.031372551
-4.8072004 -17.473476 -1.2780658 0.015686275
-4.1034565 -15.130492 0.91794848 0.094117649
-4.8724346 -14.989698 0.6455186 0.035294119
-4.3059092 -15.805808 -0.77109981 0.082352944
-4.1186714 -15.17984 1.9442254 0.047058824
-6.0433531 -18.288633 1.5820073 0.015686275
-3.5127509 -15.957249 -0.67182392 0.050980393
-6.4333868 -16.745411 -0.63495702 0.0039215689
-4.3107667 -15.815641 4.4235864 0.035294119
-6.5416718 -19.690659 3.8075659 0.047058824
-4.3801394 -16.0522 -0.39227542 0.031372551
-1.267825 -4.8073864 -2.3850989 0.0078431377
-3.4652991 -15.578566 -0.28242308 0.05882353
-5.0220547 -15.275613 -0.4748522 0.078431375
-1.9167564 -7.7967501 -2.2845807 0.098039217
-2.8046074 -9.0928717 -1.9350899 0.11764706
-4.1747389 -15.213828 -0.0022843126 0.043137256
-6.9500709 -17.854679 -0.2277288 0.023529412
-2.6980631 -10.363438 -1.6881514 0.043137256
-3.8123059 -11.90292 -1.6124259 0.015686275
-3.3878505 -15.270291 0.089497745 0.047058824
-5.0054984 -15.229042 -0.096578106 0.035294119
-4.7854738 -17.223063 -1.9414325 0.031372551
-7.4520025 -19.066483 -1.9295419 0.0078431377
-4.4052882 -15.970955 0.38627243 0.11764706
-6.9226303 -17.788095 0.22152068 0.0078431377
-5.3224063 -18.986782 -1.3898486 0.031372551
-6.3406811 -18.95438 -1.6461858 0.011764706
-3.8655396 -17.167814 0.51341063 0.027450981
-4.8509884 -14.79774 0.27185208 0.074509807
-4.1648703 -15.180286 0.92189085 0.062745102
-4.9230566 -14.99834 0.64664334 0.027450981
-4.3684034 -15.851148 -0.77409011 0.050980393
-0.65676761 -3.1008811 -0.1760426 0.0078431377
-4.1269598 -15.054496 1.930063 0.047058824
-3.5893245 -16.071953 -0.67720145 0.031372551
-7.6580358 -19.562151 -0.74219185 0.031372551
-4.3929405 -15.925474 4.4587789 0.015686275
-6.5970726 -19.663713 3.8068252 0.023529412
-4.4190164 -16.017002 -0.39182928 0.11372549
-1.2883034 -4.8115649 -2.3901761 0.0078431377
-3.520649 -15.568661 -0.28251195 0.039215688
-5.0944238 -15.309026 -0.47649801 0.054901961
-1.9439614 -7.7884202 -2.2845907 0.10196079
-2.8349946 -9.0777464 -1.9343177 0.098039217
-4.218399 -15.166993 -0.0023062727 0.05882353
-6.9799061 -17.751247 -0.22677864 0.027450981
-2.7284048 -10.333479 -1.6850915 0.086274512
-4.3040986 -13.130214 -1.7805513 0.015686275
-3.4361868 -15.237406 0.089360557 0.015686275
-6.0714793 -18.00392 -0.11369198 0.011764706
-4.8385401 -17.18186 -1.938886 0.031372551
-7.4723582 -18.928556 -1.9184195 0.0078431377
-6.2356234 -18.458277 -1.6052332 0.019607844
-3.959084 -17.284344 0.51735842 0.019607844
-4.9326015 -14.861845 0.27337372 0.039215688
-6.9567542 -17.696795 -1.1201457 0.027450981
-4.2049022 -15.122093 0.91930991 0.05882353
-5.1510987 -15.464177 0.6676597 0.039215688
-4.453124 -15.929676 -0.77875578 0.035294119
-6.5565114 -19.342922 -1.0806265 0.031372551
-4.1923504 -15.080146 1.9354092 0.023529412
-3.6345286 -16.015137 -0.67543453 0.027450981
-6.9510317 -17.682716 -0.67222607 0.039215688
-5.9118462 -17.559906 3.403445 0.015686275
-4.5019846 -16.087784 -0.39398286 0.062745102
-1.3017595 -4.7989445 -2.3868015 0.011764706
-3.5251434 -15.373418 -0.27926695 0.06666667
-5.1671643 -15.350607 -0.47837511 0.054901961
-1.9720695 -7.7877717 -2.286756 0.10588235
-2.869128 -9.0778322 -1.9366817 0.094117649
-4.3127227 -15.292703 -0.0023134544 0.054901961
-7.0870128 -17.840698 -0.22823976 0.027450981
-2.7497177 -10.281355 -1.6783434 0.06666667
-3.9764681 -12.100877 -1.6432517 0.023529412
-3.4285469 -14.999826 0.087972417 0.047058824
-5.1805739 -15.386827 -0.097813718 0.015686275
-12.77477 -31.297777 -3.1741145 0.023529412
-4.5912623 -16.185648 0.39230081 0.015686275
-5.5002079 -19.103201 -1.4013236 0.047058824
-6.299541 -18.44347 -1.6059067 0.0078431377
-4.9997401 -14.892716 0.27426577 0.043137256
-3.9875846 -17.160688 -1.1380222 0.0078431377
-7.0573797 -17.771427 -1.1264428 0.015686275
-5.229845 -15.520558 0.6709016 0.039215688
-4.5011663 -15.898049 -0.77803189 0.043137256
-6.6687002 -19.450846 -1.0879694 0.015686275
-5.9193435 -17.402214 1.5106125 0.027450981
-3.7296886 -16.163988 -0.68227667 0.027450981
-6.5924821 -16.671259 -0.63488126 0.015686275
-4.4989419 -15.884737 4.4566684 0.035294119
-5.970047 -17.538696 3.4034231 0.023529412
-4.5874448 -16.174335 -0.39650661 0.043137256
-1.3172455 -4.7893786 -2.3851175 0.0078431377
-3.6011391 -15.44453 -0.2808139 0.015686275
-5.2804103 -15.492119 -0.48338896 0.047058824
-2.0015614 -7.7865963 -2.2889221 0.10196079
-2.8994379 -9.0624914 -1.9359096 0.10196079
-4.386548 -15.340814 -0.0023279975 0.031372551
-7.120985 -17.748045 -0.22742864 0.027450981
-2.7903495 -10.285179 -1.680815 0.05882353
-3.9856257 -11.996022 -1.6311514 0.050980393
-3.4808896 -14.986177 0.087953635 0.078431375
-5.2300901 -15.355807 -0.097764969 0.015686275
-4.9003224 -16.970959 -1.9192369 0.0039215689
-8.0090847 -19.830189 -2.0154607 0.0078431377
-4.8691964 -16.869616 0.40945697 0.062745102
-5.5740652 -19.105124 -1.4030204 0.015686275
-4.1010194 -17.346708 0.52011782 0.047058824
-5.0253153 -14.802324 0.27291533 0.027450981
-7.1209426 -17.748764 -1.1266992 0.015686275
-4.3750439 -15.30327 0.93231195 0.011764706
-5.2756677 -15.478131 0.6699028 0.050980393
-4.5217648 -15.770149 -0.77266347 0.05882353
-6.6297741 -19.137411 -1.0718935 0.0039215689
-4.2375379 -14.866436 1.9119583 0.039215688
-5.9842105 -17.391073 1.5115668 0.019607844
-3.7018304 -15.828436 -0.66881275 0.031372551
-6.6192517 -16.573023 -0.63211513 0.047058824
-4.3810549 -15.31838 4.3023481 0.027450981
-6.3796926 -18.457169 3.5864143 0.050980393
-4.679985 -16.271038 -0.39930999 0.047058824
-1.3335201 -4.7794514 -2.3834341 0.0078431377
-3.7030478 -15.599593 -0.28388986 0.027450981
-5.3665972 -15.549625 -0.48584938 0.035294119
-2.0277421 -7.770196 -2.2867765 0.11372549
-2.9381349 -9.064826 -1.9390591 0.10196079
-4.4037757 -15.201038 -0.0023581863 0.015686275
-7.22083 -17.800959 -0.22847489 0.019607844
-2.8171995 -10.239326 -1.6752974 0.074509807
-4.0699105 -12.087431 -1.6458087 0.023529412
-3.5337338 -14.963919 0.087886676 0.047058824
-6.4868731 -18.541437 -0.11749259 0.015686275
-3.8655815 -13.51905 -1.5314062 0.0039215689
-8.0312538 -19.682001 -2.0035973 0.0078431377
-4.6935725 -16.10722 0.3912313 0.019607844
-7.0499263 -17.404213 0.21787389 0.0078431377
-6.2985668 -18.039959 -1.5750595 0.047058824
-5.0290527 -14.647299 0.27037352 0.043137256
-5.3379703 -15.471993 0.6705336 0.039215688
-4.5746694 -15.736573 -0.77194142 0.10196079
-4.2883739 -14.837791 1.910475 0.019607844
-5.9808106 -17.188145 1.4959096 0.027450981
-3.8977561 -16.330578 -0.69060397 0.027450981
-6.3700213 -18.225624 3.5461977 0.019607844
-5.6880217 -19.219378 -0.47158989 0.05882353
-1.34763 -4.7663932 -2.3800595 0.011764706
-5.3783941 -15.417021 -0.48238569 0.050980393
-2.0548522 -7.7614789 -2.2867866 0.10196079
-2.9808612 -9.0822716 -1.945345 0.10196079
-4.4678903 -15.218238 -0.002375179 0.015686275
-7.334012 -17.891409 -0.22998428 0.0039215689
-2.8638709 -10.261685 -1.6808422 0.10980392
-4.2440643 -12.420422 -1.6932808 0.074509807
-3.5640278 -14.868815 0.087372117 0.090196081
-6.6690464 -18.827602 -0.11942832 0.019607844
-5.585865 -18.676624 -2.1166353 0.011764706
-7.0030627 -17.132578 -1.7472028 0.0039215689
-5.2206316 -17.546644 -1.2918551 0.0078431377
-6.3713732 -18.042374 -1.5773602 0.023529412
-4.1937389 -17.197868 0.51657152 0.015686275
-4.1648355 -17.093143 -1.1368104 0.011764706
-7.1425638 -17.452444 -1.1114099 0.031372551
-4.4647698 -15.207527 0.92854607 0.094117649
-5.4230638 -15.533915 0.67410016 0.027450981
-4.6197343 -15.688509 -0.77047509 0.070588239
-5.8646736 -16.702621 -0.93852484 0.039215688
-4.3474755 -14.84381 1.9133824 0.023529412
-6.0929809 -17.303535 1.5079371 0.023529412
-3.8514943 -15.933319 -0.67453992 0.027450981
-4.514349 -15.356906 4.3230186 0.062745102
-6.9879622 -19.666468 3.8318155 0.015686275
-5.7661524 -19.232061 -0.47244957 0.039215688
-1.3655542 -4.763453 -2.3817563 0.0078431377
-3.7917747 -15.496894 -0.28260943 0.050980393
-5.416471 -15.355481 -0.48112851 0.054901961
-2.0843289 -7.7599883 -2.2889526 0.10980392
-3.0195506 -9.0885382 -1.9492785 0.098039217
-4.5782304 -15.375826 -0.0023817108 0.015686275
-4.1711965 -12.100016 -1.6518989 0.054901961
-3.6370549 -14.931847 0.087825432 0.082352944
-6.7618718 -18.8736 -0.11989088 0.023529412
-7.9873891 -19.210253 -1.9616566 0.0078431377
-4.3542891 -14.691317 0.35730806 0.070588239
-7.15838 -17.322102 0.2174529 0.031372551
-6.3716688 -17.85458 -1.5630734 0.047058824
-4.974504 -19.81139 0.59615016 0.015686275
-5.1511822 -14.660952 0.2713151 0.06666667
-4.6317053 -18.562969 -1.2354461 0.015686275
-7.2371826 -17.502583 -1.1163142 0.035294119
-4.9973941 -16.65514 1.0184031 0.023529412
-5.7599039 -16.252441 0.70636249 0.019607844
-4.6682558 -15.651706 -0.76956612 0.070588239
-5.9001179 -16.620758 -0.93520093 0.023529412
-4.4289141 -14.917507 1.9250695 0.039215688
-5.9012985 -16.621473 1.4502698 0.027450981
-3.8754015 -15.802549 -0.66968578 0.035294119
-6.8017373 -16.5114 -0.63274145 0.05882353
-4.7170234 -15.794768 4.4514074 0.035294119
-5.8220539 -19.176018 -0.47163948 0.023529412
-1.3800372 -4.7540045 -2.3800719 0.0078431377
-3.8067689 -15.351701 -0.28026637 0.031372551
-5.4659209 -15.332193 -0.48103175 0.050980393
-2.1136808 -7.7624927 -2.2921965 0.082352944
-3.0553234 -9.0915985 -1.9524269 0.10196079
-2.9286811 -10.223842 -1.6784096 0.074509807
-4.1898584 -12.029081 -1.6443413 0.090196081
-3.7004609 -14.968299 0.088114299 0.043137256
-6.896472 -19.036133 -0.1210665 0.031372551
-4.2295084 -14.15344 -1.6085171 0.027450981
-4.4168081 -14.717048 0.35831663 0.023529412
-7.2190256 -17.304068 0.21752387 0.015686275
-5.361258 -17.571999 -1.296638 0.019607844
-6.4207878 -17.805809 -1.5608191 0.027450981
-5.2689319 -14.82136 0.27465761 0.082352944
-8.0365772 -19.14887 -1.2227827 0.039215688
-5.0287533 -16.564939 1.0139586 0.027450981
-5.7432141 -16.049057 0.69835305 0.043137256
-5.9537621 -16.595863 -0.93501276 0.027450981
-4.0122409 -16.092333 -0.68254066 0.047058824
-6.8289051 -16.425119 -0.63039213 0.035294119
-4.5957026 -15.253046 4.3033051 0.050980393
-6.7700324 -18.705002 3.6537788 0.015686275
-4.7407999 -15.696632 -0.38714799 0.027450981
-1.3987702 -4.7506194 -2.3817689 0.0078431377
-6.0993352 -16.789034 -0.52716696 0.019607844
-2.1421177 -7.7530212 -2.292207 0.098039217
-3.0900519 -9.0823212 -1.9532238 0.10588235
-4.7451916 -15.518569 -0.0024085788 0.031372551
-8.0653563 -19.024426 -0.24551781 0.094117649
-2.9724119 -10.230105 -1.6814966 0.082352944
-4.2324767 -12.008276 -1.6438532 0.098039217
-3.7574677 -14.960667 0.088141613 0.054901961
-6.659265 -18.222862 -0.1162314 0.023529412
-4.2194448 -13.951395 -1.587559 0.0078431377
-7.7745833 -18.376616 -1.8825496 0.074509807
-4.7921872 -15.658384 0.38190863 0.015686275
-6.3930292 -15.290041 0.1920937 0.027450981
-6.4802089 -17.765631 -1.5595431 0.039215688
-4.366004 -17.121302 0.51568961 0.082352944
-5.3450389 -14.856162 0.27568713 0.050980393
-4.4268904 -17.339685 -1.1565475 0.10196079
-7.3510313 -17.430225 -1.1151998 0.023529412
-5.4206061 -17.532944 1.0747049 0.023529412
-5.7903728 -15.996448 0.69702637 0.0078431377
-6.0799174 -16.739708 -0.9444471 0.043137256
-4.5077152 -14.807764 1.9152758 0.050980393
-6.0708399 -16.7141 1.4622754 0.050980393
-4.0733628 -16.083542 -0.68288696 0.043137256
-6.8906951 -16.401957 -0.63055515 0.050980393
-4.6442137 -15.212456 4.297071 0.031372551
-6.8628812 -18.740713 3.6659534 0.050980393
-4.779242 -15.620605 -0.38577771 0.054901961
-1.4126853 -4.73737 -2.3783948 0.011764706
-3.8484845 -15.082361 -0.27599901 0.015686275
-6.1447005 -16.732574 -0.52614391 0.023529412
-2.1753492 -7.7621446 -2.2976072 0.10196079
-3.1217368 -9.0698872 -1.953236 0.11372549
-5.4863644 -17.527039 -0.0022838914 0.027450981
-3.0131793 -10.233049 -1.6839685 0.086274512
-4.2656336 -11.969689 -1.6408401 0.094117649
-3.8129616 -14.957408 0.088193431 0.10196079
-6.7800746 -18.343033 -0.1171545 0.023529412
-5.9571218 -18.918131 -2.1539783 0.0078431377
-8.1979437 -19.142559 -1.9639651 0.047058824
-4.9726357 -16.01112 0.39103398 0.043137256
-6.5465717 -17.752436 -1.5605426 0.031372551
-4.4081898 -17.042847 0.51380062 0.031372551
-5.4805121 -15.047887 0.27965793 0.043137256
-4.4906774 -17.334051 -1.157336 0.062745102
-7.3937368 -17.362844 -1.1126672 0.015686275
-5.1728001 -16.60091 1.0185711 0.027450981
-5.7596521 -15.755192 0.68738621 0.019607844
-4.5517316 -14.767791 1.91233 0.043137256
-6.1642594 -16.780226 1.4700687 0.035294119
-4.1371584 -16.094536 -0.68404472 0.027450981
-6.952848 -16.38714 -0.63099599 0.023529412
-6.9441457 -18.755322 3.6738226 0.027450981
-4.8209023 -15.564364 -0.38487017 0.015686275
-1.4292134 -4.7308173 -2.3784013 0.011764706
-4.0310736 -15.516763 -0.28414673 0.070588239
-6.1971531 -16.694578 -0.52570164 0.023529412
-2.2036805 -7.7565556 -2.2986953 0.086274512
-3.1490231 -9.0464115 -1.9508952 0.10196079
-9.1078129 -20.958567 -0.27101773 0.015686275
-3.0501635 -10.224615 -1.6845965 0.094117649
-4.3073907 -11.953135 -1.640856 0.086274512
-3.9595857 -15.269034 0.090178937 0.070588239
-7.5399628 -20.064091 -0.12801306 0.0039215689
-4.3270545 -13.94851 -1.5910201 0
-8.3209209 -19.235428 -1.9766273 0.015686275
-5.5687227 -17.569464 -1.3011677 0.015686275
-6.5981703 -17.701956 -1.5582894 0.023529412
-4.964077 -18.74268 0.56594235 0.019607844
-6.7299562 -15.747725 -1.0111191 0.015686275
-6.198278 -19.402817 1.192467 0.015686275
-6.2380323 -16.797575 -0.95034796 0.027450981
-4.5929537 -14.720181 1.9084089 0.06666667
-6.1962342 -16.690355 1.4641846 0.047058824
-4.4896913 -17.103544 -0.72745132 0.035294119
-9.4940786 -21.805624 -0.83980715 0.0078431377
-4.8267694 -15.399425 4.360199 0.0039215689
-7.2922115 -19.438543 3.8130255 0.039215688
-1.4435413 -4.7211757 -2.3767169 0.011764706
-4.0757685 -15.47877 -0.2837486 0.090196081
-6.2077112 -16.56114 -0.52223772 0.027450981
-2.2293906 -7.7476921 -2.2987049 0.086274512
-3.1614404 -8.9907398 -1.9414955 0.098039217
-4.7789769 -15.101368 -0.0024931733 0.050980393
-9.0183935 -20.581575 -0.26663306 0.011764706
-3.0737004 -10.183056 -1.679692 0.10196079
-4.3425632 -11.926229 -1.6393566 0.090196081
-4.0585198 -15.41938 0.091174342 0.082352944
-5.0893602 -15.996472 0.39155319 0.047058824
-5.628262 -17.553158 -1.3014683 0.027450981
-6.6464219 -17.65258 -1.556035 0.031372551
-4.2904482 -16.211197 0.48948658 0.031372551
-5.5141439 -14.836459 0.27639869 0.043137256
-4.5289431 -17.027975 -1.1392384 0.0078431377
-5.4803843 -14.752195 0.64512277 0.011764706
-6.994411 -18.517048 -1.0486709 0.011764706
-4.7314668 -14.962191 1.9420445 0.031372551
-6.2455974 -16.653416 1.4628607 0.047058824
-4.6350842 -17.390076 -0.74030942 0.023529412
-7.3683877 -19.441952 3.818742 0.047058824
-4.8219681 -15.225814 -0.37748638 0.050980393
-1.4515628 -4.7145224 -2.3767211 0.0078431377
-4.1178441 -15.451381 -0.28355792 0.094117649
-6.2825456 -16.600792 -0.52423322 0.023529412
-2.2466779 -7.7346482 -2.2976351 0.090196081
-3.2049971 -9.0289497 -1.9524857 0.098039217
-4.8787136 -15.241576 -0.0025002998 0.043137256
-7.939199 -18.089003 -0.23516844 0.0039215689
-3.0942059 -10.15204 -1.6766301 0.098039217
-4.3786578 -11.916785 -1.6403805 0.086274512
-4.0640016 -15.269332 0.090331599 0.082352944
-6.8847547 -18.082315 -0.11607206 0.027450981
-4.2910566 -13.566607 -1.5512373 0.0039215689
-5.1035757 -15.882706 0.3892014 0.047058824
-6.6907392 -15.40097 0.19467348 0.035294119
-6.2167935 -19.06072 -1.4146701 0.023529412
-6.6949635 -17.616642 -1.5550812 0.0078431377
-4.3600821 -16.267393 0.49168491 0.035294119
-5.5483499 -14.793336 0.27596056 0.015686275
-4.4493337 -16.570377 -1.1098748 0.0039215689
-6.8099618 -15.658656 -1.0086029 0.047058824
-5.2966261 -16.432827 1.0117575 0.039215688
-5.5203228 -14.724016 0.64477873 0.023529412
-6.3740182 -19.508816 -0.96521884 0.027450981
-7.2008424 -18.861042 -1.0696098 0.0039215689
-5.0693464 -15.78327 2.0512786 0.050980393
-6.3236833 -16.700134 1.4690274 0.050980393
-4.2066512 -15.751369 -0.67159021 0.054901961
-7.1867824 -16.469553 -0.63719785 0.027450981
-4.8948383 -15.282938 4.3373799 0.098039217
-7.3891411 -19.319792 3.8000586 0.047058824
-4.8811188 -15.248841 -0.3785252 0.054901961
-1.4707628 -4.7145128 -2.3801081 0.011764706
-4.5651541 -16.745293 -0.30734307 0.035294119
-7.6354365 -19.732285 -0.62335742 0.015686275
-2.2710907 -7.7178755 -2.2954893 0.094117649
-3.2201152 -8.9761696 -1.9438707 0.094117649
-4.8677497 -15.041866 -0.0025323164 0.050980393
-3.1362259 -10.158184 -1.6797168 0.10196079
-4.436801 -11.940187 -1.6459504 0.078431375
-4.0977206 -15.188309 0.089911461 0.086274512
-7.0526309 -18.311878 -0.11768791 0.011764706
-4.3383884 -13.549927 -1.5512551 0.0039215689
-11.336199 -25.173658 -2.5981274 0.0078431377
-4.8009629 -14.853041 0.3641752 0.023529412
-6.788599 -15.470062 0.19586581 0.027450981
-6.247303 -18.935738 -1.4071681 0.035294119
-12.584127 -31.791172 -2.8074203 0.011764706
-4.3731403 -16.104939 0.48723024 0.035294119
-5.6379223 -14.864755 0.27769044 0.035294119
-6.8832235 -15.67294 -1.0111814 0.035294119
-6.0391159 -15.841817 0.6949662 0.031372551
-6.3659992 -19.270159 -0.95464951 0.015686275
-5.1721649 -15.898573 2.0688159 0.039215688
-6.375886 -16.661587 1.4677024 0.015686275
-4.2708054 -15.765591 -0.67291039 0.031372551
-6.9036036 -17.94536 3.5345004 0.05882353
-4.9436703 -15.256475 -0.3791948 0.078431375
-1.4850016 -4.7047195 -2.3784242 0.0078431377
-4.6462436 -16.81271 -0.30889225 0.019607844
-6.8468633 -17.644165 -0.55855137 0.0078431377
-2.2810898 -7.6652431 -2.282562 0.10196079
-3.2558677 -8.9783974 -1.9470193 0.098039217
-4.9445782 -15.099419 -0.0025461293 0.054901961
-6.8534155 -15.474927 -0.20237182 0.047058824
-3.1805544 -10.175957 -1.6846467 0.090196081
-4.4794083 -11.9312 -1.6469754 0.090196081
-4.1864495 -15.299392 0.090670601 0.094117649
-7.1898694 -18.471617 -0.11886485 0.031372551
-6.1317706 -18.416323 -2.1095705 0.0039215689
-8.5972595 -19.164627 -1.9819324 0.0078431377
-4.9014306 -14.978559 0.36770204 0.078431375
-6.8227654 -15.409768 0.19537877 0.015686275
-6.2912254 -18.860783 -1.4032888 0.015686275
-6.0132632 -15.631433 0.29257864 0.050980393
-6.9829507 -15.749575 -1.0177106 0.043137256
-5.6418328 -14.734634 0.64702219 0.015686275
-6.4635463 -19.341446 -0.95932055 0.050980393
-6.4331012 -16.645889 -0.94708735 0.015686275
-5.1900496 -15.782622 2.0561154 0.054901961
-5.8298144 -15.187693 1.3393811 0.019607844
-4.350955 -15.841579 -0.67682993 0.023529412
-7.2833385 -16.384569 -0.6359868 0.015686275
-7.2447891 -18.600636 3.668678 0.027450981
-4.9955835 -15.242223 -0.37930661 0.074509807
-1.5008357 -4.6941981 -2.3767402 0.0078431377
-4.6748796 -16.68684 -0.3069689 0.035294119
-2.3131042 -7.6659937 -2.2858067 0.094117649
-3.306926 -9.0081205 -1.9564434 0.082352944
-5.0053391 -15.094538 -0.0025659981 0.074509807
-7.0496426 -15.740382 -0.20615779 0.011764706
-3.2245612 -10.181111 -1.6877342 0.10196079
-4.5139165 -11.891038 -1.6439629 0.086274512
-4.2460294 -15.293713 0.090720713 0.062745102
-7.2791486 -18.495096 -0.11921409 0.039215688
-6.2344475 -18.489241 -2.1207278 0.015686275
-11.931944 -25.971266 -2.6892574 0.0078431377
-4.9276929 -14.879839 0.36572224 0.06666667
-6.2447858 -18.517004 -1.3796182 0.0078431377
-4.5031147 -16.128099 0.48893914 0.047058824
-6.0797825 -15.629721 0.29297632 0.047058824
-5.0725093 -17.979183 -1.2078028 0.0039215689
-6.9941888 -15.62487 -1.0114572 0.047058824
-5.4167147 -16.228939 1.0028468 0.047058824
-5.2181077 -15.679675 2.0453639 0.023529412
-7.9469752 -20.088621 1.7753772 0.015686275
-4.4254551 -15.8773 -0.6791265 0.023529412
-5.4179406 -16.228556 4.6231203 0.027450981
-7.3357167 -18.626711 3.6794164 0.023529412
-5.0813847 -15.304826 -0.38136944 0.023529412
-1.5143909 -4.6806297 -2.3733659 0.011764706
-2.3411746 -7.6598663 -2.286895 0.10196079
-3.3261354 -8.9659958 -1.9501812 0.090196081
-5.1556735 -15.342029 -0.0025690889 0.027450981
-7.0403352 -15.580724 -0.20446034 0.019607844
-3.2546458 -10.153325 -1.6852888 0.074509807
-4.5600328 -11.884552 -1.6454936 0.078431375
-4.2398663 -15.086246 0.08952342 0.094117649
-7.6224532 -19.127436 -0.12337056 0.0078431377
-4.6181569 -13.876071 -1.5945518 0.0039215689
-4.9300957 -14.725749 0.36234424 0.086274512
-6.8860006 -15.259934 0.19407517 0.039215688
-4.5581985 -16.106846 0.48880175 0.031372551
-6.1358643 -15.610467 0.2930252 0.062745102
-7.0227003 -15.544772 -1.007992 0.047058824
-5.2110143 -15.492137 0.95836204 0.043137256
-5.7486825 -14.694249 0.64714444 0.019607844
-5.6660151 -16.736284 -0.83278269 0.035294119
-6.5318298 -16.548275 -0.94441402 0.039215688
-5.2564263 -15.615012 2.0394909 0.050980393
-4.4415998 -15.734221 -0.67378354 0.031372551
-7.4316154 -16.393539 -0.63854426 0.027450981
-5.4586139 -16.164396 4.6106734 0.078431375
-7.3746448 -18.537758 3.6671913 0.023529412
-5.1554089 -15.341699 -0.38278186 0.074509807
-1.5335652 -4.6803617 -2.3767529 0.011764706
-4.6347837 -16.154741 -0.29797554 0.054901961
-7.3874779 -18.392727 -0.58476907 0.011764706
-2.367898 -7.6500258 -2.2869051 0.086274512
-3.3543324 -8.9454947 -1.9486247 0.10196079
-5.0828195 -14.980963 -0.0026103873 0.050980393
-3.2914395 -10.143989 -1.6859169 0.086274512
-4.5999317 -11.863293 -1.6450049 0.078431375
-4.2479601 -14.9286 0.088632748 0.10588235
-8.086462 -20.029831 -0.12923716 0.027450981
-4.5740623 -13.608357 -1.5658836 0
-4.9661965 -14.665581 0.36129871 0.062745102
-6.9532113 -15.262965 0.19442719 0.06666667
-6.398838 -18.537071 -1.3846852 0.031372551
-6.7775421 -16.964668 -1.5086823 0.0039215689
-4.7575979 -16.542953 0.50266385 0.043137256
-6.1918883 -15.591015 0.29307404 0.023529412
-5.5510869 -19.059286 -1.2829748 0.011764706
-7.0507412 -15.464666 -1.0045265 0.05882353
-5.2401056 -15.404831 0.95415157 0.090196081
-6.5280018 -16.378035 0.72275233 0.027450981
-6.667695 -19.262846 -0.95921218 0.015686275
-5.3233104 -15.628461 2.0438597 0.070588239
-4.5409999 -15.858024 -0.67981738 0.054901961
-7.4503593 -16.286776 -0.63549799 0.027450981
-5.4613376 -15.998704 4.5692315 0.078431375
-7.4964809 -18.644194 3.6937187 0.027450981
-5.1797752 -15.243237 -0.38085285 0.054901961
-1.5470247 -4.6666994 -2.3733785 0.0078431377
-4.7300911 -16.258757 -0.30022076 0.043137256
-2.3918884 -7.6328764 -2.284759 0.11764706
-3.3855383 -8.9321098 -1.9486369 0.10588235
-7.0978765 -15.423806 -0.20315582 0.019607844
-3.3309844 -10.141922 -1.6877744 0.094117649
-4.6334634 -11.827322 -1.6424963 0.086274512
-4.3097839 -14.942543 0.088801861 0.094117649
-7.7890439 -19.147657 -0.12390727 0.0078431377
-4.608994 -13.557162 -1.5620481 0
-4.9837241 -14.556649 0.35904059 0.05882353
-7.0539846 -15.333949 0.19566549 0.047058824
-6.3698177 -18.262608 -1.3660301 0.031372551
-4.7593498 -16.349426 0.49727631 0.050980393
-6.2478585 -15.57136 0.29312286 0.047058824
-6.1629367 -20.74552 -1.3977346 0.0078431377
-7.1538968 -15.538739 -1.0110573 0.050980393
-5.3218403 -15.459625 0.95878679 0.039215688
-6.5835528 -16.349861 0.72256708 0.039215688
-5.7687101 -16.655659 -0.83096784 0.027450981
-8.2708225 -20.266436 -1.159294 0.011764706
-5.4084482 -15.689967 2.0545683 0.05882353
-4.6048417 -15.867105 -0.6809755 0.082352944
-7.5001283 -16.244692 -0.63496262 0.05882353
-5.5347614 -16.024965 4.5826721 0.043137256
-5.2273483 -15.208462 -0.38050172 0.035294119
-1.5633056 -4.6596489 -2.373385 0.0078431377
-4.7486796 -16.122557 -0.29808667 0.050980393
-2.4062579 -7.5904317 -2.2750664 0.098039217
-3.4041793 -8.889843 -1.9423746 0.10588235
-6.6757698 -18.877817 -0.0024169455 0.027450981
-3.3677645 -10.132309 -1.6884025 0.10980392
-4.6842198 -11.831286 -1.6455419 0.06666667
-4.434515 -15.150341 0.090171352 0.10980392
-6.7001429 -18.944458 -2.1841941 0.0078431377
-7.1629219 -15.421199 -1.6092565 0.011764706
-5.0161185 -14.488921 0.35780877 0.082352944
-7.0808721 -15.253836 0.19494443 0.062745102
-6.4053001 -18.163992 -1.3604782 0.027450981
-6.8512721 -16.811337 -1.4996197 0.011764706
-4.7499743 -16.125656 0.49095601 0.06666667
-6.3165393 -15.580841 0.29373133 0.05882353
-6.9638085 -15.018087 -0.97899753 0.023529412
-5.331984 -15.32355 0.95155025 0.074509807
-6.9180684 -16.962828 0.75090349 0.0078431377
-8.0737686 -19.620466 -1.1241773 0.0039215689
-5.5727396 -15.959024 2.0925879 0.019607844
-7.4805746 -18.254763 1.6225578 0.019607844
-4.6528254 -15.826497 -0.68002075 0.031372551
-5.6877294 -16.260508 4.6561704 0.05882353
-7.2856989 -17.805197 3.5379436 0.043137256
-5.4685345 -15.685978 -0.39286837 0.062745102
-1.5824759 -4.6591806 -2.3767719 0.011764706
-7.547502 -18.236284 -0.58251965 0.011764706
-2.4052432 -7.508399 -2.2535145 0.10196079
-3.4556944 -8.9229717 -1.9525828 0.082352944
-6.7801805 -18.953667 -0.0024361375 0.027450981
-7.2196612 -15.39927 -0.20357075 0.015686275
-3.3988798 -10.107794 -1.6865718 0.094117649
-4.7270851 -11.816875 -1.6460631 0.06666667
-4.5035405 -15.182571 0.090457708 0.090196081
-7.8565669 -18.939426 -0.12301219 0.027450981
-7.1971493 -15.355277 -1.6051893 0.050980393
-5.0995002 -14.555619 0.35993475 0.031372551
-7.0751486 -15.109301 0.19338395 0.062745102
-6.5028505 -18.229361 -1.3671937 0.015686275
-4.3325572 -14.659523 0.44649234 0.019607844
-6.3210225 -15.443569 0.29154149 0.06666667
-6.2194905 -20.429375 -1.3796444 0.019607844
-7.0144057 -14.988497 -0.97878605 0.031372551
-5.3954206 -15.329336 0.95315927 0.082352944
-5.8848424 -16.611738 -0.83101195 0.050980393
-7.9767356 -19.21385 -1.1026567 0.0039215689
-6.7360601 -16.387316 1.4584284 0.019607844
-4.7341366 -15.88831 -0.68345457 0.015686275
-8.9678822 -18.903713 -0.74090463 0.0078431377
-5.7830877 -16.339994 4.6851425 0.035294119
-7.3240647 -17.724001 3.5271547 0.031372551
-1.5987298 -4.6520057 -2.3767784 0.0078431377
-7.6305633 -18.252068 -0.58393919 0.011764706
-2.431438 -7.4983354 -2.2535245 0.11372549
-3.4868207 -8.9092321 -1.952595 0.090196081
-7.3956451 -15.615305 -0.20675385 0.015686275
-3.4412606 -10.112682 -1.6896586 0.094117649
-4.7699146 -11.802309 -1.646584 0.06666667
-4.626904 -15.377789 0.091755643 0.06666667
-7.9939771 -19.07115 -0.12405467 0.039215688
-4.7506933 -13.503292 -1.562102 0
-7.2453365 -15.317769 -1.6040957 0.050980393
-5.2684116 -14.842004 0.36756304 0.050980393
-7.1080699 -15.043592 0.19284976 0.047058824
-6.6512513 -18.424553 -1.3836679 0.019607844
-6.353817 -15.372262 0.29061103 0.035294119
-5.9897227 -19.496407 -1.3183391 0.019607844
-5.4776716 -15.383293 0.95779425 0.06666667
-6.896975 -16.596676 0.73684186 0.023529412
-5.9643836 -16.645386 -0.83382267 0.047058824
-6.3205495 -17.564564 2.3095663 0.035294119
-6.7802949 -16.33293 1.4558012 0.011764706
-5.873507 -16.404591 4.7099724 0.027450981
-7.3842969 -17.693115 3.526413 0.039215688
-1.6126685 -4.64183 -2.3750942 0.0078431377
-4.8687358 -15.931492 -0.29564497 0.035294119
-7.8902707 -18.670385 -0.59814227 0.023529412
-2.4562907 -7.4886909 -2.2535341 0.12941177
-3.5147452 -8.8924999 -1.9518224 0.10588235
-7.0979719 -19.388378 -0.0024583708 0.035294119
-6.9279332 -14.565489 -0.19342992 0.015686275
-3.4675982 -10.081263 -1.6865981 0.094117649
-4.8171291 -11.802997 -1.649124 0.05882353
-4.6994581 -15.425305 0.092136607 0.050980393
-4.7853327 -13.459988 -1.5591217 0
-7.2870822 -15.274359 -1.6022576 0.043137256
-6.7036157 -18.378548 -1.3820184 0.027450981
-7.0630803 -16.822453 -1.5074949 0.031372551
-4.7812381 -15.669212 0.47853082 0.090196081
-6.3688254 -15.269257 0.28905222 0.086274512
-6.135426 -19.717169 -1.3347185 0.050980393
-7.3276772 -15.353883 -1.0060282 0.019607844
-5.5649323 -15.456514 0.9635939 0.047058824
-7.6849122 -18.210186 0.80999202 0.0039215689
-6.039875 -16.676094 -0.83644658 0.06666667
-8.0779686 -19.090319 -1.098942 0.031372551
-6.4133892 -17.630741 2.3212488 0.023529412
-7.9433351 -18.786989 1.6775098 0.035294119
-4.7483048 -15.572097 -0.67146581 0.031372551
-9.3875847 -19.413017 -0.76342076 0.0078431377
-6.7633595 -18.525167 5.3260603 0.047058824
-7.3898892 -17.548464 3.5027089 0.023529412
-6.1063199 -16.846064 -0.42338318 0.047058824
-1.6303532 -4.6378536 -2.3767908 0.0078431377
-4.8858409 -15.799135 -0.29357952 0.039215688
-7.7957635 -18.287645 -0.58689356 0.035294119
-2.4922984 -7.5035362 -2.2610908 0.1254902
-3.56352 -8.9178772 -1.9604622 0.074509807
-6.7212996 -18.23424 -0.0025454091 0.015686275
-3.5085623 -10.082185 -1.6890702 0.11764706
-4.8599339 -11.788104 -1.6496452 0.074509807
-4.6852875 -15.206391 0.090870053 0.027450981
-6.4541798 -15.316708 -0.10066633 0.070588239
-4.873107 -13.545187 -1.5711291 0
-7.3385415 -15.243662 -1.6019074 0.031372551
-6.6931305 -18.164074 -1.3678229 0.0039215689
-7.0610476 -16.661638 -1.495481 0.031372551
-4.939774 -15.957563 0.48795775 0.035294119
-6.4714727 -15.354658 0.29112962 0.031372551
-6.176053 -19.610826 -1.3291218 0.027450981
-7.2538724 -15.077761 -0.98977524 0.074509807
-5.6042137 -15.398223 0.96124566 0.05882353
-7.100265 -16.746523 0.74576038 0.0078431377
-6.1258798 -16.723921 -0.8400014 0.027450981
-7.5148726 -17.666075 -1.0188401 0.023529412
-6.4676185 -17.58816 2.3187866 0.039215688
-4.8462119 -15.682516 -0.67701304 0.027450981
-7.7268128 -16.001463 -0.63102835 0.0039215689
-6.7925696 -18.409967 5.3001485 0.035294119
-7.324749 -17.241222 3.4467118 0.023529412
-6.1870766 -16.87883 -0.4247984 0.019607844
-1.6305802 -4.6140256 -2.3683434 0.0078431377
-4.8547039 -15.553375 -0.28942564 0.023529412
-7.8294678 -18.211452 -0.58540595 0.015686275
-2.5128684 -7.5003409 -2.2632551 0.12156863
-3.5894167 -8.910924 -1.9620414 0.094117649
-7.2364531 -19.364893 -0.0025067942 0.050980393
-7.0264502 -14.524236 -0.19360885 0.039215688
-3.5396469 -10.079293 -1.6909261 0.10980392
-4.9024429 -11.791142 -1.6526893 0.06666667
-6.5422354 -15.387136 -0.10128682 0.054901961
-7.3905096 -15.230536 -1.6034143 0.023529412
-7.5586643 -15.554844 0.20052817 0.047058824
-7.7986183 -20.77869 -1.5663719 0.0039215689
-7.1652145 -16.755028 -1.506238 0.027450981
-5.0115509 -16.010504 0.49015474 0.082352944
-6.1221266 -19.255236 -1.3066559 0.027450981
-7.1514158 -14.766909 -0.97119492 0.05882353
-5.5992098 -15.250842 0.95331329 0.078431375
-7.1833191 -16.792795 0.74899822 0.0039215689
-6.122508 -16.567207 -0.8333286 0.011764706
-6.5116434 -17.541769 2.3158391 0.019607844
-8.0938816 -18.78956 1.682995 0.027450981
-4.9532757 -15.841627 -0.684672 0.027450981
-6.896863 -18.506622 5.3353314 0.062745102
-6.5406132 -17.617208 -0.44385463 0.035294119
-1.6497054 -4.6132421 -2.3717306 0.0078431377
-4.8212652 -15.281486 -0.28478622 0.050980393
-9.2298326 -21.088257 -0.67842311 0.0078431377
-2.5390344 -7.4898725 -2.2632651 0.12941177
-3.6205003 -8.8966894 -1.9620537 0.090196081
-6.8593054 -18.231924 -0.0025899236 0.015686275
-3.5733354 -10.061559 -1.6903248 0.12941177
-4.9452305 -11.775911 -1.6532105 0.06666667
-4.7828245 -15.170102 0.090832293 0.070588239
-6.6042671 -15.380727 -0.10142361 0.019607844
-4.8463001 -13.227189 -1.5386205 0.011764706
-7.5374279 -15.383154 -1.6223935 0.011764706
-5.5714369 -15.028726 0.37420031 0.070588239
-7.6184568 -15.537356 0.20064604 0.023529412
-7.1986647 -16.673933 -1.5013809 0.039215688
-5.056941 -15.96104 0.48920089 0.031372551
-6.5766869 -15.32044 0.29136884 0.047058824
-6.2141266 -19.303762 -1.3115367 0.0039215689
-7.4260569 -15.168776 -0.99934876 0.035294119
-5.6613531 -15.251785 0.95468938 0.023529412
-7.9201012 -18.240093 0.81513333 0.0078431377
-8.131094 -18.697973 1.6774342 0.011764706
-4.9366007 -15.614879 -0.67575145 0.05882353
-6.9859371 -18.541731 5.3529096 0.023529412
-6.2504406 -14.609035 2.9292798 0.11372549
-6.2216492 -16.646515 -0.42019874 0.035294119
-1.6680458 -4.6127558 -2.3751173 0.015686275
-6.1921091 -19.034824 -0.35428864 0.039215688
-9.7474155 -22.0207 -0.70937181 0.019607844
-2.5638576 -7.4798436 -2.2632747 0.10980392
-3.6582372 -8.9008551 -1.965987 0.094117649
-7.6289158 -15.432604 -0.20625502 0.027450981
-3.6081674 -10.051748 -1.6909524 0.14901961
-4.9792433 -11.747083 -1.651711 0.050980393
-4.8925819 -15.322475 0.091871142 0.070588239
-6.6552362 -15.357178 -0.10144374 0.023529412
-4.8258162 -13.051021 -1.5202246 0.0039215689
-5.5264797 -14.775173 0.36830705 0.06666667
-7.6625051 -15.496278 0.20043872 0.011764706
-7.4926195 -19.620121 -1.483332 0.047058824
-7.2572746 -16.65564 -1.5020535 0.031372551
-5.1441946 -16.040733 0.49221316 0.023529412
-6.6964846 -15.445723 0.29421583 0.047058824
-6.1567612 -18.93486 -1.2880479 0.027450981
-7.5375614 -15.259181 -1.0070419 0.043137256
-6.0543823 -16.074947 1.0077354 0.098039217
-8.2716169 -18.839336 0.84329909 0.0078431377
-6.2110853 -16.462698 -0.83039683 0.035294119
-8.2410507 -18.775116 -1.0877455 0.011764706
-5.7840681 -15.408106 2.0392883 0.050980393
-8.1141739 -18.499382 1.6621077 0.023529412
-4.9474163 -15.479917 -0.67073107 0.039215688
-7.8956556 -15.941099 -0.63207012 0.011764706
-6.3038235 -14.597374 2.9314132 0.031372551
-6.3129168 -16.713154 -0.42244872 0.043137256
-1.6833332 -4.6056299 -2.3751235 0.0078431377
-6.2458601 -18.986227 -0.35382542 0.054901961
-9.7797031 -21.899775 -0.70661074 0.0039215689
-2.5725842 -7.4305234 -2.2514248 0.098039217
-3.6877334 -8.8871069 -1.9659986 0.094117649
-6.9982719 -18.227314 -0.0026342184 0.011764706
-3.6354868 -10.023531 -1.6885064 0.10588235
-5.0198536 -11.732531 -1.6522312 0.043137256
-4.8779907 -15.11983 0.090700597 0.06666667
-7.5331144 -15.129035 -1.6012461 0.054901961
-5.6133595 -14.847705 0.37061903 0.062745102
-7.7475243 -15.532852 0.20125675 0.011764706
-7.5954695 -19.685905 -1.4903282 0.086274512
-7.2955666 -16.593803 -1.4988219 0.039215688
-6.7290173 -15.382021 0.29342642 0.05882353
-6.2807655 -19.085882 -1.2998279 0.027450981
-7.2407551 -14.576028 -0.96381497 0.047058824
-6.1606598 -16.182537 1.0158606 0.078431375
-6.2171593 -16.322132 -0.82446778 0.047058824
-8.3760862 -18.901684 -1.0967672 0.011764706
-5.8652477 -15.460747 2.0490215 0.047058824
-5.0653782 -15.650249 -0.67887926 0.027450981
-9.2366447 -18.347786 -0.7282455 0.031372551
-7.0735865 -18.406071 5.328011 0.05882353
-6.3455238 -14.560568 2.9285238 0.035294119
-6.4092503 -16.790466 -0.42497757 0.015686275
-1.7025545 -4.6005936 -2.3768208 0.011764706
-6.3969326 -19.178671 -0.35788748 0.054901961
-2.6010969 -7.4187741 -2.2514358 0.06666667
-3.7251842 -8.8781576 -1.967581 0.094117649
-7.6836996 -19.684036 -0.0025900644 0.015686275
-7.5186977 -14.961447 -0.20085615 0.031372551
-3.672436 -10.00403 -1.6879065 0.12941177
-5.0716515 -11.725702 -1.6542691 0.043137256
-4.9616394 -15.170723 0.091125168 0.050980393
-6.8282175 -15.439574 -0.10234338 0.05882353
-7.5423737 -15.006841 -1.5916046 0.023529412
-5.6825781 -14.853783 0.37134293 0.070588239
-8.6406288 -19.274242 -1.7435111 0.027450981
-5.3693972 -16.30879 0.50173193 0.074509807
-6.8957338 -15.582038 0.29780778 0.050980393
-7.336175 -14.620273 -0.96872061 0.043137256
-6.2426262 -16.204908 1.0188621 0.019607844
-6.9967937 -15.795436 0.70882356 0.043137256
-7.149312 -16.119398 -0.93756664 0.015686275
-5.9944849 -15.605016 2.0714307 0.070588239
-6.470294 -19.384014 -0.84115946 0.011764706
-7.9963398 -15.856127 -0.63113958 0.023529412
-7.1353407 -18.355549 5.3217716 0.031372551
-6.4081202 -14.548515 2.9313719 0.019607844
-6.8792915 -17.742933 -0.4496145 0.047058824
-1.7123604 -4.5798817 -2.3700657 0.0039215689
-6.5142183 -19.293713 -0.36048669 0.039215688
-9.6886168 -21.297169 -0.68970031 0.011764706
-2.6388681 -7.4364266 -2.260071 0.098039217
-3.7747271 -8.9023914 -1.9762212 0.078431375
-7.1479511 -14.148166 -0.19050066 0.043137256
-3.7195365 -10.01867 -1.6928378 0.12156863
-5.1040077 -11.688372 -1.6517605 0.031372551
-5.0213737 -15.170468 0.091222681 0.10588235
-5.1609449 -13.463487 -1.5750899 0.015686275
-6.9791098 -13.835632 -1.470437 0.0039215689
-5.7374802 -14.839587 0.37150931 0.082352944
-5.4507971 -16.35597 0.50380945 0.043137256
-6.9621382 -15.581492 0.29827559 0.023529412
-6.4762163 -19.189754 -1.3103598 0.05882353
-7.3739109 -14.568316 -0.96711379 0.062745102
-6.2744913 -16.122433 1.0151167 0.05882353
-7.0587721 -15.783698 0.70945346 0.027450981
-6.0596495 -15.607988 2.0748231 0.039215688
-7.2008638 -18.332451 5.322782 0.023529412
-7.3994055 -16.495502 3.3296065 0.05882353
-6.9627924 -17.76881 -0.45093876 0.027450981
-1.7322533 -4.5824113 -2.3751428 0.0039215689
-6.6276321 -19.405655 -0.36301544 0.047058824
-9.7366533 -21.216518 -0.68821698 0.011764706
-2.6755004 -7.4544559 -2.2687056 0.13333334
-3.8025286 -8.8847227 -1.9754487 0.082352944
-7.3055182 -18.415741 -0.0026968927 0.019607844
-7.2139139 -14.157971 -0.19098523 0.078431375
-3.7650402 -10.033841 -1.6977686 0.11764706
-5.1410217 -11.666239 -1.6512709 0.035294119
-5.0427952 -15.073282 0.090710513 0.074509807
-6.8880577 -15.295812 -0.10178319 0.027450981
-5.8053303 -14.86312 0.3726089 0.062745102
-7.8475609 -15.324943 0.19960536 0.031372551
-6.9399719 -17.551392 -1.3350846 0.031372551
-7.435503 -16.434715 -1.4920594 0.027450981
-4.9472551 -14.81176 0.45644978 0.047058824
-7.0085697 -15.545941 0.29804528 0.0078431377
-6.5219898 -19.11787 -1.3070612 0.011764706
-7.4336119 -14.563272 -0.96852869 0.05882353
-6.3279247 -16.099972 1.0150959 0.047058824
-7.2207613 -15.987956 -0.93300682 0.027450981
-6.1191025 -15.604532 2.0772414 0.050980393
-6.7397757 -14.986432 1.354682 0.019607844
-5.6546202 -16.746456 -0.72902042 0.031372551
-8.1098003 -15.808654 -0.63160229 0.023529412
-7.3082304 -18.417244 5.354857 0.031372551
-7.437005 -16.433851 3.3224092 0.023529412
-7.029459 -17.762478 -0.45142597 0.027450981
-1.7411108 -4.5620255 -2.3683872 0.011764706
-6.6032104 -19.141914 -0.35858682 0.086274512
-9.7685547 -21.103409 -0.68568701 0.0078431377
-2.7017157 -7.4475179 -2.2697933 0.1254902
-3.8422434 -8.8916702 -1.9801668 0.094117649
-7.8715725 -19.574709 -0.0026682487 0.019607844
-7.2608261 -14.132405 -0.19100444 0.027450981
-3.802943 -10.030641 -1.6996257 0.12156863
-5.1814117 -11.651129 -1.6517913 0.035294119
-5.094141 -15.058663 0.09071511 0.05882353
-7.0324841 -13.716027 -1.4630396 0.011764706
-6.8879013 -17.26647 0.43401849 0.023529412
-6.8481703 -13.377938 0.17410171 0.015686275
-6.9590244 -17.434942 -1.3281356 0.0039215689
-7.7980099 -17.043266 -1.5496707 0.0078431377
-4.9644632 -14.707448 0.45374954 0.10196079
-8.4377041 -18.359968 0.35317752 0.023529412
-6.3957644 -18.581602 -1.272068 0.023529412
-7.4933662 -14.557994 -0.9699437 0.043137256
-6.3374386 -15.974479 1.008559 0.054901961
-7.2540302 -15.920381 0.71788371 0.0039215689
-6.5854139 -16.557953 -0.84129226 0.05882353
-7.2876911 -15.991107 -0.93470192 0.011764706
-6.6954794 -16.813372 2.2415555 0.035294119
-6.9043159 -15.199157 1.3761483 0.027450981
-5.2861385 -15.5789 -0.6792866 0.019607844
-7.7477264 -15.022602 -0.60147542 0.039215688
-7.360178 -18.370022 5.3486209 0.043137256
-7.2905884 -18.212053 -0.46343166 0.019607844
-1.7570245 -4.5542688 -2.3683937 0.0078431377
-6.6531925 -19.072142 -0.35777712 0.054901961
-9.1072969 -19.566467 -0.63711363 0.011764706
-2.7353075 -7.4540825 -2.2751942 0.12156863
-3.8853285 -8.9012146 -1.9856699 0.094117649
-7.2965889 -14.080812 -0.19069885 0.019607844
-3.8316844 -10.001132 -1.6971804 0.098039217
-5.230773 -11.649139 -1.6543324 0.027450981
-5.080883 -14.863032 0.089591891 0.023529412
-7.028944 -15.3208 -0.10231104 0.031372551
-7.0803185 -13.689746 -1.4630592 0.019607844
-6.2288523 -15.569376 0.39158452 0.023529412
-7.8802414 -17.060841 -1.5539243 0.019607844
-4.9444084 -14.497365 0.44778407 0.050980393
-7.0684996 -15.401272 0.29618582 0.019607844
-6.4969063 -18.654739 -1.2787383 0.011764706
-7.7428122 -14.890237 -0.99391603 0.031372551
-6.334753 -15.8149 0.99992704 0.06666667
-7.3381968 -15.953157 -0.9340964 0.0078431377
-6.1184435 -15.311333 2.0440412 0.050980393
-6.8328609 -14.919096 1.3530135 0.035294119
-5.3418856 -15.562448 -0.67946982 0.023529412
-7.8136339 -15.018319 -0.60247397 0.015686275
-6.0631018 -15.180583 4.4260292 0.050980393
-6.4896126 -14.216729 2.8832169 0.047058824
-1.770494 -4.5395641 -2.3650196 0.011764706
-6.9308147 -19.595875 -0.36803305 0.015686275
-9.1807232 -19.534809 -0.63725853 0.0039215689
-2.7718215 -7.4634709 -2.2816739 0.1254902
-3.9300883 -8.9097967 -1.9911735 0.094117649
-7.2528486 -13.880984 -0.18843897 0.027450981
-3.8746159 -9.9997892 -1.6996536 0.098039217
-5.2751932 -11.631714 -1.6548545 0.035294119
-6.9716463 -15.063697 -0.1008509 0.047058824
-7.8874187 -19.231236 -2.2616253 0.023529412
-7.6784782 -14.646864 -1.5682892 0.050980393
-7.0272179 -17.250032 0.43490249 0.011764706
-6.8561983 -13.167936 0.17196652 0.050980393
-7.007247 -17.205662 -1.3147982 0.039215688
