# .PCD v0.7 - Point Cloud Data file format
VERSION 0.7
FIELDS x y z intensity
SIZE 4 4 4 4
TYPE F F F F
COUNT 1 1 1 1
WIDTH 1132
HEIGHT 1
VIEWPOINT 0 0 0 1 0 0 0
POINTS 1132
DATA ascii
34.09853 -72.373375 -2.8010297 0.11764706
12.563399 -20.693956 6.4386373 0.0039215689
14.240772 -23.535498 -0.64306855 0.011764706
2.6959686 -4.5700336 -2.4077015 0.0039215689
16.580278 -24.842169 -0.52628267 0.0078431377
4.6834397 -7.4559517 -2.4237661 0.10196079
4.9587178 -8.8921299 -2.0103905 0.082352944
15.048037 -25.097488 -0.0068626367 0.031372551
34.004456 -72.831177 -0.94585884 0.082352944
6.0273371 -9.7429619 -1.7615099 0.094117649
7.8633685 -14.441121 -2.078769 0.0039215689
14.056955 -23.413904 -2.9315262 0.0078431377
43.048962 -92.39106 -9.5173178 0.14509805
14.933077 -24.900951 0.66520602 0.023529412
34.430599 -73.74926 0.93432581 0.062745102
8.2207556 -13.476182 -1.0972492 0.015686275
13.349566 -24.921974 -2.3022408 0.0078431377
16.134132 -24.159645 0.83290297 0.043137256
15.518298 -23.222586 -1.7867486 0.0078431377
54.319866 -116.74645 -7.509335 0.15686275
15.756391 -26.30118 1.7693679 0.019607844
14.407921 -24.009369 -1.3037243 0.0078431377
8.0091648 -14.717994 -0.87464046 0.0039215689
15.108024 -22.595587 -1.1078471 0.043137256
33.842339 -72.483635 -2.8005707 0.11764706
4.0303626 -6.3387346 1.9673961 0
6.0953536 -11.057642 2.2725089 0
13.791944 -22.959902 -0.62602901 0.039215688
2.6766622 -4.5719209 -2.4043083 0.0039215689
17.583447 -26.575342 -0.5615595 0.019607844
13.151847 -24.75214 -0.81733572 0.0039215689
4.6573858 -7.4711947 -2.4237473 0.11764706
4.9186158 -8.8909168 -2.0064428 0.082352944
16.152576 -27.194769 -0.007243189 0.043137256
33.725014 -72.893822 -0.94497311 0.082352944
5.9952807 -9.7662945 -1.7621008 0.10196079
31.283169 -59.696228 -8.5728645 0.054901961
16.049131 -24.214632 0.16023652 0.019607844
42.75275 -92.597641 -9.5230465 0.14509805
14.900427 -25.045147 0.66776145 0.023529412
34.021255 -73.537071 0.93031627 0.062745102
8.225894 -13.59337 -1.104489 0.0078431377
13.256981 -24.956749 -2.3012004 0.031372551
16.078033 -24.258324 0.83446652 0.015686275
15.432791 -23.268858 -1.7861755 0.0078431377
54.742386 -118.74562 -7.6253428 0.15686275
15.401086 -25.902981 1.739068 0.050980393
14.221432 -23.882385 -1.2941328 0.015686275
54.383488 -104.20003 -6.1723547 0.24705882
6.1607294 -11.279889 1.0342287 0
15.085697 -22.734241 -1.1120452 0.023529412
33.619106 -72.665672 -2.8029137 0.11764706
4.0588045 -6.4384851 1.9943106 0
13.846473 -26.081963 5.35216 0.0039215689
13.844594 -23.234877 -0.63216174 0.027450981
2.6590295 -4.5769529 -2.4026055 0.015686275
4.6274242 -7.4796777 -2.4215701 0.10588235
4.8803744 -8.8930216 -2.0032804 0.05882353
14.870457 -25.196339 -0.0067345276 0.019607844
33.693676 -73.501656 -0.95114595 0.082352944
6.0125723 -9.8750744 -1.7780827 0.078431375
31.468523 -60.56966 -8.6824503 0.054901961
16.229076 -24.679491 0.16302966 0.023529412
42.335384 -92.538582 -9.5015984 0.14509805
33.878498 -73.905586 0.93367648 0.062745102
8.1963644 -13.652031 -1.1069725 0
15.843679 -24.081415 0.82655936 0.050980393
7.7606778 -14.486992 0.28054786 0.0039215689
14.788936 -25.053198 1.6786299 0.035294119
6.384222 -11.811839 0.53785229 0
2.1276579 -3.5405796 0.32317817 0
15.149251 -23.007353 -1.1227905 0.023529412
33.29747 -72.632317 -2.7969909 0.11372549
11.139011 -18.733942 5.7932296 0.0039215689
13.829443 -23.39625 -0.63519806 0.023529412
2.6496232 -4.5980654 -2.4093583 0.011764706
36.777962 -71.490685 -2.3492992 0.15294118
4.5955415 -7.4846997 -2.4183142 0.10196079
4.8368273 -8.8844852 -1.9977628 0.082352944
33.533749 -73.832954 -0.95374072 0.082352944
5.9780655 -9.8949413 -1.7780577 0.070588239
31.586849 -61.324924 -8.7748375 0.054901961
15.933614 -24.408173 0.16092089 0.031372551
7.1527534 -13.421109 -0.091207549 0
8.5811148 -14.434546 -1.7967631 0.0039215689
41.951645 -92.550377 -9.4875965 0.14509805
33.490627 -73.734184 0.93021834 0.062745102
14.551354 -24.846601 -2.0094335 0.019607844
13.234609 -25.344881 -2.328465 0.039215688
15.692684 -24.031126 0.82304049 0.050980393
6.1578097 -11.470547 0.22148681 0
15.84248 -24.268152 -1.8543336 0.0078431377
15.269539 -26.094336 1.7449949 0.082352944
14.336579 -24.471174 -1.3205454 0.0078431377
7.4277024 -12.418571 1.7538816 0
10.021199 -19.040792 1.7405105 0.0039215689
15.004196 -22.958052 -1.117821 0.023529412
5.3853388 -9.9539404 2.0345891 0
13.688016 -23.339243 -0.63232523 0.015686275
2.6376333 -4.6122904 -2.4127295 0.0078431377
36.598461 -71.725403 -2.3528726 0.15294118
4.5611763 -7.4821515 -2.4129014 0.10980392
4.8055696 -8.8959675 -1.9969565 0.078431375
16.008196 -27.596395 -0.0070897196 0.043137256
33.334362 -74.045021 -0.95488524 0.082352944
5.9608555 -9.941184 -1.7829589 0.054901961
30.666826 -60.012112 -8.5724239 0.054901961
15.809673 -24.392347 0.16053234 0.039215688
14.558782 -25.053102 -3.1115167 0.0078431377
41.597469 -92.582512 -9.4765854 0.14509805
33.325779 -74.022812 0.93264914 0.062745102
14.520187 -24.983885 -2.0166473 0.0039215689
13.038901 -25.16707 -2.3081894 0.031372551
15.696559 -24.213615 0.82760417 0.050980393
15.509268 -23.92201 -1.8239868 0.0078431377
53.87949 -120.1132 -7.6764441 0.15686275
14.600291 -25.119965 1.676667 0.050980393
36.728062 -71.973587 3.2729256 0.24705882
14.119011 -24.277945 -1.3075941 0.011764706
15.253846 -23.519373 -1.1426436 0.023529412
2.6679351 -5.2966251 -0.20458512 0
13.622412 -23.404346 -0.63283187 0.039215688
2.6198931 -4.6171684 -2.411027 0.0039215689
14.428999 -22.393162 -0.46902385 0.05882353
36.338898 -71.833786 -2.352109 0.15294118
4.5331383 -7.4936128 -2.4118035 0.10196079
4.7727294 -8.908123 -1.9961493 0.078431375
15.892107 -27.616209 -0.0070128483 0.019607844
33.762749 -75.714706 -0.97469115 0.082352944
5.9300032 -9.9677563 -1.784165 0.047058824
7.952487 -15.247021 -2.1751709 0.0039215689
15.705226 -24.415874 0.16039315 0.0078431377
5.8165374 -10.986155 -0.074597612 0
41.198395 -92.554886 -9.4588623 0.14509805
33.275734 -74.609558 0.9387778 0.062745102
8.0181017 -13.666549 -1.1015552 0
15.473291 -24.047377 0.82015711 0.015686275
2.4176071 -4.2103839 0.080199845 0
14.555697 -25.246212 1.6818309 0.023529412
36.096653 -71.342941 3.2387104 0.13333334
14.448546 -25.060242 -1.3469559 0.027450981
5.9728861 -10.039644 1.4122324 0
15.120483 -23.490282 -1.1386553 0.023529412
3.361949 -6.9173536 -0.26634046 0
13.821695 -23.948698 -0.64618158 0.039215688
2.6029549 -4.6215787 -2.4093249 0.011764706
14.577503 -22.795803 -0.47638652 0.0078431377
35.913509 -71.577011 -2.3396599 0.082352944
4.5045018 -7.5008759 -2.4096274 0.094117649
4.7414174 -8.9193802 -1.9953433 0.074509807
15.780896 -27.632841 -0.0069395681 0.06666667
33.180969 -75.070503 -0.9648279 0.082352944
5.9085016 -10.007048 -1.7878349 0.043137256
15.679364 -24.554953 0.16103537 0.031372551
8.3374205 -14.344095 -1.7752026 0.0039215689
40.876881 -92.657173 -9.4552965 0.14509805
5.6356916 -9.5172911 0.25057945 0
33.042583 -74.751457 0.939367 0.062745102
51.857296 -103.63484 -9.4675655 0.10588235
16.254929 -25.473421 0.86712188 0.094117649
15.458344 -24.204275 -1.8374701 0.0078431377
53.45472 -121.37495 -7.7331891 0.15686275
35.810032 -71.361038 3.2343364 0.13333334
13.859726 -24.204077 -1.2985066 0.035294119
35.899933 -71.552376 -4.2013373 0.24705882
14.951312 -23.393618 -1.1315609 0.015686275
34.367832 -77.783836 -2.9764037 0.24313726
4.3088355 -7.1455641 2.191998 0
10.070699 -19.622869 3.9918015 0.0039215689
13.777375 -24.056194 -0.64781189 0.035294119
2.5868742 -4.613709 -2.4010105 0.0078431377
35.636585 -71.660538 -2.3389895 0.082352944
4.470901 -7.4892817 -2.4011879 0.090196081
4.7141142 -8.928546 -1.9939595 0.078431375
15.80492 -27.899225 -0.0074481876 0.094117649
32.871334 -75.091492 -0.96424139 0.082352944
5.8806772 -10.027524 -1.7880614 0.043137256
29.696075 -59.618698 -8.4722309 0.054901961
15.577085 -24.577173 0.16031595 0.0078431377
8.2705059 -14.331729 -1.7703377 0.0078431377
4.373939 -9.3646345 -0.95553583 0
3.6918199 -6.0825448 0.15916875 0
32.853539 -75.047142 0.94089717 0.062745102
7.9275374 -13.713091 -1.101239 0.0078431377
50.92131 -102.67905 -9.3644104 0.10588235
16.161974 -25.518133 0.86614913 0.035294119
1.5183005 -2.4421425 0.045686658 0
15.479438 -24.422468 -1.8502823 0.0078431377
33.152588 -75.746895 -4.8195786 0.15294118
35.657864 -71.695068 3.2427342 0.24705882
14.146343 -24.913868 -1.3342439 0.031372551
35.402287 -71.188065 -4.1732121 0.11764706
6.6460915 -11.40137 1.597473 0
9.4952698 -18.622227 1.6903284 0.0039215689
14.94181 -23.555822 -1.1372765 0.035294119
33.011421 -75.417923 -2.8819916 0.24705882
4.6371055 -8.7664833 1.7792594 0
2.5739353 -4.6281357 -2.4043806 0.011764706
15.849535 -25.212721 -0.52485704 0.031372551
34.775417 -70.533234 -2.2980919 0.082352944
4.4447317 -7.5037508 -2.4011679 0.10980392
4.6880841 -8.9544287 -1.9962909 0.078431375
15.560797 -27.686832 -0.0073162988 0.019607844
32.623219 -75.237762 -0.96446729 0.082352944
5.8017979 -9.9672642 -1.7738744 0.035294119
30.128704 -61.032932 -8.6581621 0.054901961
15.491198 -24.630299 0.16038319 0.027450981
7.8559389 -15.434979 -0.10390702 0
8.2434454 -14.401222 -1.7754486 0.0078431377
32.881668 -75.85144 -7.7170877 0.14509805
33.009617 -76.134193 0.95330757 0.062745102
8.1798573 -14.284865 -1.144846 0.011764706
50.242344 -102.19958 -9.3044662 0.10588235
32.807629 -75.673935 -4.8074951 0.15294118
35.788143 -72.597237 3.2781262 0.24705882
35.053627 -71.105537 -4.1610546 0.11764706
35.805382 -72.627357 6.5851884 0.16862746
8.5113335 -13.303553 -0.64151484 0.0039215689
32.705368 -75.432426 -2.8780112 0.24705882
10.057624 -17.68565 5.4051619 0.0039215689
1.4839424 -2.3927965 0.48389268 0
2.5625014 -4.6457911 -2.409441 0.011764706
14.328297 -22.922596 -0.47623357 0.019607844
34.525517 -70.64592 -2.2976706 0.082352944
4.4148211 -7.5113683 -2.3989894 0.10196079
4.6533804 -8.9625864 -1.9946969 0.078431375
32.468395 -75.604057 -0.96751499 0.082352944
5.7669706 -9.9863634 -1.7738475 0.027450981
6.0963659 -11.941728 -1.6923919 0
15.386348 -24.652416 0.16024908 0.031372551
9.0433197 -18.024408 -0.12084711 0.0039215689
8.1816902 -14.407876 -1.772835 0.0039215689
32.146038 -74.857834 -7.6044712 0.14509805
34.163506 -79.586227 0.99531716 0.062745102
8.0821342 -14.224686 -1.1378134 0.0039215689
49.848808 -102.29792 -9.297348 0.10588235
15.900006 -25.491697 0.86166894 0.027450981
15.448059 -24.755947 -1.8673474 0.0078431377
32.529217 -75.753845 -4.8051991 0.15294118
35.156467 -71.940048 3.2431161 0.24705882
8.248044 -14.527966 -0.77558756 0
1.4822311 -2.4115829 -0.14230384 0
35.565536 -72.779488 6.5879803 0.16862746
14.599808 -23.367529 -1.1232334 0.015686275
3.9138997 -8.4639282 -0.32372102 0
13.550469 -24.236887 -0.64912862 0.035294119
2.5439463 -4.6466908 -2.4060471 0.011764706
34.754894 -71.724922 -2.328836 0.082352944
4.3898892 -7.5249314 -2.3989701 0.10196079
4.6270299 -8.9840031 -1.9962444 0.082352944
32.264107 -75.820847 -0.96873724 0.082352944
5.7677093 -10.066949 -1.7849032 0.023529412
8.0808277 -14.335981 -1.7607831 0.0039215689
32.363075 -76.067734 -7.7163267 0.14509805
8.5383854 -19.515726 0.24269971 0.0039215689
8.0900412 -14.352113 -1.1458898 0.0039215689
49.438568 -102.31429 -9.2837219 0.10588235
15.746934 -25.430439 0.85792345 0.054901961
15.26649 -24.642191 -1.8549621 0.027450981
32.299545 -75.911789 -4.8082728 0.15294118
34.845051 -71.903877 3.2364838 0.13333334
8.1788855 -14.515553 -0.77349508 0
34.636265 -71.480812 -4.1688738 0.11764706
35.382683 -73.018166 6.5992093 0.16862746
14.625904 -23.585617 -1.1313571 0.015686275
31.338989 -73.628731 -2.8007343 0.11764706
13.397635 -24.147041 -0.64550304 0.027450981
2.5346789 -4.6712089 -2.4144893 0.0078431377
14.37208 -23.359123 -0.48310339 0.050980393
34.316574 -71.482407 -2.3167076 0.082352944
4.3659229 -7.5466132 -2.4011071 0.090196081
4.5923853 -8.9962149 -1.9954344 0.082352944
31.970587 -75.900528 -0.96805835 0.082352944
5.7289028 -10.083393 -1.7842592 0.027450981
6.3264227 -12.641143 -1.7853682 0.023529412
15.20562 -24.74333 0.16029419 0.023529412
3.0116994 -5.6701989 -0.038844895 0
8.0564499 -14.416912 -1.7671791 0.0039215689
32.14843 -76.339104 -7.731751 0.14509805
3.7238715 -6.3475318 0.16495934 0
33.517754 -79.606499 0.99306023 0.062745102
8.0524845 -14.408644 -1.1480871 0.0039215689
48.900551 -102.15165 -9.2524624 0.10588235
15.395896 -25.058611 0.843557 0.043137256
15.054634 -24.495039 -1.8397477 0.015686275
31.400137 -74.539566 -4.7139297 0.15294118
6.234302 -11.020775 0.72492659 0
34.59156 -72.051613 3.2376578 0.13333334
8.2882109 -14.847015 -0.78952235 0
34.35001 -71.555649 -4.1657352 0.11764706
35.060001 -73.030991 6.5890169 0.16862746
14.640333 -23.805714 -1.1393098 0.035294119
30.558043 -72.517044 -2.7540359 0.11372549
13.305254 -24.18779 -0.64524728 0.027450981
2.5129945 -4.6654348 -2.4077137 0.0078431377
34.495495 -72.47715 -2.3450599 0.15294118
4.3300109 -7.5396152 -2.394614 0.094117649
4.5575109 -8.9997129 -1.9930567 0.074509807
7.4429984 -13.378475 -0.0041119279 0
31.71567 -75.997704 -0.96777558 0.082352944
5.6917171 -10.09432 -1.7830021 0.031372551
6.2607775 -12.610767 -1.7782574 0.019607844
15.0599 -24.686119 0.15966357 0.039215688
35.254581 -74.083641 -0.48925072 0.16470589
38.665081 -92.831635 -9.3886566 0.14509805
33.33149 -79.904678 0.99561065 0.062745102
48.289482 -101.73528 -9.2000399 0.10588235
15.031811 -24.638224 0.82779521 0.070588239
15.116604 -24.783682 -1.8576509 0.0078431377
32.003616 -76.701614 -4.8437552 0.15294118
34.277428 -72.005821 3.2306998 0.13333334
34.104027 -71.650055 -4.164505 0.11764706
34.844837 -73.203476 6.594399 0.16862746
14.430153 -23.633495 -1.1287735 0.035294119
30.311298 -72.602158 -2.7532954 0.11372549
7.7071829 -15.669611 3.1551268 0.0039215689
13.328394 -24.424841 -0.65034235 0.0039215689
2.4958785 -4.6734691 -2.4077008 0.0078431377
34.4496 -73.072876 -2.3600585 0.15294118
4.305944 -7.5611014 -2.3967502 0.11764706
4.5128775 -8.9903345 -1.9875365 0.082352944
30.472595 -73.753998 -0.93763191 0.054901961
5.6602182 -10.124454 -1.7848206 0.031372551
6.2044401 -12.610913 -1.7751884 0.0078431377
15.079399 -24.92584 0.16094474 0.0039215689
35.011597 -74.27282 -0.48944935 0.16470589
7.7253418 -14.034544 -1.7138954 0.015686275
30.796331 -74.55777 -7.5292439 0.14509805
33.0172 -79.97332 0.99518424 0.062745102
8.0858583 -14.716368 -1.1681496 0.0039215689
47.916279 -101.91046 -9.1997566 0.10588235
15.057557 -24.888079 0.83445096 0.015686275
8.3187885 -13.514122 -1.0113794 0
31.737391 -76.854218 -4.8458743 0.15294118
33.832264 -71.742363 3.2135382 0.13333334
33.859779 -71.81324 -4.1666145 0.11764706
34.761936 -73.726852 6.6303415 0.16862746
14.343432 -23.685078 -1.1287059 0.035294119
29.985989 -72.567307 -2.7476349 0.11372549
33.555126 -71.131126 14.302567 0.086274512
2.4825938 -4.6876431 -2.4110703 0.011764706
13.875443 -23.07749 -0.47415417 0.027450981
34.039803 -72.857788 -2.3491089 0.15294118
4.2848845 -7.5852332 -2.3999672 0.11764706
4.4682903 -8.9764633 -1.9812324 0.090196081
30.187946 -73.792091 -0.93659341 0.054901961
5.6138434 -10.122047 -1.7810998 0.023529412
6.0453887 -12.382936 -1.7402673 0.0078431377
15.286149 -25.477272 0.16426453 0.015686275
34.700031 -74.28096 -0.48851484 0.16470589
30.760036 -75.217499 -7.5848789 0.14509805
2.6930969 -5.8755016 0.071709216 0
8.1047773 -14.877738 -1.1787393 0.0039215689
47.432995 -101.80107 -9.1747103 0.10588235
14.948306 -24.901476 0.83324766 0.015686275
8.2432547 -13.493801 -1.0077494 0.0039215689
31.573811 -77.222557 -4.8619823 0.15294118
1.8017858 -2.8398325 0.18476036 0
33.595058 -71.887939 3.2150261 0.13333334
54.980442 -104.39573 -5.5110693 0.074509807
33.674339 -72.071297 -4.1746111 0.11764706
34.276566 -73.354614 6.58635 0.16862746
14.303189 -23.806269 -1.1320781 0.023529412
29.582499 -72.299896 -2.7334435 0.11372549
33.273544 -71.17527 14.288417 0.086274512
13.227483 -24.659054 -0.65395737 0.050980393
2.4616854 -4.6853032 -2.4059849 0.011764706
13.963991 -23.414925 -0.48002356 0.027450981
33.770271 -72.94236 -2.3478639 0.15294118
4.2495098 -7.5819607 -2.3945522 0.1254902
4.4401994 -8.998044 -1.9827788 0.098039217
31.075897 -76.754677 -0.97257066 0.082352944
5.5857611 -10.154521 -1.783535 0.019607844
5.9988198 -12.395657 -1.7392234 0
34.530582 -74.596878 -0.48960313 0.16470589
35.862625 -68.473877 -8.3252487 0.11372549
30.7195 -75.877861 -7.6405096 0.14509805
30.337667 -74.909172 0.9298321 0.062745102
54.588085 -104.53682 -8.2579756 0.16470589
46.872936 -101.51923 -9.1343431 0.10588235
34.959122 -75.527969 1.4376868 0.10980392
8.2503777 -13.614514 -1.014642 0
30.801996 -76.078369 -4.7830381 0.15294118
1.2452817 -1.7924621 0.11590002 0
33.252258 -71.803848 3.2062907 0.13333334
9.8909216 -20.880112 -1.2084955 0.0039215689
34.086788 -73.617645 6.5995407 0.16862746
14.385046 -24.13809 -1.1454318 0.015686275
28.52692 -70.397881 -2.6576505 0.10588235
33.124989 -71.508018 14.332337 0.086274512
12.975478 -24.384569 -0.64545554 0.035294119
2.4528105 -4.709281 -2.4144273 0.0078431377
13.87016 -23.441656 -0.47953635 0.039215688
35.196121 -76.756996 -2.4664385 0.15294118
4.2159691 -7.5819564 -2.3902159 0.10196079
4.4071417 -9.0088263 -1.9819698 0.10196079
31.707529 -79.129448 -1.0010185 0.082352944
5.550282 -10.172865 -1.7835078 0.015686275
34.251781 -74.675804 -0.48914436 0.16470589
33.772388 -65.00145 -7.8887177 0.10980392
29.720226 -74.13253 -7.4542241 0.14509805
29.704298 -74.076622 0.91839427 0.043137256
55.618111 -107.43614 -8.4713812 0.16470589
46.922367 -102.57039 -9.2139425 0.10588235
14.772099 -24.999567 0.83326751 0.035294119
34.968307 -76.249214 1.4493167 0.10980392
14.540963 -24.603451 -1.8286347 0.0078431377
30.977987 -77.297874 -4.852726 0.15294118
5.5383601 -10.146069 0.66130573 0
1.5560135 -2.731771 0.12045251 0
53.918346 -117.96018 -6.8092499 0.24705882
33.780121 -73.62619 6.5899873 0.16862746
14.236682 -24.076347 -1.14013 0.023529412
28.139507 -70.139214 -2.6440272 0.10588235
33.10807 -72.134377 14.435051 0.16078432
2.4335389 -4.7060652 -2.4093432 0.0039215689
13.884059 -23.63674 -0.48258567 0.050980393
34.437336 -75.717964 -2.4294362 0.15294118
4.1991363 -7.6079049 -2.3945136 0.10196079
4.38204 -9.0287971 -1.9835185 0.10196079
31.569981 -79.510582 -1.0044016 0.082352944
5.5218906 -10.196308 -1.7847145 0.015686275
5.8871408 -12.367977 -1.7300602 0.015686275
15.368026 -26.220705 0.16830523 0.0078431377
34.003857 -74.752876 -0.48877668 0.16470589
34.543037 -67.015228 -8.1198158 0.11372549
30.256392 -76.181664 -7.6505542 0.14509805
29.58264 -74.451485 0.92207724 0.062745102
1.8677863 -3.0410178 -0.24084067 0
46.06596 -101.53141 -9.1074286 0.10588235
34.707226 -76.310295 1.4485972 0.10980392
14.479496 -24.675722 -1.8306277 0.0078431377
30.734995 -77.393829 -4.8525448 0.15294118
36.86969 -71.550545 4.6645627 0.078431375
32.550323 -71.521538 3.1844158 0.13333334
7.2537107 -13.584774 -0.71457267 0
38.575264 -74.880775 10.309453 0.10196079
33.587959 -73.818176 6.5979605 0.16862746
14.123168 -24.054115 -1.1369625 0.015686275
28.056484 -70.576012 -2.6570215 0.10588235
4.9351735 -9.0410528 2.717598 0
33.193428 -72.929398 14.573594 0.16078432
36.846302 -71.514572 -1.8833717 0.10196079
13.82682 -23.747766 -0.48371524 0.019607844
35.097534 -77.980919 -2.497473 0.15294118
4.1664162 -7.6158981 -2.3923333 0.10588235
4.3441453 -9.0371923 -1.9819223 0.078431375
30.4081 -77.426758 -0.97642916 0.082352944
5.4791307 -10.209182 -1.7834535 0.019607844
5.8218307 -12.349427 -1.724463 0.015686275
34.071796 -75.67804 -0.4937402 0.16470589
34.393188 -67.359116 -8.1453609 0.11372549
30.211779 -76.934586 -7.7143464 0.14509805
5.6044583 -10.453753 0.26930937 0
4.1830397 -9.9530439 0.12188002 0
13.086199 -25.242664 -1.984321 0.0039215689
46.003796 -102.44185 -9.1729803 0.10588235
33.504799 -74.403725 1.4101528 0.10980392
14.445834 -24.837496 -1.8385091 0.027450981
30.1483 -76.765686 -4.8057361 0.15294118
37.47821 -73.436241 4.7784076 0.078431375
32.309647 -71.721436 3.1880322 0.13333334
2.0664992 -3.9282031 -0.22744872 0
38.176296 -74.807495 10.27949 0.10196079
33.413094 -74.189308 6.619946 0.16862746
14.018842 -24.086124 -1.1359092 0.015686275
28.015541 -71.274467 -2.679076 0.10980392
32.948425 -73.13414 14.58958 0.16078432
36.553379 -71.618637 -1.8822243 0.10196079
2.4137213 -4.734745 -2.4162247 0.0078431377
13.369431 -23.115629 -0.47036102 0.0078431377
4.140049 -7.6120882 -2.3871143 0.10196079
4.3135371 -9.0332651 -1.9781641 0.070588239
28.826689 -74.100723 -0.93379384 0.054901961
5.4470377 -10.216553 -1.7818109 0.019607844
5.8469024 -12.502872 -1.7433646 0.019607844
15.953051 -27.692383 0.17669293 0.039215688
33.840393 -75.850372 -0.49481124 0.16470589
28.950706 -74.436584 -7.4543462 0.14509805
28.915632 -74.328117 0.91762561 0.043137256
13.017567 -25.308525 -1.9863679 0.0039215689
45.136974 -101.43036 -9.0692654 0.10588235
33.276318 -74.570389 1.4104187 0.10980392
14.322762 -24.806749 -1.8330413 0.027450981
2.3844323 -5.3586879 -0.33651522 0
35.962811 -71.038513 4.6133485 0.050980393
31.872515 -71.390366 3.1677139 0.13333334
36.333172 -71.790413 -3.7566462 0.074509807
37.973999 -75.038544 10.292211 0.10196079
33.121067 -74.209587 6.610796 0.16862746
27.773767 -71.367081 -2.6794276 0.10980392
36.057217 -71.237251 -1.8697891 0.05882353
2.3959281 -4.7346535 -2.4128308 0.0078431377
13.666195 -23.815945 -0.4836503 0.027450981
3.6571782 -7.6093345 -0.24443842 0
4.1161156 -7.6240468 -2.387095 0.10196079
4.2709761 -9.0134268 -1.9710763 0.070588239
4.1158066 -7.6195264 -0.0029700829 0.0039215689
28.635063 -74.298294 -0.93497062 0.054901961
5.4078732 -10.218448 -1.7793225 0.019607844
5.8298836 -12.571051 -1.7504114 0.0078431377
15.916807 -27.832077 0.17734788 0.05882353
33.146065 -74.91481 -0.48786479 0.16470589
35.243919 -70.175858 -8.4583759 0.11372549
28.793287 -74.727142 -7.4742575 0.14509805
37.345203 -74.380775 1.917707 0.074509807
28.619316 -74.253113 0.91577959 0.043137256
55.67688 -111.23011 -8.7106676 0.16470589
44.717331 -101.34061 -9.0484724 0.10588235
33.033863 -74.655235 1.4102609 0.10980392
8.3705769 -14.36468 -1.060204 0.011764706
29.860296 -77.521729 -4.8410087 0.15294118
37.130993 -73.945679 4.7948585 0.078431375
31.490889 -71.130379 3.1519895 0.12941177
36.039814 -71.767258 -3.7493639 0.074509807
32.872856 -74.298164 -4.2635508 0.24705882
5.7762651 -10.953259 1.4988018 0
31.33882 -70.777527 6.2964578 0.078431375
13.953612 -24.329927 -1.1434722 0.015686275
27.95936 -72.528809 -2.7195666 0.10980392
35.833248 -71.349159 -1.8696067 0.05882353
2.3777316 -4.7425842 -2.4128163 0.0078431377
13.621239 -23.950924 -0.4852697 0.0078431377
32.973972 -75.310928 -2.4012179 0.15294118
4.091918 -7.6489263 -2.3903077 0.11764706
4.2332168 -9.021328 -1.9694786 0.078431375
4.0635276 -7.5873919 -0.0029375581 0.0039215689
29.294167 -76.914276 -0.96619725 0.082352944
5.3685975 -10.237902 -1.7792906 0.023529412
15.813704 -27.898741 0.17748095 0.05882353
32.81361 -74.937523 -0.4869678 0.16470589
35.030468 -70.423599 -8.4718857 0.11372549
28.570717 -75.007378 -7.4911489 0.14509805
36.979759 -74.360977 1.9137824 0.074509807
27.949087 -73.339378 0.90339798 0.043137256
56.923435 -114.83843 -8.975749 0.16470589
44.199448 -101.21407 -9.0217552 0.10588235
32.785145 -74.868347 1.4121543 0.10980392
7.935605 -13.711436 -1.0098573 0
29.383673 -77.159988 -4.8111892 0.15294118
5.8356276 -11.181234 0.72243255 0
32.486317 -74.175652 3.2817278 0.24705882
35.400082 -71.165588 -3.7106597 0.047058824
4.8766532 -10.502844 -0.60300612 0
6.9455986 -13.431182 1.8347374 0
34.459522 -78.719872 6.9917107 0.16862746
27.729982 -72.765335 -2.7242446 0.10980392
35.488308 -71.341522 -1.8656348 0.05882353
2.3625925 -4.7530646 -2.4144938 0.0078431377
4.9645448 -8.428278 -0.17141059 0
32.663563 -75.31424 -2.3975008 0.15294118
4.0635037 -7.6585808 -2.3892069 0.12156863
4.2001538 -9.0313225 -1.9686681 0.090196081
2.4583762 -4.369442 -0.0023240149 0
28.994776 -76.932487 -0.96495163 0.082352944
5.3345628 -10.259008 -1.7798771 0.023529412
26.792921 -61.6549 -8.5509443 0.054901961
15.594667 -27.731903 0.17614706 0.0078431377
32.441353 -74.793213 -0.48509425 0.16470589
1.1784208 -1.7501419 -0.21175425 0.0078431377
34.838936 -92.630989 -9.238533 0.14509805
36.744545 -74.53878 1.915287 0.074509807
2.3121946 -5.3361945 0.064256907 0
56.28928 -114.55849 -8.9382238 0.16470589
32.601456 -75.177635 -6.6911044 0.10588235
5.9453382 -10.208627 0.33534017 0
33.59201 -77.469086 1.4592767 0.10980392
8.2150002 -14.332375 -1.0534447 0.0039215689
28.384899 -75.303986 -4.6891551 0.15294118
35.472912 -71.931625 4.6478128 0.078431375
32.153072 -74.114868 3.274307 0.24705882
35.205826 -71.398903 -3.716248 0.047058824
32.814339 -75.668961 -4.3279586 0.24705882
37.637627 -76.352493 10.418938 0.10196079
30.858482 -71.094528 6.3049989 0.078431375
13.747908 -24.380186 -1.1410341 0.0078431377
44.884777 -119.57562 -4.4695854 0.24705882
7.1170502 -15.8143 3.1344969 0.0039215689
35.383007 -71.758461 -1.8731165 0.05882353
2.3462298 -4.7561188 -2.412791 0.0078431377
32.434616 -75.433861 -2.3978951 0.15294118
4.0192719 -7.6287036 -2.3762403 0.11764706
4.1779032 -9.0578995 -1.9717854 0.082352944
2.3870611 -4.2573466 -0.0022914275 0
28.80418 -77.161018 -0.96649623 0.082352944
5.295413 -10.260479 -1.7773887 0.023529412
26.496536 -61.496803 -8.5174189 0.054901961
34.427849 -80.112442 -0.51858807 0.16078432
1.1694473 -1.7456633 -0.21089171 0.0078431377
5.1987305 -13.210911 -1.3173951 0.0039215689
35.533386 -72.637695 1.8637315 0.074509807
27.693369 -74.147621 0.91149992 0.043137256
55.979576 -114.83791 -8.9460421 0.16470589
32.644592 -75.935295 -6.7492614 0.10588235
33.810604 -78.65876 1.4799166 0.10980392
8.2292757 -14.465687 -1.0613629 0.0039215689
28.632092 -76.702965 -4.7704883 0.15294118
35.764095 -73.108894 4.7168727 0.078431375
32.012432 -74.43145 3.284071 0.24705882
34.876781 -71.292404 -3.7048595 0.047058824
30.447191 -70.768486 -4.0421634 0.10980392
37.317894 -76.304977 10.396739 0.10196079
8.2794619 -14.556932 -0.68070877 0.0039215689
45.111008 -121.34641 -4.53017 0.24705882
3.192549 -6.7370744 1.3327721 0
34.914955 -71.368073 -1.8599087 0.05882353
13.484399 -24.290546 -0.48916039 0.05882353
32.019741 -75.223129 -2.3872728 0.15294118
3.9829516 -7.6248436 -2.3708229 0.098039217
4.1309733 -9.0394402 -1.9646941 0.078431375
28.506098 -77.223564 -0.96575618 0.082352944
5.257771 -10.27864 -1.7773581 0.043137256
26.306393 -61.676445 -8.5288668 0.054901961
34.07497 -80.09684 -0.51745033 0.16078432
2.3312285 -5.502759 -0.54891884 0
35.135345 -72.492287 1.8569242 0.074509807
28.016563 -75.878105 0.93177217 0.062745102
55.045357 -113.97281 -8.8626413 0.16470589
31.469831 -73.926071 -6.5603127 0.10588235
4.304215 -7.3464327 0.24004252 0
33.404041 -78.500862 1.4748799 0.10980392
8.3872662 -14.884156 -1.089803 0.0039215689
40.932095 -111.28403 -6.9109015 0.15686275
34.531254 -71.229668 4.5876799 0.050980393
34.587574 -71.360947 -3.7016587 0.047058824
30.172098 -70.841621 -4.0398574 0.10980392
37.288925 -76.962547 10.468045 0.10196079
32.71497 -76.855515 6.7967334 0.16862746
8.246994 -14.624652 -0.6824646 0.0039215689
4.5193276 -11.497956 -0.43004373 0
34.722389 -71.638588 -1.863444 0.05882353
2.3191161 -4.7872162 -2.4212182 0.0078431377
32.157295 -76.292709 -2.4174428 0.15294118
3.9430773 -7.6097512 -2.3621702 0.10588235
4.0963764 -9.0454426 -1.9630989 0.070588239
1.7409532 -3.9268215 -0.050491139 0
5.2201624 -10.292236 -1.7767134 0.035294119
33.801342 -80.228928 -0.51732129 0.16078432
4.4512973 -8.6753979 -1.0380183 0
32.167465 -88.22773 -8.765564 0.14509805
35.026443 -72.916656 1.8648932 0.074509807
27.777338 -76.045784 0.93285996 0.062745102
54.763783 -114.40816 -8.8813343 0.16470589
32.123428 -76.219872 -6.753715 0.10588235
32.572266 -77.279747 1.4500037 0.10980392
8.100997 -14.476183 -1.0579419 0.0039215689
37.212273 -102.19659 -6.3383703 0.15686275
4.2668142 -8.285078 0.5314489 0
34.463612 -71.743515 -3.7150898 0.047058824
30.001547 -71.129707 -4.0501504 0.11372549
37.035404 -77.123352 10.472646 0.10196079
32.253021 -76.504517 6.7560019 0.16862746
8.1731958 -14.609974 -0.68045938 0.0039215689
43.769199 -120.35529 -4.4807839 0.24705882
9.8327665 -19.97139 5.9219561 0.0039215689
34.28653 -71.368248 -1.8531234 0.05882353
2.2927096 -4.7707047 -2.4093685 0.0078431377
13.372795 -24.491255 -0.49120855 0.0078431377
30.446449 -72.907608 -2.3067026 0.082352944
3.9164908 -7.6223478 -2.3621488 0.094117649
4.0677714 -9.065814 -1.9646436 0.074509807
36.450104 -76.599297 -0.014611903 0.24313726
28.502939 -78.921387 -0.98404008 0.082352944
5.1842041 -10.309273 -1.7766843 0.043137256
5.6495323 -12.8936 -1.7790138 0
5.8436875 -10.36 0.064476483 0
33.333206 -79.890602 -0.51417929 0.16078432
6.2579203 -12.585402 -1.5026037 0
31.827166 -88.24836 -8.7563896 0.14509805
35.970936 -75.579987 1.930081 0.074509807
27.506338 -76.126083 0.93288487 0.062745102
54.243256 -114.34128 -8.8611555 0.16470589
30.800762 -73.773277 -6.5273061 0.10588235
5.7833552 -10.246354 0.33418465 0
32.096115 -76.892845 1.4408594 0.10980392
44.994087 -83.845787 -6.1083436 0.24705882
36.734478 -101.9863 -6.3171282 0.15686275
34.016113 -71.430611 4.5857644 0.050980393
34.172066 -71.775528 -3.7104049 0.047058824
29.754601 -71.23658 -4.0501614 0.11372549
35.974899 -75.574112 10.245498 0.10196079
31.30208 -74.961128 6.6102972 0.16862746
43.750725 -121.6319 -4.5222898 0.24705882
34.160019 -71.746796 -1.8596659 0.05882353
2.2768776 -4.777216 -2.4093559 0.011764706
30.245409 -73.107018 -2.3096638 0.082352944
3.8928244 -7.6377163 -2.3632071 0.10196079
4.0347166 -9.0709267 -1.9630495 0.070588239
35.887539 -76.059204 -0.01429544 0.24313726
5.1516633 -10.328921 -1.7772721 0.043137256
6.5457807 -11.771552 0.0733684 0
33.107494 -80.095871 -0.51458395 0.16078432
33.092854 -70.096771 -8.3484402 0.11372549
31.563541 -88.434982 -8.7643442 0.14509805
35.610004 -75.462311 1.9242752 0.074509807
27.061863 -75.67276 0.9264251 0.062745102
53.057697 -112.79527 -8.7274647 0.16470589
30.978754 -74.907059 -6.6183677 0.10588235
31.590967 -76.387054 1.4296213 0.10980392
36.396088 -102.10649 -6.3168612 0.15686275
33.682636 -71.335747 4.5727348 0.050980393
3.694999 -8.2364273 0.36006337 0
33.911873 -71.84034 -3.7077847 0.047058824
31.237 -75.533432 -4.2883143 0.24705882
34.661068 -73.418991 9.9379969 0.10196079
30.965721 -74.849442 6.5916462 0.16862746
43.099453 -121.07418 -4.4959464 0.24705882
34.069267 -72.173759 -1.8676217 0.05882353
30.346485 -74.127853 -2.3381858 0.15294118
3.8680413 -7.6577463 -2.3653421 0.082352944
3.9999712 -9.0808392 -1.9622382 0.062745102
34.685665 -74.196373 -0.013741706 0.24705882
42.701611 -121.35574 -1.5079252 0.082352944
5.1087904 -10.335794 -1.775395 0.047058824
5.4938579 -12.768655 -1.7566986 0.0078431377
30.241421 -73.864784 -0.47374898 0.074509807
32.710392 -69.945763 -8.3160591 0.11372549
27.923105 -79.050964 -7.8242059 0.14509805
26.722345 -75.592773 0.92447001 0.062745102
52.69088 -113.08921 -8.7349586 0.16470589
30.284994 -73.984283 -6.5268941 0.10588235
30.103586 -73.520844 1.3740832 0.074509807
8.0841913 -14.814973 -1.0765468 0.0039215689
33.243046 -71.073448 4.5483589 0.050980393
33.725571 -72.129761 -3.7161608 0.047058824
29.31654 -71.588432 -4.0581555 0.11372549
34.613678 -74.023453 10.00297 0.10196079
30.626801 -74.802345 6.5778904 0.16862746
11.100294 -20.5718 -0.95202136 0.0078431377
42.655407 -121.23016 -4.4955964 0.24705882
4.1772738 -9.5110283 1.868488 0
33.915417 -72.536461 -1.8735884 0.05882353
2.2507279 -4.8112779 -2.4194736 0.011764706
29.54294 -72.873947 -2.295229 0.082352944
3.8428934 -7.6735806 -2.3663995 0.10196079
3.96679 -9.089982 -1.961428 0.05882353
35.202221 -76.006371 -0.013805498 0.24313726
28.947758 -82.898331 -1.0290779 0.082352944
5.0743284 -10.356033 -1.7759813 0.050980393
5.4079137 -12.683507 -1.7425088 0
5.2776055 -9.5369434 0.058981247 0
4.8158979 -11.203784 -0.073022768 0
33.129398 -71.50428 -8.4874506 0.11372549
32.32185 -92.688225 -9.1623354 0.14509805
36.153248 -78.075294 1.9848146 0.074509807
26.65675 -76.259125 0.93171054 0.062745102
52.234234 -113.13715 -8.7242937 0.16470589
30.155624 -74.410362 -6.5550413 0.10588235
29.867603 -73.676308 1.375259 0.074509807
2.2283592 -5.5176344 -0.34195545 0
33.024727 -71.253235 4.5527349 0.050980393
35.001633 -75.57608 -3.8871715 0.074509807
28.990662 -71.500122 -4.0472569 0.11372549
34.293793 -74.009178 9.9851637 0.10196079
30.380341 -74.944649 6.5813494 0.16862746
37.881107 -72.306557 -3.3359935 0.24705882
3.064214 -7.9381557 -0.29544476 0
33.625313 -72.573318 -1.8713236 0.05882353
2.2275774 -4.7970996 -2.4093165 0.015686275
12.968541 -24.531551 -0.48825449 0.05882353
30.094833 -74.931015 -2.3568311 0.15294118
3.8171728 -7.6811004 -2.3653011 0.082352944
3.936765 -9.097743 -1.9606202 0.070588239
34.30217 -74.662926 -0.013381918 0.24705882
28.703993 -83.037041 -1.0294816 0.082352944
5.0352211 -10.356524 -1.7734931 0.050980393
24.819836 -61.667568 -8.4550562 0.054901961
31.834917 -79.30661 -0.50677264 0.16470589
32.856838 -71.502029 -8.4748287 0.11372549
27.270723 -78.859215 -7.7869582 0.14509805
35.844837 -78.049164 1.9814987 0.074509807
26.083281 -75.364998 0.9199602 0.043137256
2.4202719 -4.6080689 -0.35633904 0
30.149858 -75.078018 -6.6053681 0.10588235
29.525225 -73.490005 1.3702404 0.074509807
5.2974219 -9.6502819 -0.69933832 0
29.930773 -86.636223 -5.3401804 0.14901961
33.498795 -72.889366 4.6508102 0.078431375
34.76403 -75.684669 -3.8869798 0.074509807
30.028378 -74.767517 -4.2266474 0.24705882
33.819309 -73.58432 9.9137764 0.10196079
31.070869 -77.369087 6.7859778 0.16862746
37.60981 -72.338936 -3.3318825 0.24705882
41.462605 -120.37345 -4.4529963 0.24705882
33.523033 -72.954208 -1.8782554 0.10196079
2.2241495 -4.817544 -2.4162006 0.011764706
27.912487 -70.165031 -2.2043183 0.078431375
3.7978556 -7.6938591 -2.3654583 0.10196079
3.9122679 -9.1109266 -1.9607651 0.06666667
34.002491 -74.710464 -0.014080716 0.24705882
52.323902 -153.9624 -1.9056966 0.082352944
5.0061069 -10.373724 -1.7736722 0.047058824
24.615089 -61.790325 -8.4600477 0.054901961
3.9950769 -7.1695952 0.04365056 0
31.48979 -79.261597 -0.50629562 0.16470589
31.571045 -92.526772 -9.1252832 0.14509805
26.172689 -76.516235 0.93253791 0.062745102
51.736683 -114.0775 -8.770339 0.16470589
30.33205 -76.329796 -6.7062659 0.10588235
37.814449 -73.368874 2.3804824 0.24705882
29.337624 -73.7827 1.373199 0.074509807
29.742826 -87.103714 -5.3626661 0.14901961
32.350986 -71.037315 4.5243979 0.050980393
4.2276711 -9.9081278 0.43094859 0
53.486347 -117.95465 -6.0480037 0.074509807
28.593689 -71.901917 -4.0593247 0.11372549
33.302395 -73.138306 9.8366346 0.10196079
3.8302729 -8.8964481 0.7777434 0
37.305729 -72.382713 -3.3285198 0.24705882
41.039715 -120.55389 -4.454586 0.24705882
33.852249 -74.380692 -1.9124835 0.10196079
2.2046943 -4.8173685 -2.4128046 0.011764706
3.4489112 -8.0105486 -0.25274965 0
3.770977 -7.7059169 -2.3654351 0.10196079
3.8761768 -9.1124058 -1.9583834 0.086274512
33.925777 -75.240273 -0.013924832 0.24705882
2.4432325 -6.3236508 -0.079722278 0
4.9618115 -10.371935 -1.7705637 0.039215688
24.370495 -61.80077 -8.4497538 0.054901961
30.72706 -78.121086 -0.49812481 0.16470589
5.9149818 -12.506227 -1.4790312 0
4.1674013 -11.491312 -1.1334372 0.0039215689
28.37767 -84.011681 1.0230892 0.062745102
51.05352 -113.61862 -8.7210636 0.16470589
3.1360242 -7.2071967 -0.63386357 0
37.59425 -73.570595 2.3830168 0.24705882
29.145159 -74.051216 1.3765382 0.074509807
29.288164 -86.755112 -5.3347039 0.14901961
32.203777 -71.37471 4.5389919 0.050980393
53.098728 -118.19423 -6.0504518 0.074509807
30.477245 -77.487419 -4.3683386 0.24705882
33.13755 -73.455933 9.8641186 0.10196079
30.639679 -77.880623 6.8113518 0.16862746
8.7913809 -16.703669 -0.76797915 0.0039215689
39.952919 -118.70072 -4.3806534 0.24705882
3.8621035 -9.0681324 1.7716191 0
35.071053 -77.809181 -1.9972016 0.10196079
2.1839614 -4.8137317 -2.4077179 0.011764706
35.928452 -70.900833 -1.4010799 0.18431373
28.131697 -72.199135 -2.2616007 0.078431375
3.7393842 -7.7073112 -2.3621757 0.10980392
3.8387103 -9.1100855 -1.9552171 0.094117649
33.71471 -75.474144 -0.013718817 0.24705882
28.236782 -84.576637 -1.0446681 0.082352944
4.9271755 -10.391654 -1.7711483 0.023529412
5.2570982 -12.793157 -1.7481276 0
31.046358 -79.764603 -0.50765073 0.16470589
32.235611 -72.146454 -8.5106907 0.11372549
26.188473 -78.385391 -7.7124276 0.14509805
33.229961 -74.374519 1.8788669 0.074509807
28.075462 -84.082474 1.0230101 0.062745102
50.977768 -114.52121 -8.7763672 0.16470589
29.013521 -74.498573 -6.5272279 0.10588235
37.278 -73.582291 2.3794239 0.24705882
29.119322 -74.755966 1.3879957 0.10980392
61.204697 -121.25755 -8.7223368 0.24705882
38.88187 -116.85576 -7.1764016 0.15686275
33.319485 -74.571396 4.73522 0.078431375
2.7838554 -6.3657579 0.27559388 0
53.485802 -120.18655 -6.1425209 0.074509807
28.167107 -72.295059 -4.0700183 0.11372549
32.98695 -73.809593 9.8964739 0.10196079
5.71246 -13.969215 1.2188563 0
36.926826 -72.892685 -3.3396943 0.24705882
38.798145 -116.59471 -4.2976403 0.24705882
2.918395 -5.8432631 1.7097925 0
8.282217 -20.63666 4.0281997 0.0039215689
34.810555 -77.955574 -1.9976245 0.10196079
2.1705678 -4.8266273 -2.4110863 0.011764706
35.686005 -71.004158 -1.400594 0.18431373
28.419117 -73.673256 -2.3046086 0.082352944
3.7153518 -7.7221017 -2.3632324 0.1254902
3.8042901 -9.1106739 -1.9528369 0.082352944
33.833591 -76.427032 -0.013637331 0.24313726
27.936319 -84.607872 -1.0436847 0.082352944
4.8895164 -10.399597 -1.7698879 0.027450981
29.797049 -77.283386 -0.49107122 0.16470589
31.426315 -70.9515 -8.3573465 0.11372549
25.434389 -76.956192 -7.5633931 0.14509805
33.050575 -74.637016 1.8829618 0.074509807
49.79847 -112.8649 -8.6365223 0.16470589
29.899492 -77.566025 -6.7870708 0.10196079
37.131817 -73.901253 2.3859951 0.24705882
28.966726 -75.101387 1.3928539 0.10980392
38.494164 -116.98297 -7.1760783 0.15686275
31.712391 -71.579002 4.538712 0.050980393
28.436186 -73.705833 3.2038059 0.13333334
31.431639 -70.954414 -3.6215434 0.043137256
28.043898 -72.693039 -4.0870166 0.11372549
32.734032 -73.899269 9.894248 0.10196079
28.733805 -74.479164 6.4971642 0.078431375
36.763287 -73.171066 -3.3466814 0.24705882
38.390221 -116.65702 -4.29494 0.24705882
4.3444328 -10.518548 2.04989 0
33.489113 -75.644897 -1.9354213 0.10196079
2.1554186 -4.8401246 -2.4144528 0.011764706
35.414909 -71.111748 -1.3999457 0.18431373
28.167234 -73.824348 -2.3058989 0.082352944
3.6793609 -7.7167873 -2.3578141 0.10588235
3.7681055 -9.116004 -1.9512391 0.082352944
32.852577 -74.934776 -0.01314952 0.24705882
4.851367 -10.416236 -1.7698553 0.039215688
29.517822 -77.4021 -0.49090314 0.16470589
7.4505372 -16.405708 -1.9306029 0.0039215689
2.599776 -7.0387254 -0.69247931 0
32.805443 -74.822449 1.8848603 0.074509807
50.791725 -116.28864 -8.8838835 0.16470589
28.771191 -75.435638 -6.59131 0.10588235
36.156593 -72.608543 2.3402028 0.24705882
28.080254 -73.585472 1.3630369 0.074509807
37.759018 -116.17186 -7.1175179 0.15686275
30.874273 -70.367477 4.4549551 0.050980393
28.139046 -73.737274 3.200948 0.13333334
31.040941 -70.767372 -3.6060128 0.043137256
0.75765359 -1.1279391 -0.064962484 0.0078431377
32.407616 -73.89003 9.8774376 0.10196079
28.463436 -74.590202 6.498045 0.078431375
36.180115 -72.666122 -3.317338 0.24705882
27.630487 -84.727669 -3.1158919 0.23921569
32.982395 -75.237671 -1.9217035 0.10196079
2.1372447 -4.8430705 -2.4127479 0.011764706
35.990452 -72.918808 -1.4328028 0.24705882
28.02256 -74.224495 -2.3151393 0.082352944
3.6539223 -7.7319708 -2.35887 0.10980392
3.7362611 -9.1279469 -1.9512123 0.078431375
2.8831456 -5.9341154 -0.0025110533 0
37.993011 -118.29647 -1.4545437 0.082352944
4.8102961 -10.42106 -1.7679778 0.031372551
5.0798702 -12.728793 -1.7323449 0
29.388662 -77.882019 -0.49306375 0.16470589
1.0622194 -1.698195 -0.20107317 0.0078431377
4.5356426 -13.205993 -1.2962482 0.0039215689
7.8161507 -17.409691 0.4367356 0
33.479916 -77.127991 -5.8836637 0.16078432
28.647022 -75.908005 -6.6236734 0.10588235
35.469036 -71.845955 2.3118546 0.24705882
27.542206 -72.928711 1.3493021 0.074509807
5.8028212 -11.187584 -0.80200535 0
27.406656 -85.05439 -5.2054181 0.14901961
31.167816 -71.72831 4.5345092 0.050980393
7.5470653 -19.335936 0.8371684 0.0078431377
30.673811 -70.595146 -3.5916145 0.043137256
6.1689568 -13.574832 1.8107277 0
35.942039 -72.823143 -3.3185906 0.24705882
27.307873 -84.73864 -3.1125686 0.23921569
6.3469353 -16.113987 3.1327472 0.0039215689
32.68008 -75.259338 -1.9191391 0.10196079
2.1211731 -4.8490362 -2.4127343 0.011764706
4.0436792 -7.6534157 -0.15158163 0
27.528328 -73.644531 -2.2940333 0.082352944
3.62977 -7.7464943 -2.3599269 0.086274512
3.7100456 -9.1502304 -1.9535413 0.086274512
32.471836 -75.459854 -0.0127591 0.24705882
37.698967 -118.73357 -1.4580548 0.082352944
4.7695184 -10.421312 -1.7654866 0.023529412
29.153788 -78.04174 -0.49324802 0.16470589
1.030094 -1.6384039 -0.19377658 0.0078431377
4.4954104 -13.23126 -1.2973278 0.0039215689
33.389179 -77.609764 1.9498665 0.074509807
32.057682 -74.498787 -5.6748872 0.16470589
4.648838 -11.690102 -1.0202117 0
35.178246 -71.854149 2.3085904 0.12156863
28.033195 -75.003189 1.386229 0.074509807
1.3568869 -3.2559321 -0.20065257 0
30.205212 -70.129181 4.42729 0.050980393
30.314293 -70.401306 -3.5764813 0.043137256
39.686054 -106.57275 -5.966629 0.24705882
32.045502 -74.438995 9.9221783 0.10196079
35.593975 -72.721458 -3.3084071 0.24705882
37.078907 -116.77084 -4.2837129 0.24705882
2.5224211 -5.9273896 1.1500329 0
32.491432 -75.509689 -1.9225767 0.10196079
2.1009033 -4.8487558 -2.4093375 0.011764706
5.7785659 -11.336845 -0.22332034 0
50.590118 -137.64441 -4.2800198 0.15686275
3.5938773 -7.7407866 -2.3545086 0.10196079
3.672451 -9.1515007 -1.9511585 0.078431375
32.254105 -75.717209 -0.012543648 0.24705882
37.274227 -118.90411 -1.4581139 0.082352944
4.7343621 -10.444795 -1.7666849 0.047058824
4.9718394 -12.709453 -1.7251936 0.0078431377
36.867222 -76.049088 0.47430792 0.10980392
29.029459 -78.59021 -0.4957951 0.16470589
29.499584 -69.199898 -8.1008549 0.11372549
32.465996 -76.215927 1.912083 0.074509807
32.337749 -75.927238 -5.7744565 0.16470589
28.257233 -76.489594 -6.6567883 0.10588235
34.897339 -71.945343 2.3076611 0.12156863
27.725191 -75.014046 1.384794 0.074509807
55.107422 -114.03294 -8.1310329 0.24705882
22.042879 -69.888397 -4.267756 0.074509807
30.191559 -70.815872 4.4639373 0.050980393
30.042097 -70.477585 -3.5745814 0.043137256
40.277462 -109.40664 -6.1166701 0.24705882
31.795595 -74.609566 9.9297152 0.10196079
28.858376 -78.104927 6.7785983 0.16862746
35.384323 -72.969101 -3.3135731 0.24705882
37.006485 -118.05003 -4.3253036 0.24705882
32.657196 -76.677238 -1.9490125 0.10196079
2.086426 -4.8617277 -2.4127049 0.023529412
34.150398 -71.031349 -1.388091 0.18431373
43.960693 -120.79507 -3.7511842 0.15686275
3.5623863 -7.7414694 -2.3512495 0.10588235
3.6311605 -9.1372871 -1.9456379 0.070588239
32.44883 -76.928169 -0.012473885 0.24313726
2.5227544 -7.138093 -0.088948406 0
4.7009182 -10.467398 -1.7678847 0.050980393
4.9786534 -12.867396 -1.744363 0
36.089119 -75.099937 0.46780977 0.10980392
28.654387 -78.411514 -0.49381688 0.16470589
28.078337 -66.475357 -7.7703919 0.10980392
24.489836 -78.742287 -7.6946893 0.14509805
31.942455 -75.711357 1.8968565 0.074509807
1.4141765 -2.5914955 -0.19841669 0
5.1067219 -13.220575 -1.1504709 0
34.584106 -71.935593 2.3037126 0.12156863
27.380287 -74.879753 1.3807783 0.074509807
54.880611 -114.58389 -8.1563396 0.24705882
27.123589 -87.318428 -5.325716 0.14901961
29.904171 -70.823853 4.4581146 0.050980393
4.1151371 -10.471618 0.45100346 0
29.843613 -70.695175 -3.580158 0.043137256
1.5776756 -3.4480762 -0.19413072 0
31.538015 -74.72625 9.9309111 0.10196079
28.551683 -78.110275 6.7707005 0.16862746
2.5401962 -7.1954069 -0.26487893 0
3.5458491 -8.8925714 1.7216088 0
32.095097 -76.084778 -1.9309119 0.10196079
2.0694439 -4.8678284 -2.4126909 0.011764706
34.687286 -72.812775 -1.4202945 0.24705882
43.537449 -120.94289 -3.7507133 0.15686275
3.5368135 -7.7562637 -2.3523049 0.10196079
3.5939684 -9.133975 -1.9424716 0.094117649
33.401096 -79.993385 -0.012652979 0.24313726
4.6537862 -10.457019 -1.7635458 0.039215688
4.9163599 -12.834963 -1.7377547 0
35.82164 -75.21344 0.46796781 0.10980392
27.100754 -74.927689 -0.47113988 0.074509807
5.6668878 -12.907192 -1.5078964 0
24.265648 -78.993858 -7.7108278 0.14509805
2.6176722 -5.527739 0.13682717 0
32.024868 -76.676186 -5.8139787 0.16078432
35.96854 -99.768501 -8.6597605 0.10588235
34.447117 -72.296974 2.3116808 0.12156863
27.188717 -75.169548 1.3846095 0.074509807
26.760742 -87.22036 -5.3138251 0.14901961
29.707117 -71.048416 4.4659824 0.050980393
27.688368 -76.563599 3.3035798 0.24705882
29.72946 -71.119034 -3.5961854 0.043137256
36.979755 -102.59206 -5.7207441 0.24705882
28.28825 -78.234566 6.7732058 0.16862746
34.894512 -73.255424 -3.3150957 0.24705882
36.181465 -118.30322 -4.3246188 0.24705882
31.847654 -76.23954 -1.9318088 0.10196079
2.0544975 -4.876987 -2.4143679 0.0078431377
34.571041 -73.194389 -1.425301 0.24705882
43.016212 -120.74624 -3.7398729 0.15686275
3.5037787 -7.7490292 -2.3468893 0.10196079
3.5532053 -9.1151628 -1.9361678 0.094117649
33.328156 -80.572708 -0.012491001 0.23921569
36.172943 -119.69588 -1.4621925 0.082352944
4.6160889 -10.463982 -1.7622854 0.027450981
35.473721 -75.120567 0.46687192 0.10980392
26.813473 -74.906693 -0.47024709 0.074509807
5.5517263 -12.748157 -1.4872737 0
24.117781 -79.454353 -7.747807 0.14509805
31.371815 -75.791542 1.8939631 0.074509807
3.2131612 -9.6203756 0.11482783 0
30.535145 -73.763977 -5.585392 0.086274512
31.568092 -88.372887 -7.661551 0.10196079
34.520622 -73.079704 2.3332934 0.24705882
54.943336 -116.75684 -8.2836514 0.24705882
35.187126 -116.41924 -7.0847845 0.15686275
30.300737 -73.170471 4.5933499 0.050980393
3.8172824 -9.8565454 0.4234412 0
31.711599 -76.633209 -3.8693881 0.074509807
36.33316 -101.84685 -5.6722302 0.24705882
4.2795768 -9.635951 1.2757356 0
28.111057 -78.559875 6.7935805 0.16862746
54.964943 -116.79749 -5.2760048 0.24705882
35.788952 -118.42146 -4.3242931 0.24705882
30.405071 -73.438622 -1.8581557 0.05882353
2.0326815 -4.8692861 -2.4075906 0.011764706
33.748512 -72.090645 -1.4013393 0.18431373
42.206551 -119.78484 -3.7052104 0.15686275
3.4796016 -7.767199 -2.3490238 0.090196081
3.5200722 -9.122653 -1.9353565 0.098039217
32.905422 -80.338936 -0.012206264 0.24313726
4.5825043 -10.486202 -1.7634852 0.015686275
4.7712846 -12.701066 -1.7154435 0
34.726799 -74.197632 0.46058682 0.10980392
53.966206 -153.4153 -0.95978057 0.16862746
27.50889 -67.045074 -7.8032613 0.10980392
2.0795343 -5.9115 -0.57740283 0
31.086021 -75.847542 1.8928919 0.074509807
3.7859356 -8.519186 -0.64561516 0
31.269945 -88.511497 -7.6638985 0.10196079
34.295574 -73.263885 2.3355958 0.24705882
54.535446 -116.94678 -8.2833014 0.24705882
35.312546 -118.34005 -7.1938334 0.15686275
29.973106 -73.096977 4.5824275 0.050980393
29.243185 -71.313797 -3.5955873 0.043137256
36.159325 -102.49227 -5.7008677 0.24705882
27.85639 -78.712784 6.798687 0.16862746
4.7523551 -9.5357618 -0.4315432 0
30.189106 -73.643204 -1.8604637 0.05882353
2.0281029 -4.8854704 -2.4127741 0.011764706
35.840603 -77.291443 -1.5006624 0.24705882
41.908905 -120.25542 -3.7157581 0.15686275
3.459908 -7.7745681 -2.3480861 0.086274512
3.4970944 -9.1337233 -1.9354824 0.082352944
31.450453 -77.504807 -0.012378078 0.24313726
52.638988 -179.20311 -2.1835675 0.082352944
4.5474038 -10.482635 -1.7605654 0.015686275
4.735805 -12.716484 -1.7155819 0
34.581532 -74.54631 0.46127254 0.10980392
42.3242 -121.44922 -0.75973094 0.16862746
27.123138 -66.741081 -7.7574372 0.10980392
27.247473 -92.220116 -8.9737291 0.14509805
2.4608729 -5.2800384 0.12997589 0
31.096447 -76.635742 -5.7866974 0.16470589
29.937727 -85.634842 -7.4062634 0.10196079
34.060162 -73.407478 2.3356769 0.24705882
3.5673978 -9.3316965 0.16979082 0
54.021824 -116.88888 -8.2669659 0.24705882
35.023815 -118.86029 -7.2182527 0.15686275
29.795147 -73.370491 4.5925679 0.050980393
26.489487 -75.632484 3.2516618 0.24705882
28.995218 -71.395859 -3.5951774 0.043137256
35.643986 -102.13738 -5.6746879 0.24705882
9.8454456 -23.671215 3.1270721 0.0039215689
3.5876734 -9.388711 0.80846649 0
