# .PCD v0.7 - Point Cloud Data file format
VERSION 0.7
FIELDS x y z intensity
SIZE 4 4 4 4
TYPE F F F F
COUNT 1 1 1 1
WIDTH 1158
HEIGHT 1
VIEWPOINT 0 0 0 1 0 0 0
POINTS 1158
DATA ascii
101.06568 22.36548 -1.2048182 0.082352944
14.848258 4.8416009 -2.4270453 0.011764706
19.179737 5.2349677 -2.5283897 0.0078431377
96.005577 36.616447 0.59712374 0.10980392
22.577187 7.364882 -2.5561864 0.0078431377
26.794962 5.9266715 -2.5600436 0.0078431377
104.79125 23.190084 1.2493098 0.062745102
40.39333 13.181359 -2.969939 0.023529412
32.449848 8.8603868 -2.7445769 0.011764706
41.674744 15.890779 -2.8573546 0.043137256
49.662598 10.98811 -2.9611208 0.043137256
11.262156 3.6708381 0.68883348 0
59.591862 19.44915 -2.9191575 0.039215688
60.21838 16.446804 -3.2705593 0.082352944
50.621964 16.520727 6.5361133 0.035294119
66.330299 25.296173 -2.891499 0.15686275
89.520233 19.810055 -3.2010915 0.23529412
87.907967 28.693573 -2.1513467 0.10196079
4.8489976 1.3007752 -2.3328528 0.0039215689
88.971535 33.560223 -1.6594858 0.24705882
88.967049 23.951017 -2.6808379 0.14901961
7.9516244 2.557904 -2.3334432 0.023529412
11.471403 3.0839725 -2.3722324 0.015686275
116.4595 37.543182 3.8439881e-05 0.24705882
101.28376 22.024744 -1.2064478 0.082352944
14.832047 4.7763004 -2.4215112 0.011764706
19.091513 5.135819 -2.5142477 0.0078431377
96.655586 36.459251 0.6003322 0.10980392
139.14825 37.463177 -0.83738035 0.16862746
22.600239 7.2809339 -2.5557578 0.0078431377
26.746452 5.8132596 -2.5533519 0.0078431377
104.77393 22.783834 1.2480992 0.062745102
40.357815 13.006358 -2.9638007 0.023529412
32.697681 8.7995148 -2.7628021 0.011764706
51.093044 19.269463 1.588708 0.05882353
41.941856 15.816911 -2.871681 0.047058824
59.73119 19.252752 -2.9225078 0.039215688
60.420967 16.26449 -3.2783051 0.082352944
50.629272 16.318098 6.5292883 0.035294119
52.403893 14.105753 4.4288483 0.047058824
62.211994 23.464409 -2.7081544 0.15294118
89.490685 19.459808 -3.1974618 0.23529412
26.49515 7.1293774 4.9993768 0.0039215689
89.298958 28.786036 -2.1827977 0.10196079
4.8605165 1.2857666 -2.3362336 0.0039215689
90.324585 33.711098 -1.6825225 0.24705882
7.7470374 2.0522172 -0.23272312 0
7.9494934 2.52669 -2.3302083 0.019607844
11.478307 3.0429709 -2.3714478 0.015686275
118.01524 37.590618 3.9009166e-05 0.24705882
104.61813 22.36787 -1.2452347 0.082352944
14.83733 4.7209663 -2.4196665 0.011764706
19.070974 5.0590315 -2.509197 0.0078431377
96.894661 36.163692 0.60102975 0.10980392
141.1725 37.480324 -0.84877092 0.16862746
1.6211365 0.51064938 -0.18120919 0.0078431377
26.723736 5.7107701 -2.5492623 0.0078431377
109.386 23.387442 1.3020689 0.062745102
40.296513 12.831563 -2.9559879 0.023529412
32.616455 8.6557255 -2.7533638 0.011764706
42.292244 15.780769 -2.8918915 0.047058824
51.787792 16.492371 -2.5309045 0.023529412
60.620216 16.09149 -3.2860508 0.082352944
50.621609 16.120857 6.5210013 0.035294119
52.518314 13.940213 4.434381 0.047058824
63.577808 23.726606 -2.7640045 0.15294118
89.683144 19.174141 -3.2019289 0.23529412
89.558922 28.525215 -2.1867061 0.10196079
4.8612466 1.2687818 -2.3345432 0.0039215689
89.197899 32.953957 -1.6594857 0.24705882
90.2845 23.64798 -2.7156296 0.14509805
7.9615035 2.5015299 -2.3312867 0.023529412
11.484541 3.0039537 -2.3706634 0.019607844
119.30674 37.566757 3.9486658e-05 0.24705882
14.837826 4.6670456 -2.4172068 0.011764706
19.056938 4.9877715 -2.5051563 0.0078431377
115.76264 42.770245 0.71720475 0.10980392
106.58406 27.918144 -0.64022815 0.16862746
22.615137 7.1163039 -2.5519023 0.0078431377
9.0952225 1.9095941 -0.86586529 0
17.369244 5.4642491 0.42330056 0
109.74087 23.083069 1.3053751 0.062745102
40.274143 12.677539 -2.9512446 0.023529412
32.509995 8.5122051 -2.7419732 0.011764706
42.467915 15.686146 -2.9003339 0.047058824
51.84602 16.321795 -2.5310907 0.050980393
60.422085 15.824618 -3.2724435 0.082352944
50.636925 15.941024 6.5161266 0.035294119
17.376743 4.5475945 1.4648907 0
63.479958 23.450583 -2.7563517 0.15294118
93.67775 19.703768 -3.3422236 0.23137255
4.3484392 1.363692 1.2164495 0
10.151576 2.6547444 1.9099218 0
89.633957 28.222101 -2.1862407 0.10196079
4.8621359 1.2509634 -2.3328528 0.0039215689
90.19886 32.966541 -1.6759604 0.24705882
88.821831 22.933855 -2.6692016 0.14901961
7.9701867 2.473789 -2.3312867 0.027450981
11.494956 2.963913 -2.3706634 0.015686275
120.86562 37.59454 4.0058621e-05 0.24705882
97.455109 20.143545 -1.1583016 0.082352944
14.842705 4.6117673 -2.4153621 0.011764706
19.043497 4.9133506 -2.5011158 0.0039215689
115.76096 42.31105 0.71627486 0.10980392
106.40202 27.474003 -0.63855439 0.16862746
22.681612 7.0503812 -2.5566146 0.0078431377
26.531879 5.481287 -2.5273275 0.0078431377
109.98528 22.733957 1.3073308 0.062745102
40.283859 12.526281 -2.9487333 0.023529412
32.350365 8.3498974 -2.7260258 0.011764706
10.760118 2.7741389 0.19365411 0
42.814838 15.644784 -2.9202886 0.047058824
10.778494 3.3474288 0.65627545 0
60.677895 18.870682 -2.9591739 0.039215688
60.480812 15.614684 -3.2726526 0.082352944
50.677101 15.759527 6.5141768 0.031372551
2.5118594 0.64399672 0.21024515 0
63.598953 23.242651 -2.7579799 0.15294118
94.188309 19.468185 -3.3579979 0.23137255
90.052666 28.008907 -2.1940567 0.10196079
4.8631749 1.2323064 -2.3311622 0.0039215689
88.445976 31.958801 -1.6411958 0.24705882
89.292801 22.706755 -2.6808376 0.14901961
7.9828825 2.4457557 -2.3323646 0.027450981
11.482935 2.9160244 -2.3659565 0.015686275
121.93942 37.439007 4.0466155e-05 0.24705882
97.841873 19.84989 -1.1620266 0.082352944
14.836837 4.550437 -2.4116726 0.011764706
19.022924 4.8338008 -2.4960651 0.0039215689
115.76104 41.830776 0.71532172 0.10980392
106.39735 27.057251 -0.6379267 0.16862746
22.699696 6.9649277 -2.5557578 0.0078431377
110.43633 22.405495 1.3117082 0.062745102
40.215065 12.343465 -2.9403625 0.023529412
32.303478 8.2116737 -2.7195165 0.011764706
150.9451 38.387856 2.7183683 0.10980392
43.112164 15.574644 -2.9366612 0.047058824
60.674076 18.625925 -2.9556375 0.039215688
61.246082 15.573149 -3.3109622 0.086274512
2.4292011 0.61323208 0.20308504 0
63.92804 23.09774 -2.7685635 0.15294118
89.463745 18.149843 -3.1871316 0.23529412
15.925187 4.0459003 2.992594 0.0039215689
90.930733 27.917004 -2.2129462 0.10196079
4.8709636 1.2162691 -2.3328528 0.0039215689
4.1005888 1.4593275 -0.075673781 0
87.959793 22.041183 -2.6384821 0.14901961
7.9839993 2.415705 -2.3302081 0.023529412
11.493042 2.8759897 -2.3659565 0.019607844
7.1916389 2.1754143 9.4034033e-07 0
99.040268 19.733454 -1.1754367 0.082352944
14.826154 4.4906559 -2.4073682 0.011764706
19.028131 4.7645421 -2.4945498 0.011764706
115.75567 41.372669 0.71439183 0.10980392
99.992264 25.056936 -0.59898907 0.16862746
22.682007 6.8730211 -2.5510454 0.0078431377
26.558708 5.289084 -2.5262122 0.0078431377
116.35069 23.18313 1.380998 0.062745102
40.139534 12.167187 -2.9317129 0.023529412
32.181129 8.0611343 -2.7068238 0.011764706
9.5210581 3.3969829 0.29369977 0
106.45733 26.677299 1.9154023 0.10980392
43.350449 15.489973 -2.9491971 0.047058824
14.619729 4.4280558 0.88860029 0
60.463417 18.330605 -2.9422367 0.039215688
62.102123 15.560363 -3.3542962 0.086274512
7.3129373 2.2121997 0.93595761 0
55.928131 19.986118 -2.418972 0.074509807
95.791473 19.086021 -3.4102068 0.23137255
15.273805 4.6264119 4.2715535 0.0039215689
89.929337 27.266436 -2.1862404 0.10196079
4.885529 1.202778 -2.337924 0.0039215689
90.21772 22.289433 -2.7039933 0.14901961
7.9919662 2.3892741 -2.3302081 0.023529412
11.498712 2.8369782 -2.3651721 0.019607844
125.01539 37.454418 4.1597807e-05 0.24705882
14.844751 4.4426575 -2.4079831 0.011764706
18.997601 4.6900482 -2.4884889 0.0078431377
115.7565 40.940594 0.71355498 0.10980392
99.212769 24.51222 -0.59382832 0.16862746
22.670389 6.7875481 -2.54719 0.0078431377
26.458849 5.1780734 -2.5150588 0.0078431377
15.003725 4.490293 0.36402529 0
116.36414 22.784903 1.380253 0.062745102
40.099388 12.01001 -2.925853 0.023529412
32.099316 7.9276462 -2.697711 0.011764706
105.98612 26.186001 1.9053495 0.10980392
43.728985 15.461997 -2.9714541 0.047058824
60.883659 18.237852 -2.9597321 0.039215688
62.948357 15.55083 -3.3972113 0.086274512
10.514855 3.1452389 1.3454398 0
63.616566 22.496916 -2.7483728 0.15294118
97.835388 19.156279 -3.4807031 0.22745098
24.349194 6.012495 4.5696082 0.0039215689
88.352928 26.468803 -2.1457632 0.10196079
4.8826523 1.1840668 -2.3345432 0.0039215689
87.87191 30.732264 -1.6245812 0.24705882
89.906479 21.879896 -2.6923571 0.14901961
8.0002575 2.361428 -2.3302081 0.023529412
11.512353 2.7978165 -2.3659565 0.019607844
126.53387 37.428677 4.2159041e-05 0.24705882
14.837426 4.3841515 -2.4042938 0.011764706
18.990725 4.6181426 -2.4854584 0.011764706
115.75144 40.484856 0.71264833 0.10980392
99.651382 24.251923 -0.59594369 0.16862746
22.655806 6.6971583 -2.542906 0.0078431377
26.410273 5.0729718 -2.5087385 0.0078431377
116.50581 22.390743 1.3809981 0.062745102
40.049236 11.842869 -2.9191566 0.023529412
31.975719 7.7788477 -2.6850178 0.011764706
107.02892 26.047707 1.9224534 0.10980392
61.0504 18.055901 -2.9647577 0.039215688
63.394245 15.426497 -3.4183547 0.090196081
21.52853 5.2358751 1.8072739 0.0039215689
13.818139 4.8273783 -0.59562582 0
98.27459 18.886419 -3.4939647 0.24705882
9.8981314 2.4048965 1.8539585 0
89.345924 26.42691 -2.1676302 0.10196079
4.8832312 1.1662333 -2.3328528 0.0039215689
9.815136 3.3887424 -0.18094474 0
89.982315 21.565971 -2.6923571 0.14901961
8.004755 2.332469 -2.3291297 0.023529412
11.525866 2.758589 -2.3667412 0.015686275
91.778252 17.30578 -1.0870601 0.082352944
14.848849 4.331284 -2.4036787 0.011764706
18.972002 4.5435586 -2.4809129 0.0078431377
115.7333 40.025677 0.71167201 0.10980392
8.1672316 1.9534661 -0.048702519 0
22.63324 6.604713 -2.5377655 0.0078431377
26.361288 4.9682612 -2.5024185 0.0078431377
91.845078 17.318384 1.0879134 0.062745102
39.96011 11.665018 -2.9096696 0.023529412
31.812712 7.6217003 -2.6690705 0.011764706
106.77695 25.591938 1.91631 0.10980392
44.658272 15.44093 -3.0272245 0.047058824
61.343189 17.909941 -2.9759247 0.039215688
62.958275 15.087836 -3.3919778 0.086274512
21.616459 5.1774807 1.8131319 0.0039215689
48.708961 16.842058 -2.0990152 0.05882353
99.655899 18.791491 -3.5407295 0.24705882
12.294336 2.942806 2.3016641 0
88.451118 25.826803 -2.1437159 0.10196079
4.8943286 1.1509109 -2.3362336 0.0039215689
7.2044501 2.4576592 -0.13256755 0
90.485092 21.352859 -2.7051568 0.14901961
8.0128479 2.3045783 -2.3291297 0.023529412
11.535423 2.7184057 -2.3667412 0.015686275
129.86302 37.429768 4.3385051e-05 0.24705882
91.838097 16.985392 -1.08706 0.082352944
14.825896 4.2685442 -2.3975296 0.011764706
18.960712 4.4709935 -2.4773774 0.0039215689
115.73227 39.573647 0.71081179 0.10980392
99.035782 23.371073 -0.59127104 0.16862746
22.621759 6.5158219 -2.53391 0.0078431377
26.331476 4.8675885 -2.497957 0.0078431377
91.924637 17.001402 1.0881464 0.062745102
39.920063 11.502323 -2.90381 0.023529412
31.831362 7.5088453 -2.6684196 0.011764706
50.652351 17.316629 1.5574065 0.05882353
45.138699 15.430986 -3.0561333 0.047058824
10.003623 1.8471658 -0.59138823 0
7.0130806 2.0163805 0.42395067 0
61.524345 17.730089 -2.9816947 0.039215688
62.851158 14.830432 -3.3833947 0.086274512
12.279425 2.8940122 1.0284498 0
62.422977 21.342127 -2.6869867 0.14901961
91.756943 16.970379 -3.2579069 0.23529412
70.335175 20.269945 -1.7028391 0.054901961
4.9074383 1.1339079 -2.3362336 0
89.497437 30.250317 -1.6485107 0.24705882
5.908154 1.3664262 -0.17570604 0
8.0262566 2.275641 -2.3280513 0.019607844
11.550138 2.6773496 -2.3659556 0.015686275
130.04807 36.989956 6.5247325e-05 0.24705882
115.69214 20.979555 -1.3684666 0.082352944
14.830811 4.2114868 -2.3944535 0.011764706
18.962124 4.3995366 -2.4743445 0.0039215689
99.098518 23.019358 -0.59109157 0.16862746
22.63052 6.4304471 -2.5313368 0.0078431377
26.298634 4.7651567 -2.4923768 0.0078431377
39.911476 11.346756 -2.8996186 0.023529412
31.738327 7.3681083 -2.657675 0.011764706
104.63635 24.306082 1.8746506 0.10980392
45.609756 15.411662 -3.0837562 0.047058824
16.289429 4.6264539 0.9846487 0
61.848564 17.587694 -2.9939687 0.039215688
62.565315 14.530811 -3.364753 0.086274512
50.598743 17.098463 -2.1748853 0.062745102
101.46933 18.399788 -3.6001806 0.24705882
11.733521 3.3303325 3.2611239 0
9.1231251 2.1134303 1.7025717 0
90.049873 25.610762 -2.177851 0.10196079
4.9147062 1.1185261 -2.337924 0.0039215689
88.910782 20.341772 -2.653594 0.14901961
8.0411758 2.2511845 -2.3302078 0.019607844
11.558954 2.6391211 -2.3659556 0.019607844
9.412117 2.6362979 2.5843067e-06 0.0039215689
114.38677 20.351276 -1.3522164 0.082352944
14.829474 4.1580935 -2.3919938 0.011764706
18.937933 4.3278656 -2.4692938 0.0078431377
50.677349 16.938072 0.31042641 0.14901961
99.759186 22.824526 -0.59457839 0.16862746
6.000288 1.6778765 -0.66828477 0
26.235868 4.6640482 -2.4849415 0.0078431377
39.8298 11.180969 -2.8909688 0.023529412
31.614912 7.229104 -2.6453075 0.011764706
104.71249 23.958132 1.8745809 0.10980392
45.759052 15.293325 -3.0904074 0.047058824
10.647751 2.4305844 0.44387549 0
61.768074 17.343678 -2.9872684 0.039215688
62.321133 14.256496 -3.3490527 0.086274512
18.957352 4.3323112 1.5853133 0
102.02176 18.150814 -3.6176298 0.24705882
8.6626959 2.425777 -0.20871471 0
4.911315 1.1007199 -2.3345432 0.0039215689
50.794712 16.790361 -0.93333089 0.090196081
90.409218 20.369545 -2.6962981 0.14901961
8.0485973 2.2245989 -2.3302076 0.019607844
11.567641 2.6008687 -2.3659556 0.015686275
114.0596 19.903191 -1.34756 0.082352944
14.827946 4.104763 -2.3895342 0.011764706
18.921213 4.2581568 -2.4652531 0.015686275
115.63461 38.234943 0.7077623 0.10980392
100.04504 22.541187 -0.5958336 0.16862746
22.599855 6.260201 -2.5231974 0.0078431377
26.215879 4.5709548 -2.4815953 0.0078431377
39.639793 10.986008 -2.8745065 0.023529412
31.630932 7.12257 -2.6446567 0.011764706
104.65481 23.580099 1.8721375 0.10980392
45.366085 14.994946 -3.0604753 0.047058824
8.8622599 1.9911525 0.36897317 0
62.063957 17.205057 -2.9988081 0.039215688
62.157631 14.002433 -3.3377481 0.086274512
9.2603054 2.0808604 0.77263969 0
102.54607 17.89362 -3.6341021 0.24705882
89.50486 24.815435 -2.1606364 0.10196079
4.9151273 1.0836637 -2.3345432 0.0039215689
50.970867 16.651554 -0.93549484 0.090196081
90.151871 19.981207 -2.6865239 0.14901961
8.045167 2.1935344 -2.3269725 0.019607844
11.580482 2.5614159 -2.36674 0.015686275
121.21707 20.716763 -1.4312788 0.082352944
14.823125 4.0478559 -2.3864598 0.011764706
18.908842 4.1861615 -2.4617176 0.0039215689
115.45943 37.730473 0.70587921 0.10980392
100.74012 22.32869 -0.59950626 0.16862746
22.610064 6.1782155 -2.5219121 0.0078431377
26.137461 4.4633989 -2.4726727 0.0078431377
39.677906 10.847658 -2.8745062 0.023529412
31.577753 6.9949417 -2.6381474 0.011764706
8.6163616 2.8074393 0.26298052 0
109.72653 24.321037 1.961357 0.10980392
45.266384 14.786973 -3.0502422 0.047058824
62.189171 17.006315 -3.0019722 0.039215688
61.987743 13.737037 -3.3260248 0.086274512
62.264709 20.343092 -2.6676004 0.14901961
103.25809 17.646769 -3.6571355 0.24705882
89.737526 24.543026 -2.1641722 0.10196079
4.9188805 1.0665967 -2.3345432 0.0039215689
89.436653 28.879562 -1.6399939 0.24705882
89.639 19.539591 -2.6691864 0.14901961
8.0527735 2.1655352 -2.3269725 0.023529412
11.566358 2.5160611 -2.3620331 0.019607844
138.08952 37.25375 6.9660127e-05 0.24705882
14.818083 3.9910388 -2.3833852 0.011764706
18.903957 4.1160049 -2.4591925 0.0078431377
100.64157 21.938673 -0.59846014 0.16862746
22.600773 6.0910659 -2.5184851 0.0078431377
26.117529 4.3663197 -2.4693267 0.0078431377
132.07393 22.098593 1.5587163 0.062745102
39.715527 10.709193 -2.8745062 0.023529412
31.543554 6.872035 -2.6332657 0.011764706
109.8342 23.943102 1.961776 0.10980392
45.207569 14.593396 -3.0428233 0.047058824
18.255444 4.9185534 1.0995325 0
62.460316 16.846489 -3.0122087 0.039215688
61.887009 13.488345 -3.3180697 0.086274512
63.057941 20.359135 -2.6985371 0.14901961
103.89075 17.382015 -3.6773767 0.24705882
12.707482 2.7648811 2.3662384 0
89.776306 24.217245 -2.1630554 0.10196079
4.9225736 1.0495143 -2.3345432 0
19.039526 6.0678048 -0.34834254 0.0039215689
89.464272 19.174681 -2.6619718 0.14901961
8.0602846 2.1375058 -2.3269725 0.027450981
11.578904 2.4765863 -2.3628175 0.019607844
127.22028 20.830124 -1.5004237 0.082352944
14.809006 3.9332831 -2.3796957 0.011764706
18.875532 4.0409336 -2.4536366 0.011764706
104.32354 22.360405 -0.61989254 0.16862746
22.556562 5.9948421 -2.5112026 0.0078431377
26.093309 4.2687778 -2.4656091 0.0078431377
128.27022 21.002068 1.5129415 0.062745102
39.367065 10.467974 -2.8466041 0.023529412
31.497179 6.7469287 -2.6274073 0.011764706
109.98359 23.573883 1.9629629 0.10980392
45.109924 14.388254 -3.032846 0.047058824
45.929089 7.517241 -2.7087913 0.027450981
8.8566542 2.3494136 0.53209066 0
62.622997 16.656179 -3.0172338 0.039215688
61.703274 13.222911 -3.3057187 0.086274512
104.28218 17.073601 -3.6891029 0.24705882
90.644775 24.112535 -2.1819448 0.10196079
4.9228406 1.0308195 -2.3328528 0
10.952047 3.4425955 -0.19993143 0
89.58091 18.856657 -2.6633682 0.14901961
8.0792437 2.1109822 -2.3302076 0.027450981
11.607096 2.4382746 -2.36674 0.015686275
141.17714 37.005363 7.1395152e-05 0.24705882
127.35105 20.372671 -1.5010754 0.082352944
14.80803 3.8750739 -2.3772361 0.011764706
18.847502 3.9628348 -2.4480808 0.011764706
10.133303 3.184593 0.061585963 0
104.42045 21.98131 -0.6199854 0.16862746
22.532219 5.9001303 -2.5060618 0.0078431377
26.030125 4.1606331 -2.4581735 0.0078431377
135.30928 21.64604 1.5950382 0.062745102
39.405163 10.323727 -2.8466041 0.023529412
31.45928 6.6184049 -2.6222 0.011764706
13.359187 4.2011323 0.40680662 0
110.50758 23.263033 1.9707818 0.10980392
45.07098 14.194138 -3.026706 0.047058824
45.573853 7.2877631 -2.6862335 0.027450981
63.174484 16.555347 -3.0408716 0.039215688
61.450352 12.933408 -3.2895992 0.082352944
10.377232 2.1793118 0.86344308 0
105.52825 16.880875 -3.7309816 0.24705882
9.475502 2.4770417 2.6171808 0
90.419228 23.698124 -2.1744075 0.10196079
4.9228587 1.012989 -2.3311622 0.0039215689
120.62434 37.540184 -2.2045979 0.24705882
98.02507 20.277674 -2.9123785 0.15686275
8.0865631 2.0828609 -2.3302076 0.019607844
11.604013 2.3954515 -2.3643866 0.015686275
106.15632 27.428337 5.3157913e-05 0.24705882
127.81261 19.989271 -1.5056849 0.082352944
14.809987 3.8204849 -2.3753912 0.011764706
18.806824 3.885855 -2.4410098 0.0039215689
120.51082 37.504848 0.73345375 0.10980392
13.869897 2.8643079 -0.082152195 0
22.47567 5.8016291 -2.4974942 0.0078431377
26.005142 4.0636797 -2.4544556 0.0078431377
133.90215 20.941845 1.5775758 0.062745102
39.178257 10.118303 -2.8276303 0.023529412
31.404112 6.4924822 -2.6156909 0.011764706
116.9249 24.188419 2.0837371 0.10980392
45.036404 14.010707 -3.0210779 0.047058824
45.835735 7.1657495 -2.7001867 0.027450981
64.032677 16.541763 -3.0793986 0.039215688
61.092224 12.635539 -3.2680371 0.082352944
11.55134 2.9783101 1.4614611 0
63.545883 19.772451 -2.7102604 0.15294118
107.30459 16.781231 -3.7917056 0.24705882
9.557065 1.9718984 1.7743195 0
90.311676 23.333395 -2.1698477 0.10196079
4.9297428 0.99747318 -2.3328528 0.0039215689
99.686401 20.27706 -2.9597371 0.15686275
8.0859613 2.0542228 -2.3280511 0.027450981
11.604205 2.3554871 -2.3628175 0.015686275
106.51414 27.144447 5.3388667e-05 0.24705882
131.04115 20.049469 -1.5429345 0.082352944
14.799594 3.7655883 -2.3717017 0.011764706
122.67223 37.732029 0.74584591 0.10980392
108.37753 22.045391 -0.64257997 0.16862746
22.436977 5.7124252 -2.4910681 0.0078431377
25.959421 3.9684801 -2.448879 0.0078431377
151.01686 38.488586 3.6258695 0.074509807
17.883371 4.5516715 -1.2885345 0.0039215689
31.323895 6.3677373 -2.6072295 0.011764706
10.433423 3.2014661 0.31685716 0
116.22063 23.641184 2.0697749 0.10980392
44.994862 13.834385 -3.0151937 0.047058824
45.950027 7.0277061 -2.7055357 0.027450981
12.05376 3.0656507 0.72278839 0
64.776375 16.505116 -3.1125286 0.039215688
60.734524 12.351748 -3.2466838 0.082352944
64.073318 19.70392 -2.7299626 0.15294118
110.37863 16.887419 -3.8983567 0.24705882
91.140312 23.225521 -2.1878996 0.10196079
92.388664 28.045038 -1.6848097 0.24705882
98.19561 19.599287 -2.9133091 0.15686275
8.0971727 2.0256083 -2.3291292 0.023529412
11.605069 2.311501 -2.3612487 0.015686275
105.87967 26.569889 5.3104923e-05 0.24705882
14.786463 3.7046802 -2.3673975 0.011764706
18.829603 3.7538779 -2.4405048 0.0078431377
123.46802 37.482121 0.74984503 0.10980392
109.63436 21.88303 -0.64955354 0.16862746
22.419191 5.6205635 -2.4867845 0.0078431377
25.930464 3.8669326 -2.4447894 0.0078431377
6.6248617 1.656046 0.15828358 0
142.64125 21.289982 1.6787649 0.062745102
17.152987 4.2987003 -1.2346829 0.0039215689
31.261011 6.235806 -2.6000693 0.011764706
116.50261 23.254274 2.0732658 0.10980392
44.942146 13.638152 -3.0082865 0.047058824
8.1492262 2.0386751 0.48767212 0
63.991589 16.055609 -3.0719538 0.039215688
60.579617 12.089261 -3.2360077 0.082352944
64.294258 19.514318 -2.7363129 0.15294118
111.96595 16.710653 -3.9522409 0.24705882
15.351336 3.0594435 2.8491008 0
90.68959 22.757044 -2.1750586 0.10196079
93.144897 27.920101 -1.6968167 0.24705882
99.044228 19.409622 -2.936465 0.15686275
8.1041927 1.9974329 -2.3291292 0.023529412
11.616916 2.271836 -2.3620331 0.015686275
99.397804 24.574554 4.9755377e-05 0.24705882
141.8558 20.666979 -1.6685128 0.082352944
14.795466 3.6522002 -2.3667827 0.0078431377
18.850376 3.6897626 -2.4415147 0.0078431377
11.989037 3.5865674 0.072583079 0
109.0938 21.379572 -0.64590389 0.16862746
22.373039 5.5261517 -2.4795017 0.0078431377
25.947744 3.7770822 -2.4451611 0.0078431377
106.54479 26.34202 2.5533226 0.074509807
38.929565 9.6206207 -2.8022392 0.023529412
31.212168 6.1129608 -2.5942109 0.011764706
8.319005 2.486156 0.25192603 0
116.04146 22.741474 2.0636318 0.10980392
44.886223 13.450364 -3.0013788 0.047058824
45.856884 6.6782036 -2.6971636 0.027450981
20.553192 5.0760999 1.231393 0.0039215689
16.280312 3.1859708 0.67477024 0.0039215689
65.509544 16.193911 -3.1421216 0.039215688
60.480328 11.850202 -3.2284713 0.082352944
64.675888 19.384039 -2.7496648 0.15294118
112.47059 16.385023 -3.968015 0.24705882
2.6803107 0.52005452 0.49290475 0
90.069702 22.267694 -2.1583095 0.10196079
4.9361954 0.94625139 -2.3311622 0
99.889923 19.249735 -2.9597368 0.15686275
8.1179142 1.9738687 -2.331286 0.043137256
11.623997 2.2354062 -2.3620331 0.015686275
99.703804 24.318111 4.9954302e-05 0.24705882
180.80849 25.763208 -2.1258004 0.082352944
14.78383 3.6001549 -2.3630931 0.0078431377
18.783955 3.6155746 -2.4314134 0.0078431377
128.7301 38.149483 0.78025579 0.10980392
109.53357 21.108664 -0.64811212 0.16862746
22.336203 5.4427094 -2.4735043 0.0078431377
25.888514 3.6854985 -2.4384694 0.0078431377
8.1896868 1.99138 0.19550541 0
9.8039198 1.3932767 0.11497029 0
38.800667 9.4595518 -2.7907991 0.023529412
31.121609 5.9938068 -2.585098 0.011764706
16.480515 4.8769817 0.49943253 0.0039215689
116.87813 22.524416 2.077245 0.10980392
44.782833 13.266225 -2.9916573 0.047058824
45.739285 6.5144396 -2.689024 0.027450981
65.490234 15.971016 -3.1387715 0.039215688
60.505493 11.657908 -3.2278433 0.082352944
4.0772748 0.98807335 0.51185119 0
65.09285 19.286425 -2.7648077 0.15294118
115.29183 16.426403 -4.065732 0.24705882
2.6780677 0.51097059 0.49218726 0
91.304718 22.268986 -2.1862245 0.10196079
4.9524646 0.92809308 -2.3328526 0.0039215689
8.9770813 2.6128881 -0.16258349 0
101.8148 19.214422 -3.0142922 0.15686275
11.637745 2.1901855 -2.3612475 0.019607844
100.06995 23.999062 6.6908229e-05 0.24705882
14.822018 3.54722 -2.3655508 0.011764706
18.799 3.5421362 -2.4304006 0.011764706
128.6619 37.590462 0.77892894 0.10980392
116.07674 21.906887 -0.68626153 0.16862746
25.828728 3.5747979 -2.4306581 0.0078431377
8.711894 2.0813403 0.20760329 0
38.457767 9.2176752 -2.7628906 0.015686275
31.051628 5.8552704 -2.5766315 0.011764706
91.856339 17.334396 1.631094 0.10980392
44.77737 13.075429 -2.9873013 0.047058824
44.669487 6.1861062 -2.6241341 0.027450981
91.864899 17.336012 3.8073328 0.24705882
66.85009 16.029282 -3.2005532 0.039215688
17.330837 3.264967 -0.92235976 0.0039215689
11.601051 2.1832595 0.9607569 0
65.777748 19.212734 -2.7903605 0.15294118
116.54705 16.14826 -4.1074505 0.24705882
91.666893 21.983082 -2.1926296 0.10196079
4.9517913 0.91198415 -2.331162 0
91.732124 17.012804 -2.7140851 0.14509805
8.1406031 1.9173775 -2.3312852 0.074509807
11.640711 2.1530151 -2.3604629 0.019607844
99.868484 23.619312 6.6818728e-05 0.24705882
12.386942 1.6722556 -0.14508869 0
14.817704 3.4971154 -2.3630912 0.011764706
18.82564 3.4860737 -2.432421 0.015686275
129.09062 37.276119 0.78081226 0.10980392
91.816597 17.028477 -0.54246867 0.15686275
22.367266 5.2832699 -2.4717875 0.015686275
25.835882 3.4932222 -2.4302864 0.0078431377
38.412754 9.0794773 -2.7575891 0.015686275
30.940516 5.7338109 -2.5658913 0.011764706
4.8535266 0.89375323 0.085517146 0
44.683998 12.896044 -2.9783471 0.047058824
44.490837 6.0190759 -2.6125066 0.027450981
91.907104 17.045269 3.8068445 0.24705882
5.966176 1.40293 -0.28383875 0
18.413214 3.4095545 -0.97950995 0.0039215689
7.809895 1.8391365 0.98080695 0
12.41926 2.2974646 1.0281273 0
66.621086 19.232368 -2.8235774 0.15294118
118.02332 15.975267 -4.1577053 0.24705882
92.634438 21.907806 -2.214124 0.10196079
4.9549446 0.89482194 -2.331162 0.0039215689
14.178852 4.031487 -0.25668323 0
8.1359901 1.8864576 -2.3280504 0.098039217
11.648155 2.112498 -2.3604629 0.019607844
99.62307 23.194494 6.6703848e-05 0.24705882
129.54286 17.074894 -1.5206549 0.082352944
14.82597 3.4446044 -2.3624763 0.011764706
18.802557 3.414078 -2.4278753 0.0078431377
115.7 21.042347 -0.68319297 0.16862746
22.253878 5.1746206 -2.4572225 0.0078431377
25.836073 3.4015882 -2.4291711 0.0078431377
129.66182 17.090578 1.5222313 0.062745102
38.448101 8.9463787 -2.7578683 0.015686275
30.897583 5.6144905 -2.5606842 0.011764706
16.270615 4.6277709 0.49128914 0.0039215689
127.44939 23.17988 2.2605927 0.10980392
44.602058 12.704013 -2.9699049 0.047058824
68.690536 15.990071 -3.2835631 0.043137256
60.07526 10.922699 -3.1981065 0.082352944
6.5632806 1.1874229 0.54156357 0
67.314308 19.178434 -2.8501179 0.15686275
120.21456 15.844995 -4.2329469 0.24705882
11.973666 2.7802823 -0.28520077 0
4.961607 0.87828302 -2.3328526 0.0039215689
93.286728 26.230574 -1.6907974 0.24705882
109.75449 19.565252 -3.2434034 0.15686275
8.138772 1.8573105 -2.3269718 0.050980393
11.655458 2.07195 -2.3604627 0.015686275
100.14011 22.946802 6.712311e-05 0.24705882
14.818643 3.3885393 -2.3594017 0.011764706
18.806549 3.3471529 -2.4268651 0.011764706
114.00468 20.323158 -0.6727559 0.16862746
22.233044 5.0881443 -2.4529386 0.0078431377
25.85569 3.3125169 -2.4299145 0.0078431377
104.65399 23.98152 2.4976013 0.074509807
38.160164 8.7391224 -2.7349882 0.011764706
30.712904 5.4703283 -2.5437605 0.011764706
126.80116 22.605064 2.2476776 0.10980392
44.588493 12.532147 -2.9660676 0.047058824
43.937656 5.6323576 -2.5776234 0.027450981
69.271721 15.870832 -3.3086896 0.043137256
67.719414 19.038692 -2.8644464 0.15686275
3.9381042 0.50058287 -0.13736467 0
94.702843 21.700417 -2.2599044 0.10196079
4.9682136 0.8617084 -2.334543 0
90.040398 24.978682 -1.6303445 0.24705882
8.1639938 1.8332525 -2.3323634 0.023529412
11.666485 2.0320516 -2.3612473 0.019607844
99.919151 22.529438 6.7025088e-05 0.24705882
14.834238 3.3377848 -2.3600166 0.011764706
18.814209 3.280925 -2.4263601 0.0078431377
114.27194 19.959604 -0.67391801 0.16862746
22.215754 5.0027514 -2.4490831 0.0078431377
25.843386 3.2194059 -2.4276836 0.0078431377
12.013601 2.7015657 -0.85855734 0
126.84776 22.156891 2.2471189 0.10980392
44.616581 12.372273 -2.9650438 0.047058824
44.171032 5.5057616 -2.5901811 0.027450981
134.25809 23.451647 5.5512638 0.24705882
69.926956 15.764432 -3.3373525 0.043137256
23.024204 4.01651 -1.2229736 0.0039215689
68.86763 19.102634 -2.9102006 0.15686275
16.486641 3.7105 -0.39239416 0
4.964045 0.84326625 -2.331162 0
90.103889 24.658039 -1.6299256 0.24705882
8.189146 1.8090451 -2.3377552 0.011764706
11.658043 1.9887989 -2.3581092 0.031372551
100.45016 22.281181 6.7454719e-05 0.24705882
11.813485 1.4274616 -0.13810442 0
14.841939 3.2852576 -2.3594015 0.011764706
18.821638 3.2146931 -2.4258552 0.0078431377
113.74953 19.459545 -0.6704312 0.16862746
22.170959 4.9115214 -2.4422288 0.0078431377
25.834696 3.1269124 -2.4258249 0.0078431377
109.90572 24.379309 2.6188524 0.074509807
8.3113556 1.0029835 0.097042955 0
37.994308 8.4226227 -2.7188046 0.011764706
127.28307 21.77552 2.2534723 0.10980392
44.463142 12.162837 -2.9519968 0.047058824
43.860947 5.3117976 -2.5708792 0.027450981
134.02792 22.929754 5.5383997 0.24705882
69.770912 15.473648 -3.3273017 0.043137256
69.307808 18.964634 -2.9259946 0.15686275
65.890083 7.9818559 -2.3164449 0.090196081
100.34101 22.256962 -2.3907323 0.10196079
4.9706783 0.82579732 -2.3328526 0
7.7474704 2.080729 -0.13940752 0
3.3095551 0.54779583 -0.096581303 0
8.1618509 1.7717642 -2.3280504 0.015686275
11.669123 1.946835 -2.3588939 0.062745102
100.9337 22.000746 6.785438e-05 0.24705882
9.1174021 1.066921 -0.10644259 0
14.850019 3.230125 -2.3587866 0.015686275
18.825464 3.1445055 -2.4248447 0.011764706
13.690355 2.2851048 -0.080453493 0
22.146069 4.8210349 -2.4375165 0.0078431377
25.830164 3.0304708 -2.4243379 0.0078431377
109.96309 23.969612 2.618108 0.074509807
37.810497 8.2366781 -2.7034585 0.011764706
30.564938 5.109199 -2.5268366 0.011764706
128.1391 21.439009 2.2672255 0.10980392
44.399513 11.970794 -2.9448335 0.047058824
43.543018 5.1115203 -2.5511122 0.027450981
134.54468 22.51103 5.5563111 0.24705882
66.778183 14.553105 -3.1819406 0.039215688
7.1855483 1.5588816 0.89842284 0
70.214195 18.936541 -2.9613278 0.15686275
8.862216 1.4770778 1.6315424 0
5.7291431 1.241311 -0.13557664 0
4.9733891 0.80943376 -2.3328526 0.0039215689
8.1676798 1.7448152 -2.3280504 0.015686275
11.675513 1.908257 -2.3588939 0.082352944
104.86623 22.494415 7.067441e-05 0.24705882
150.81541 17.208145 -1.7666388 0.082352944
14.856784 3.1801646 -2.3581717 0.011764706
18.827957 3.0809109 -2.4238348 0.011764706
105.95189 28.203491 0.63710284 0.10980392
127.52423 20.901825 -0.75076514 0.16862746
22.119162 4.7385273 -2.4328043 0.0078431377
25.859856 2.9471951 -2.4261968 0.0078431377
110.28046 23.656202 2.6237845 0.074509807
37.502079 8.0393991 -2.6794624 0.011764706
30.522696 4.9982805 -2.5219548 0.011764706
11.917275 3.1636744 0.35781878 0
44.438961 11.823645 -2.9448335 0.047058824
43.516079 4.9622679 -2.5485542 0.027450981
68.420021 14.673778 -3.2578783 0.043137256
6.961235 1.8439653 -0.29195085 0
65.940239 7.5214958 -2.3163049 0.039215688
5.7332268 1.2224303 -0.13557662 0
4.9690251 0.79104638 -2.3294713 0.0039215689
92.302917 24.22439 -1.6650381 0.24705882
2.1367443 0.33683759 -0.061906211 0
8.1699514 1.715624 -2.3269718 0.015686275
11.713086 1.872583 -2.3651695 0.019607844
9.8446627 2.0688736 3.8516055e-06 0.0039215689
150.71158 16.663658 -1.7647296 0.24705882
14.856194 3.1259615 -2.3563271 0.011764706
18.830761 3.0140359 -2.4228246 0.011764706
106.47527 27.945312 0.6396606 0.10980392
129.65408 20.786636 -0.76287556 0.16862746
22.088871 4.6515603 -2.4276638 0.0078431377
25.854149 2.8552785 -2.4247096 0.0078431377
118.25062 24.935083 2.8113842 0.074509807
37.467445 7.8953829 -2.674998 0.011764706
30.453352 4.8779368 -2.5147946 0.011764706
19.453897 5.0980258 0.58426481 0.0039215689
44.093864 11.567199 -2.9192505 0.047058824
43.39819 4.7955298 -2.5406473 0.027450981
6.3779612 1.337638 0.37743998 0
12.617703 2.6537948 -0.59894282 0
12.097607 1.9342487 -0.64016795 0
71.512756 18.765974 -3.0106642 0.16078432
13.915418 2.2257698 2.562829 0
97.90004 20.642509 -2.3272719 0.10196079
4.9787846 0.7758081 -2.3328526 0
94.121117 24.368513 -1.6963812 0.24705882
125.09559 19.630405 -3.6840556 0.15686275
8.1831408 1.6902058 -2.3291285 0.015686275
11.703733 1.8314155 -2.3620317 0.015686275
108.7181 22.54817 7.3503281e-05 0.24705882
150.65862 16.152353 -1.7634722 0.082352944
14.874218 3.0784018 -2.3575568 0.011764706
18.821054 2.9486132 -2.4202993 0.011764706
106.7145 27.630276 0.64054418 0.10980392
130.58771 20.492496 -0.76796615 0.16862746
22.084705 4.5743604 -2.4255216 0.0078431377
2.8480675 0.30152822 -0.26396218 0
118.73204 24.625761 2.8208759 0.074509807
37.2043 7.7112184 -2.6543503 0.011764706
30.378778 4.762816 -2.5073092 0.011764706
7.0848193 1.8255836 0.2118973 0
17.033733 2.6680605 0.30033007 0.0039215689
44.131989 11.421024 -2.9192505 0.047058824
43.211365 4.6299849 -2.5287871 0.027450981
67.786713 14.056145 -3.2230735 0.039215688
9.7705355 2.0195434 1.2206473 0
71.795128 18.585945 -3.0199451 0.16078432
18.988203 2.0323553 -0.66559261 0.0039215689
98.90377 20.511993 -2.3495107 0.10196079
4.9742951 0.75745326 -2.3294713 0.0039215689
93.701836 23.911362 -1.6873063 0.24705882
12.916315 1.9757149 -0.37921804 0
8.1852169 1.6609908 -2.3280504 0.011764706
11.717809 1.7918702 -2.3636007 0.011764706
108.56098 22.120754 7.3453848e-05 0.24705882
14.881 3.0258036 -2.3569419 0.011764706
18.823387 2.8818259 -2.4192891 0.011764706
106.62039 27.209274 0.63940501 0.10980392
134.44214 20.61709 -0.79021138 0.16862746
22.042086 4.4854603 -2.419096 0.0078431377
25.85714 2.6778336 -2.4232223 0.0078431377
124.4597 25.361418 2.9548757 0.074509807
37.141064 7.5631099 -2.6479328 0.011764706
30.312466 4.6441855 -2.5004747 0.011764706
142.91133 21.91622 2.5231583 0.10980392
43.924046 11.203849 -2.9028776 0.047058824
43.028664 4.4586611 -2.5171592 0.027450981
68.269943 13.908163 -3.2437327 0.039215688
56.517437 8.6638803 -2.9946265 0.050980393
72.219711 18.427301 -3.0350881 0.16078432
66.332291 6.8754363 -2.3274727 0.090196081
98.014763 19.9711 -2.3267133 0.10196079
4.9912505 0.74236214 -2.3362334 0
8.1871862 1.6317818 -2.3269718 0.011764706
11.704597 1.7481803 -2.3596783 0.011764706
109.57493 21.929487 7.423036e-05 0.24705882
172.86758 17.314487 -2.0220277 0.082352944
14.883718 2.9724195 -2.3557119 0.011764706
18.829409 2.8156457 -2.4187839 0.011764706
105.18248 26.451618 0.63022131 0.10980392
134.28383 20.113451 -0.78886294 0.16862746
21.987411 4.3945708 -2.4113848 0.0078431377
25.830666 2.5841186 -2.4198763 0.0078431377
116.80326 23.376591 2.7710917 0.074509807
172.93524 17.321264 2.0230625 0.062745102
37.077244 7.4155364 -2.641515 0.011764706
30.296951 4.5337553 -2.4978709 0.011764706
43.889332 11.03209 -2.8980167 0.047058824
42.976418 4.3018045 -2.5132058 0.027450981
92.020302 18.415073 5.4632697 0.078431375
68.658936 13.738153 -3.2599254 0.043137256
9.7821827 1.4601578 -0.51644731 0
73.585899 18.502861 -3.0897977 0.16078432
68.901588 6.8990254 -2.4168136 0.094117649
98.805359 19.773434 -2.3438344 0.10196079
2.6928642 0.3872135 -1.2475706 0
8.2019529 1.6033539 -2.3269711 0.011764706
11.719748 1.707486 -2.3596768 0.011764706
6.7650146 1.3208894 2.1244939e-06 0
14.895364 2.9191072 -2.3544803 0.011764706
18.84824 2.7500999 -2.4187813 0.0078431377
106.36642 26.353294 0.63672608 0.10980392
134.23167 19.626095 -0.78807265 0.16862746
21.980515 4.3118663 -2.4079547 0.0078431377
25.824862 2.4918606 -2.4176416 0.0078431377
117.03838 22.99781 2.7745547 0.074509807
36.967136 7.2578526 -2.6311853 0.011764706
30.203362 4.4109006 -2.4881027 0.011764706
106.86266 26.476294 3.202841 0.24705882
44.107147 10.921362 -2.9092662 0.047058824
42.801556 4.1328359 -2.5015712 0.027450981
92.108757 18.09729 5.4642153 0.078431375
2.6371479 0.5094564 -0.12302981 0
55.992775 8.1828623 -2.9632161 0.050980393
16.882524 3.3097339 2.1068883 0.0039215689
74.683228 18.500122 -3.1327715 0.16470589
98.965233 19.445095 -2.3457716 0.10196079
4.9874921 0.70521617 -2.327781 0
10.372581 1.4736518 -0.30358341 0
8.2188473 1.5770645 -2.3302062 0.011764706
11.725636 1.6667277 -2.3596768 0.0078431377
109.55373 21.129789 9.2937531e-05 0.24705882
194.79349 18.138571 -2.2768705 0.082352944
14.901581 2.8665085 -2.3538654 0.015686275
18.849867 2.6833322 -2.4177711 0.011764706
100.44256 24.513334 0.60073358 0.10980392
9.0502396 1.2849578 -0.052860938 0
21.960287 4.2284961 -2.4040992 0.015686275
25.80961 2.3996482 -2.415411 0.0078431377
116.88234 22.543858 2.7689714 0.074509807
36.953068 7.1213765 -2.6283951 0.011764706
30.135693 4.2937832 -2.4812682 0.011764706
10.186295 2.4760149 -0.66899085 0
42.61692 3.9650574 -2.4899437 0.027450981
20.873178 2.9720531 0.8571474 0.0078431377
69.574364 13.415708 -3.2984405 0.043137256
14.775972 2.1020012 -0.77979648 0
75.221031 18.355148 -3.1526361 0.16470589
100.65807 19.413359 -2.3842938 0.10196079
5.0006962 0.68945903 -2.3328524 0.0039215689
94.424454 22.695116 -1.6942708 0.24705882
8.2243023 1.5485228 -2.3302062 0.011764706
11.731384 1.6259437 -2.3596768 0.011764706
117.67583 22.271324 0.0001001955 0.24705882
14.915381 2.8153656 -2.3544803 0.011764706
18.859119 2.617672 -2.4177709 0.011764706
100.0414 24.045809 0.59782737 0.10980392
21.928024 4.1430907 -2.3989587 0.0078431377
25.813862 2.3093386 -2.4150393 0.0078431377
91.908302 17.392675 2.1756463 0.074509807
36.875767 6.9731922 -2.6211402 0.011764706
30.099165 4.1815729 -2.4770372 0.011764706
15.929892 3.8196874 0.47546574 0.0039215689
43.398315 10.424962 -2.857589 0.043137256
42.61459 3.8149951 -2.4890132 0.027450981
91.942513 17.399157 5.4470062 0.078431375
69.919144 13.2294 -3.3125858 0.043137256
55.652893 7.73703 -2.942282 0.047058824
8.2352095 1.1394991 0.67500323 0
75.587746 18.165489 -3.1653361 0.16470589
11.396423 2.1491125 3.0954821 0
100.68594 19.054573 -2.3833632 0.10196079
4.9960036 0.67032123 -2.3294711 0.0039215689
13.247083 3.1234221 -0.2367865 0
138.83185 18.79203 -4.0758128 0.15686275
8.2412853 1.5206457 -2.333441 0.015686275
11.741151 1.5836308 -2.3604612 0.011764706
91.917656 17.045906 7.7489043e-05 0.23529412
14.910056 2.7579651 -2.3520207 0.015686275
18.856792 2.5471065 -2.4162557 0.011764706
100.21836 23.700346 0.59836227 0.10980392
8.2426682 1.1099284 -0.048072629 0
21.892229 4.0534329 -2.3933895 0.0078431377
25.818186 2.2145424 -2.4146676 0.0078431377
91.904587 17.043482 2.1740644 0.074509807
36.767685 6.8134151 -2.6116538 0.011764706
30.055027 4.0633755 -2.4721551 0.011764706
14.153975 3.3379877 0.42193764 0
17.773113 2.4003747 0.31227049 0.0039215689
14.612739 3.4465282 -0.95935428 0
42.500973 3.648016 -2.4815717 0.027450981
92.005669 17.062241 5.4470067 0.078431375
2.1328142 0.28263897 0.085809015 0
7.7810588 1.4352562 -0.36647609 0
55.197952 7.4677901 -2.9167423 0.047058824
76.209976 18.020098 -3.1886199 0.16470589
11.487798 2.123004 3.1182582 0
7.3494511 0.98898494 1.3438343 0
91.774841 17.019409 -2.1708391 0.10196079
5.0017943 0.65437698 -2.3311617 0
93.026489 21.673468 -1.6664178 0.24705882
129.38795 17.076746 -3.7967844 0.15686275
8.2387028 1.492081 -2.3312845 0.011764706
11.750227 1.5453544 -2.3612459 0.0078431377
14.91523 2.7079527 -2.3514056 0.011764706
18.857265 2.4836774 -2.4152455 0.011764706
100.2224 23.350801 0.59792066 0.10980392
129.51588 17.093636 -0.75890064 0.16862746
21.874249 3.9752688 -2.3899624 0.0078431377
25.749973 2.1228421 -2.4076037 0.0078431377
127.43932 23.199871 3.0132439 0.074509807
36.719414 6.6787415 -2.6066313 0.011764706
30.005098 3.9554951 -2.466948 0.011764706
129.74419 17.123775 2.2836549 0.10980392
6.0091772 1.3901079 -0.39244208 0
42.496922 3.5059028 -2.4806414 0.027450981
129.86244 17.139393 5.3348832 0.24705882
9.1616297 1.6601571 -0.43161842 0
54.917484 7.2446094 -2.9006231 0.047058824
3.2312732 0.4206208 0.26231813 0
76.448372 17.809179 -3.19611 0.16470589
108.59445 19.768007 -2.5673211 0.10196079
4.9896655 0.63522357 -2.3243999 0.0039215689
89.180069 20.44908 -1.5961926 0.24705882
129.44678 16.625118 -3.7967844 0.15686275
8.2514458 1.4648242 -2.3334408 0.0078431377
11.75555 1.5044851 -2.3612459 0.0078431377
10.531848 1.8718926 5.4863804e-06 0.0039215689
14.928484 2.6567221 -2.3520207 0.015686275
18.861885 2.4174867 -2.4147406 0.011764706
100.007 22.932972 0.59615374 0.10980392
9.9242439 1.2692047 -0.05788162 0
21.856668 3.893451 -2.3865352 0.015686275
36.640373 6.532444 -2.5993764 0.011764706
29.994997 3.8478367 -2.4649951 0.011764706
188.99158 24.275263 3.3253376 0.10980392
42.870922 9.8249226 -2.8158894 0.043137256
42.63628 3.3677597 -2.4880829 0.027450981
65.361198 11.65931 -3.0905433 0.039215688
10.814198 1.3835433 -0.56899077 0
76.930786 17.638872 -3.213695 0.16470589
8.7456894 1.553051 -0.20564225 0
5.0097308 0.62107378 -2.3328524 0.0039215689
95.161415 21.489513 -1.7020187 0.24705882
8.3700829 1.4575317 -2.3657897 0
11.764367 1.4661288 -2.3620303 0.0078431377
114.26018 19.997501 9.7491058e-05 0.24705882
51.355179 3.8859997 -0.59900749 0.8509804
14.937212 2.6073501 -2.3520207 0.015686275
18.861927 2.3540859 -2.4137304 0.011764706
104.42498 23.582428 0.62203234 0.10980392
16.084307 2.0065858 -0.09393321 0
21.838121 3.8156087 -2.3831081 0.0078431377
25.743969 1.9463124 -2.4057448 0.019607844
127.67699 22.346611 3.0151985 0.074509807
36.575363 6.3959064 -2.5932381 0.011764706
29.971991 3.7440376 -2.4620662 0.011764706
2.1360126 0.47231054 0.062368128 0
42.669643 9.6300602 -2.8005393 0.043137256
42.400337 3.2077966 -2.4736645 0.027450981
10.264578 1.7892339 0.604186 0
65.00592 11.373725 -3.0719309 0.039215688
54.56916 6.8213258 -2.8796887 0.047058824
9.0808821 1.1304058 0.74335021 0
77.398193 17.476273 -3.2307916 0.16470589
16.800625 2.0962038 3.0786984 0.0039215689
3.2716467 0.56486309 -0.076210998 0
5.0119739 0.60287631 -2.3328524 0.0039215689
93.248352 20.698572 -1.6664175 0.24705882
11.781343 1.4245882 -2.3643837 0.0039215689
51.353119 3.6967762 -0.59882122 0.86274511
14.934981 2.5507529 -2.3501761 0.011764706
18.842854 2.2817621 -2.4101949 0.011764706
104.15146 23.119944 0.61989331 0.10980392
13.161113 1.5920746 -0.076779045 0
21.816683 3.7296708 -2.3792527 0.0078431377
25.806545 1.8561229 -2.4109497 0.0078431377
36.496304 6.2444649 -2.5859835 0.011764706
29.918232 3.6261663 -2.4565334 0.011764706
42.564362 9.442625 -2.7913294 0.043137256
42.312244 3.0453725 -2.4678507 0.027450981
64.854202 11.102511 -3.0628111 0.039215688
54.197258 6.5733185 -2.8587549 0.047058824
15.839194 2.7056572 1.9674691 0.0039215689
78.44883 17.411882 -3.2719865 0.24705882
51.337299 3.695636 -1.7957458 0.66274512
3.3525252 0.56654048 -0.078071974 0
5.0068469 0.58468693 -2.3294711 0
93.402107 20.391005 -1.6678833 0.24705882
8.2777319 1.3807231 -2.3366756 0.0078431377
11.809617 1.3863654 -2.3690906 0.0039215689
51.39365 3.5195584 -0.59914708 0.81960785
14.951591 2.5000679 -2.3514054 0.015686275
18.858587 2.2170577 -2.4112051 0.011764706
9.7252359 2.1142559 0.057589147 0
21.778582 3.6450956 -2.3736837 0.0078431377
25.832735 1.7675442 -2.4128087 0.0078431377
36.395885 6.0967202 -2.5773339 0.011764706
29.879234 3.5157959 -2.4523025 0.011764706
4.1168118 0.47980067 0.07155472 0
42.402077 9.2515478 -2.778538 0.043137256
42.350506 2.8997164 -2.4694786 0.027450981
64.604897 10.827957 -3.0492241 0.039215688
54.164333 6.3776956 -2.8558238 0.047058824
12.986315 2.1704516 1.6111205 0
79.407211 17.334232 -3.3094363 0.24705882
7.0723424 0.82809824 1.2900233 0
120.87673 20.265913 -2.850841 0.10196079
5.0087581 0.5682326 -2.3294711 0.0039215689
95.533714 20.525097 -1.7047408 0.24705882
8.2784634 1.3527938 -2.3355975 0.0078431377
11.79856 1.3455645 -2.3659525 0.0039215689
14.948097 2.448704 -2.3495607 0.015686275
18.85795 2.1537602 -2.4101949 0.011764706
105.6282 22.694897 0.62775242 0.10980392
21.755226 3.5672066 -2.369828 0.015686275
25.834478 1.6817673 -2.412437 0.0078431377
11.149662 1.8245709 0.26185596 0
36.258408 5.950273 -2.5661728 0.011764706
29.870924 3.4145832 -2.4506752 0.011764706
118.65708 25.49544 3.5308769 0.24705882
42.17104 9.0548429 -2.7613978 0.043137256
42.236355 2.7513654 -2.4622693 0.027450981
6.0110593 0.98022962 -0.28160489 0
53.681175 6.1405039 -2.8292377 0.047058824
8.818923 1.004441 0.72089332 0
78.964088 16.963472 -3.2885945 0.24705882
120.74596 19.832714 -2.8461883 0.10196079
5.0107112 0.55090559 -2.3294711 0.0039215689
16.351046 3.4453642 -0.29088619 0.0039215689
8.2869387 1.3246605 -2.3366756 0.0078431377
62.015526 3.8240292 -0.72276568 0.39215687
14.952653 2.3960459 -2.3489459 0.015686275
18.857466 2.0872087 -2.4091847 0.011764706
108.73193 22.965443 0.64572573 0.10980392
9.857235 1.0886301 -0.057370201 0
21.755766 3.4895155 -2.3685429 0.0078431377
25.824289 1.5907611 -2.4109497 0.0078431377
134.95706 21.684448 3.1797223 0.074509807
36.109543 5.7966084 -2.5541747 0.011764706
29.890587 3.3113382 -2.4513259 0.011764706
118.78056 25.088718 3.5319242 0.24705882
42.233746 2.6033463 -2.4615717 0.027450981
31.555117 5.0645738 1.8586127 0.0078431377
13.813633 1.5275942 0.56437439 0
53.408489 5.9206591 -2.8137467 0.047058824
24.691883 2.7345414 2.0243666 0.0039215689
79.855728 16.863905 -3.3232763 0.24705882
26.073589 4.1835251 7.0637093 0.0039215689
5.0163016 0.53309149 -2.3311617 0.0039215689
98.603386 20.448235 -1.7568856 0.24705882
8.2955437 1.295045 -2.3377542 0.0078431377
11.827388 1.2635248 -2.369875 0.0039215689
13.271651 2.0761619 7.9697456e-06 0
14.953524 2.3401701 -2.3477161 0.015686275
18.857096 2.0174034 -2.4081745 0.023529412
109.0817 22.622217 0.64730698 0.10980392
187.57912 20.111462 -1.0960318 0.16862746
21.764481 3.4093084 -2.3681147 0.015686275
25.825974 1.496042 -2.410578 0.0078431377
135.01982 21.187374 3.1793501 0.074509807
35.99258 5.6427398 -2.544409 0.011764706
29.854954 3.1968336 -2.4474204 0.011764706
2.6921036 0.54910588 0.078659333 0
9.1134996 1.8813803 -0.59352183 0
42.223076 2.4475543 -2.4604092 0.027450981
8.6570454 0.92353219 0.35285467 0
8.8323669 1.3793124 -0.41430911 0
53.044571 5.6837296 -2.7934403 0.047058824
16.58345 1.7735746 1.3578216 0
80.453125 16.68252 -3.3455832 0.24705882
5.0272441 0.51575959 -2.3311615 0.0039215689
100.25856 20.425547 -1.7849307 0.24705882
66.65313 6.9073429 -1.9485328 0.06666667
8.3091249 1.2662733 -2.3377535 0.0039215689
11.825232 1.2208186 -2.3667357 0.0039215689
140.45636 21.537947 0.00014555657 0.24705882
14.974616 2.2887743 -2.3483291 0.015686275
109.16119 22.240255 0.64727914 0.10980392
194.74709 20.192719 -1.1374182 0.16862746
21.769627 3.3311439 -2.3663979 0.015686275
25.852076 1.406788 -2.4116893 0.0078431377
135.11781 20.719004 3.1797462 0.074509807
29.831411 3.0883458 -2.4438357 0.011764706
2.7932236 0.55824625 0.081335478 0
2.401772 0.24345727 0.041185662 0
11.080896 2.247602 -0.72117817 0
42.184643 2.2974207 -2.4571464 0.027450981
10.350905 1.0679085 0.42173404 0
52.771221 5.4675674 -2.7775216 0.047058824
80.790138 16.457109 -3.3568046 0.24705882
11.533305 1.7608705 -0.27021691 0
5.0217128 0.49854183 -2.3277807 0.0039215689
98.721878 19.771725 -1.7563801 0.24705882
8.3208961 1.240034 -2.3399098 0.0039215689
11.813605 1.1802094 -2.3635979 0.0039215689
142.41389 21.355251 0.00014776189 0.24705882
14.978214 2.2386947 -2.3477142 0.015686275
7.2397585 1.4398246 0.042592756 0
172.89545 17.347179 -1.0094168 0.16862746
21.768753 3.25734 -2.3651128 0.015686275
25.852621 1.3210227 -2.4113176 0.0078431377
35.778805 5.3589797 -2.5259879 0.011764706
29.789923 2.9844017 -2.4396048 0.0078431377
117.21497 23.477514 3.477602 0.24705882
172.86409 17.34403 3.0317352 0.10980392
14.755706 2.9459281 -0.96088713 0
42.120243 2.1540134 -2.4529603 0.027450981
172.83066 17.340679 7.0746198 0.24705882
51.537079 5.1670532 -2.7115796 0.047058824
81.518295 16.324335 -3.3848102 0.24705882
84.253014 4.3114405 -2.9440339 0.24313726
5.0270305 0.48154885 -2.3294709 0.0039215689
172.54245 16.703751 -5.0431857 0.15686275
8.2908726 1.2061467 -2.3302052 0
11.829364 1.140287 -2.3659511 0.0039215689
4.119369 0.59526521 -2.0507059e-07 0
14.978118 2.1854389 -2.3464844 0.011764706
110.21667 21.675407 0.65265059 0.10980392
21.768187 3.1797893 -2.3638275 0.015686275
25.84116 1.230197 -2.4098303 0.0078431377
35.548565 5.1978121 -2.5084095 0.011764706
29.82 2.8825016 -2.4412322 0.011764706
41.160645 8.0879965 -2.6848989 0.043137256
42.358852 2.0181892 -2.4664483 0.027450981
16.534725 2.413393 0.97000456 0
81.610077 16.046797 -3.3862758 0.24705882
83.297241 3.9711947 -2.9101126 0.24313726
5.0322909 0.46452957 -2.3311615 0.0039215689
8.3217258 1.1812094 -2.3377535 0.0078431377
11.833272 1.099187 -2.3659508 0.0039215689
17.390665 2.4769697 1.4020137e-05 0.0039215689
