# .PCD v0.7 - Point Cloud Data file format
VERSION 0.7
FIELDS x y z intensity
SIZE 4 4 4 4
TYPE F F F F
COUNT 1 1 1 1
WIDTH 1111
HEIGHT 1
VIEWPOINT 0 0 0 1 0 0 0
POINTS 1111
DATA ascii
11.190751 -5.6807871 -2.4900937 0.070588239
52.115322 -23.676556 -0.056526978 0.05882353
40.941441 -23.6339 -0.59519356 0.019607844
13.775111 -6.1943803 -2.3391168 0.011764706
15.429996 -7.869915 -2.2015412 0.06666667
88.38298 -35.117245 0.45890239 0.10980392
43.595665 -22.414549 -0.3325046 0.023529412
18.375595 -8.2920837 -2.1739314 0.070588239
18.307213 -10.507221 -1.9768612 0.039215688
90.620644 -41.234016 2.2153945 0.074509807
50.170212 -28.986044 0.61564183 0.027450981
24.732 -11.190447 -1.9137881 0.047058824
21.084932 -10.790107 -1.9441046 0.062745102
89.456078 -35.544662 2.7022626 0.24705882
52.19762 -26.856529 0.96377742 0.047058824
28.348372 -11.212132 -1.9732565 0.054901961
22.238291 -12.787019 -1.5104492 0.039215688
94.757301 -43.120251 5.950892 0.078431375
55.189316 -28.401369 2.4606123 0.10588235
28.455761 -12.888389 -1.4786284 0.078431375
24.079107 -12.33627 -1.4365609 0.015686275
31.554276 -12.488713 -1.4094701 0.015686275
23.929451 -13.767762 -0.9862566 0.035294119
18.179499 -9.2894878 3.6696112 0.0039215689
45.186138 -18.089865 -0.8947289 0.054901961
27.210423 -14.066948 -0.91746402 0.0078431377
7.8592663 -3.5276783 -2.3733819 0.011764706
11.112717 -5.6864552 -2.476692 0.062745102
52.85054 -24.223049 -0.057389956 0.062745102
41.018238 -23.859716 -0.59744745 0.019607844
13.754494 -6.2394004 -2.3391171 0.011764706
15.382697 -7.909421 -2.1984854 0.054901961
87.991417 -35.299088 0.45745015 0.10980392
43.443047 -22.517727 -0.33190176 0.023529412
18.301031 -8.3307457 -2.1683128 0.078431375
18.234447 -10.545141 -1.9727235 0.054901961
90.70504 -41.635597 2.2208347 0.074509807
50.01511 -29.11731 0.61493242 0.027450981
24.604132 -11.230086 -1.9067169 0.047058824
20.999531 -10.833568 -1.9394912 0.062745102
89.556595 -35.928463 2.7088847 0.24705882
52.204067 -27.078705 0.96556664 0.047058824
6.7530994 -2.6385226 -0.46174973 0
22.171633 -12.845962 -1.5087869 0.047058824
58.16497 -30.181911 2.5983047 0.10980392
28.271303 -12.916935 -1.4712201 0.070588239
23.91761 -12.352713 -1.4293088 0.023529412
23.766321 -13.777833 -0.981372 0.027450981
12.932942 -6.6338272 2.6033568 0
4.639945 -2.3374603 -2.3511395 0.0078431377
45.226982 -18.298323 -0.89687347 0.054901961
25.926905 -13.518867 -0.87562782 0.0039215689
7.846282 -3.5557694 -2.3733819 0.011764706
11.102215 -5.7319283 -2.4790547 0.05882353
52.692478 -24.383884 -0.057317168 0.062745102
27.050735 -15.829521 -0.39444423 0.0078431377
13.684937 -6.2674413 -2.3310738 0.011764706
15.300914 -7.9373808 -2.1908491 0.054901961
57.681725 -23.358711 0.29940844 0.054901961
43.200871 -22.592402 -0.33067453 0.023529412
18.194635 -8.3619003 -2.1592367 0.05882353
18.147644 -10.582905 -1.9674582 0.039215688
90.838364 -42.100143 2.2278812 0.074509807
50.059677 -29.389082 0.61683232 0.027450981
24.551952 -11.314457 -1.9058685 0.047058824
20.963211 -10.911624 -1.9398165 0.062745102
89.646568 -36.346066 2.7156188 0.24705882
52.115089 -27.274738 0.9657743 0.047058824
22.231043 -12.989293 -1.5161061 0.047058824
98.352768 -51.562004 4.4090347 0.24705882
28.075195 -12.950772 -1.4634315 0.086274512
23.815592 -12.409879 -1.4258933 0.023529412
31.532961 -12.734452 -1.4124819 0.035294119
23.309284 -13.624664 -0.96443862 0.015686275
11.556608 -5.9703531 2.3264458 0
30.800444 -14.216471 -0.81945795 0.011764706
4.625762 -2.3488176 -2.3477511 0.0039215689
2.0961266 -0.78178406 -0.039554261 0
7.8414192 -3.5844111 -2.3755455 0.0078431377
11.110868 -5.7827692 -2.4853587 0.062745102
44.117218 -20.5786 -0.048292313 0.043137256
48.172455 -28.491842 -0.70470262 0.035294119
13.65692 -6.3088098 -2.3298366 0.011764706
15.197371 -7.9466066 -2.179651 0.06666667
57.781586 -23.622087 0.30033049 0.054901961
43.118645 -22.731163 -0.33061248 0.023529412
18.119991 -8.3996334 -2.1536176 0.050980393
18.088478 -10.628168 -1.9648225 0.054901961
90.948112 -42.517559 2.2340367 0.074509807
50.18549 -29.687029 0.61962849 0.027450981
24.438417 -11.35964 -1.8999285 0.047058824
20.863495 -10.946876 -1.9338857 0.054901961
89.699432 -36.713818 2.7208927 0.24705882
52.607555 -27.755583 0.97666836 0.047058824
27.817801 -11.331853 -1.944189 0.019607844
22.005878 -12.954261 -1.5035698 0.023529412
7.7558336 -3.544306 0.47684717 0
97.591377 -51.574879 4.3825021 0.24705882
27.098614 -12.605865 -1.4144194 0.039215688
23.80608 -12.504981 -1.4278078 0.031372551
31.449886 -12.821637 -1.4106538 0.050980393
23.621439 -13.913519 -0.97934616 0.027450981
30.8002 -14.339953 -0.82071739 0.011764706
4.6143365 -2.3625851 -2.346056 0.0039215689
44.876007 -18.511087 -0.89239496 0.054901961
26.864128 -14.243666 -0.91071707 0.019607844
7.8323407 -3.6127493 -2.3766277 0.011764706
11.080236 -5.8153191 -2.4829917 0.05882353
44.536934 -20.964304 -0.048814829 0.043137256
43.09642 -25.680696 -0.63161588 0.035294119
13.599087 -6.3388953 -2.3236489 0.015686275
15.15204 -7.989604 -2.1771033 0.070588239
86.27182 -35.659359 0.45034271 0.10980392
18.036634 -8.4366808 -2.1471341 0.082352944
18.030766 -10.678313 -1.9625618 0.054901961
91.026924 -42.941765 2.2396586 0.074509807
43.20726 -25.746897 0.53404582 0.023529412
24.254328 -11.376005 -1.8886133 0.05882353
20.737246 -10.972032 -1.9256492 0.054901961
89.833015 -37.134682 2.7288673 0.24705882
52.746727 -28.064602 0.98109895 0.047058824
27.442493 -11.289214 -1.9205636 0.027450981
21.086847 -12.50741 -1.4432851 0.023529412
27.679358 -12.995135 -1.4472834 0.070588239
23.818659 -12.617446 -1.4312137 0.031372551
31.198174 -12.845027 -1.4013252 0.035294119
23.641329 -14.036286 -0.98220527 0.027450981
10.8144 -5.6730809 2.1822841 0
4.60606 -2.3780198 -2.346055 0.0039215689
45.065689 -18.773458 -0.89748365 0.054901961
26.687517 -14.26845 -0.90638399 0.0078431377
7.8162041 -3.6377506 -2.375545 0.0078431377
11.035697 -5.8402882 -2.4774714 0.062745102
44.43821 -21.106918 -0.048786446 0.043137256
48.167583 -28.943892 -0.70753568 0.035294119
13.54834 -6.372056 -2.3186989 0.011764706
15.103096 -8.0304995 -2.1740468 0.06666667
85.648666 -35.751217 0.4477109 0.10980392
43.120911 -23.117538 -0.33184037 0.023529412
17.938881 -8.4664001 -2.1389215 0.050980393
18.024069 -10.759043 -1.9659345 0.039215688
91.096664 -43.363605 2.2451029 0.074509807
49.887981 -29.981613 0.61855811 0.027450981
24.106432 -11.408404 -1.8801266 0.047058824
20.597029 -10.988882 -1.9160953 0.054901961
89.909409 -37.533772 2.7351553 0.24705882
52.905502 -28.386305 0.98592615 0.047058824
27.406603 -11.38582 -1.9208273 0.019607844
21.186661 -12.66691 -1.4532042 0.015686275
10.697316 -5.0120459 0.66507941 0
96.472351 -51.846157 4.3483601 0.24705882
27.370573 -12.965439 -1.4334149 0.070588239
23.841291 -12.735834 -1.435259 0.015686275
18.395767 -9.8033037 1.6663446 0.0039215689
30.858194 -12.829802 -1.3879961 0.035294119
23.575073 -14.107738 -0.98147833 0.035294119
38.805668 -18.420132 -1.0383525 0.019607844
4.5941272 -2.3924651 -2.3443599 0.0039215689
45.051834 -18.961164 -0.8985948 0.054901961
26.663149 -14.38074 -0.90733904 0.0078431377
7.8097563 -3.6690254 -2.3777089 0.0078431377
11.038338 -5.8931103 -2.4829867 0.050980393
47.124779 -22.599987 -0.051735755 0.054901961
44.12122 -26.722898 -0.64941609 0.035294119
13.507089 -6.4124074 -2.3156049 0.011764706
15.01778 -8.0548077 -2.1659009 0.062745102
52.468178 -22.095795 0.27366662 0.039215688
43.148365 -23.335829 -0.33269665 0.023529412
17.843231 -8.5003471 -2.1311407 0.050980393
18.008329 -10.838828 -1.9685557 0.054901961
55.839737 -26.796398 1.3761566 0.043137256
49.81876 -30.188503 0.61909348 0.027450981
24.107595 -11.516762 -1.8835198 0.039215688
20.50407 -11.035064 -1.9111509 0.062745102
90.051147 -37.980648 2.7436943 0.24705882
1.1816018 -0.53854382 0.01698065 0.011764706
27.357332 -11.482392 -1.9203117 0.039215688
21.419827 -12.913948 -1.4725773 0.031372551
2.1226971 -0.93055058 0.12119694 0
18.327044 -9.8522654 0.81940913 0.0078431377
27.304869 -13.056311 -1.4324638 0.050980393
23.804979 -12.828156 -1.4358927 0.015686275
30.766788 -12.92345 -1.3860003 0.035294119
23.509546 -14.185044 -0.98089415 0.027450981
22.217701 -11.9655 4.543911 0.0039215689
30.530506 -14.609513 -0.8176136 0.011764706
4.5802293 -2.4028144 -2.3409712 0.0039215689
45.014118 -19.111422 -0.89904159 0.054901961
26.666937 -14.49071 -0.90901601 0.0078431377
7.8051186 -3.6963131 -2.3798726 0.011764706
11.019768 -5.9271669 -2.4829843 0.054901961
43.987644 -21.259142 -0.048454911 0.043137256
42.536396 -25.941469 -0.6272282 0.023529412
13.472654 -6.4473138 -2.3131292 0.011764706
14.898431 -8.0499249 -2.152158 0.047058824
52.346996 -22.237955 0.27338931 0.039215688
43.302914 -23.595493 -0.33444783 0.023529412
17.744892 -8.52104 -2.1224954 0.050980393
17.967398 -10.890594 -1.9677973 0.054901961
91.292267 -44.220592 2.2573335 0.074509807
43.321857 -26.422493 0.53888732 0.023529412
23.866693 -11.492536 -1.8673953 0.039215688
20.427338 -11.075864 -1.907195 0.062745102
90.082176 -38.327053 2.7482977 0.24705882
26.619818 -11.268678 -1.870718 0.019607844
21.246361 -12.899233 -1.4633503 0.031372551
7.5194383 -3.5575922 0.46495518 0
51.442604 -28.050133 2.322526 0.05882353
25.833132 -12.44703 -1.3568552 0.019607844
22.275414 -12.087273 -1.3452867 0.0039215689
13.033394 -7.0289536 1.1794045 0
30.737061 -13.024147 -1.3865035 0.035294119
23.621666 -14.354292 -0.98748207 0.027450981
4.9606676 -2.3155558 1.4136763 0
20.21549 -10.959483 4.1378222 0.0039215689
38.452759 -18.572546 -1.032244 0.019607844
4.5741405 -2.4214118 -2.3426638 0.0078431377
24.150692 -13.233382 -0.82450819 0.0039215689
7.7977819 -3.7289217 -2.382036 0.011764706
11.003792 -5.9725051 -2.4845574 0.05882353
44.017036 -21.481731 -0.048570734 0.043137256
42.181282 -25.946194 -0.62342787 0.023529412
13.426507 -6.4878387 -2.3094161 0.011764706
14.811843 -8.0756569 -2.1440115 0.035294119
52.33469 -22.469715 0.27377111 0.039215688
43.996304 -24.194033 -0.34050289 0.039215688
17.658482 -8.5621357 -2.1160109 0.047058824
17.867855 -10.923193 -1.9614035 0.06666667
58.261871 -28.463804 1.4410167 0.043137256
43.485489 -26.751904 0.54224312 0.023529412
23.743568 -11.544735 -1.8611704 0.054901961
20.402105 -11.16313 -1.9088356 0.054901961
52.413807 -22.503843 1.5985906 0.062745102
51.185917 -28.164742 0.95931345 0.047058824
26.50304 -11.33849 -1.8655277 0.027450981
19.314816 -11.81718 -1.3323902 0.039215688
51.114101 -28.124975 2.3125238 0.05882353
25.451494 -12.381864 -1.3391861 0.023529412
22.491077 -12.316821 -1.3612688 0.0039215689
22.673952 -11.020351 3.0483265 0.0039215689
5.9981236 -3.2076535 0.53357208 0
30.598742 -13.103391 -1.3825071 0.050980393
23.498363 -14.402133 -0.9846018 0.0078431377
39.598404 -19.315962 -1.0650897 0.019607844
4.5656586 -2.4367056 -2.3426626 0.0078431377
31.061798 -13.430914 -0.62166148 0.023529412
7.7812648 -3.7537532 -2.3809536 0.011764706
10.934909 -5.98351 -2.4735193 0.062745102
44.479622 -21.900536 -0.049144063 0.043137256
41.958042 -26.010155 -0.62144303 0.023529412
13.368354 -6.5164909 -2.3032279 0.011764706
14.814758 -8.1440239 -2.1485875 0.043137256
52.549377 -22.779251 0.27531818 0.039215688
43.981476 -24.385715 -0.34103251 0.039215688
17.517982 -8.5684204 -2.1026108 0.047058824
17.782291 -10.955365 -1.9561371 0.06666667
7.894042 -3.8094518 0.19008163 0
49.666279 -30.810137 0.62125635 0.027450981
23.588673 -11.57029 -1.8521167 0.054901961
20.195841 -11.140525 -1.8930247 0.035294119
51.927963 -22.508936 1.5860964 0.05882353
50.895111 -28.235554 0.95569909 0.047058824
10.35694 -5.0273089 0.6479286 0
50.568657 -28.053656 2.2921867 0.05882353
24.655996 -12.098053 -1.2992907 0.039215688
22.559616 -12.456779 -1.3680842 0.0039215689
4.4937096 -2.1280224 0.58312052 0
2.5905929 -1.3366592 0.21998203 0
30.552818 -13.209459 -1.3825099 0.070588239
23.478489 -14.502425 -0.98588151 0.0078431377
5.2590904 -2.8225772 1.0503701 0
45.419464 -19.846525 -0.91128147 0.054901961
24.062399 -13.392004 -0.82449543 0.019607844
7.7763257 -3.7810237 -2.3831167 0.0078431377
10.912637 -6.0153232 -2.4727283 0.062745102
44.023964 -21.846865 -0.048724685 0.043137256
41.733803 -26.051998 -0.61930853 0.023529412
13.326592 -6.5472875 -2.2995143 0.011764706
14.809862 -8.201581 -2.1516368 0.031372551
52.429939 -22.922735 0.27506208 0.039215688
40.405712 -22.560314 -0.31385523 0.023529412
17.409122 -8.5820227 -2.0926683 0.050980393
17.7073 -10.985194 -1.9516224 0.054901961
53.078972 -26.359859 1.3165834 0.031372551
42.75816 -26.694202 0.53535777 0.023529412
23.416508 -11.576111 -1.8413658 0.054901961
20.174648 -11.211123 -1.8943366 0.043137256
9.2562447 -3.978199 0.27696723 0
50.949169 -28.474934 0.95841712 0.047058824
26.365118 -11.485495 -1.8611178 0.035294119
20.562099 -12.775362 -1.4250288 0.039215688
50.26416 -28.09054 2.282342 0.05882353
24.621445 -12.17664 -1.2994784 0.035294119
22.879183 -12.728286 -1.3900355 0.011764706
17.128344 -9.5019016 1.5650535 0
30.21839 -13.176314 -1.3691782 0.035294119
23.470064 -14.59888 -0.98744887 0.0078431377
13.400121 -6.5837474 3.9379044 0
28.564396 -14.141799 -0.76983339 0.011764706
4.5462422 -2.4638984 -2.3409662 0.011764706
31.001295 -13.648325 -0.62225527 0.023529412
24.151228 -13.552018 -0.82917589 0.023529412
7.7665195 -3.8092172 -2.384198 0.0078431377
10.888156 -6.0507898 -2.4719367 0.06666667
43.779476 -21.915291 -0.048539039 0.043137256
41.710232 -26.239588 -0.62029529 0.023529412
13.264817 -6.5735812 -2.292707 0.011764706
14.701713 -8.2076435 -2.1399283 0.015686275
52.583664 -23.208626 0.27629995 0.039215688
40.232712 -22.647388 -0.31311184 0.023529412
17.32221 -8.6135006 -2.0857511 0.050980393
17.604883 -11.005854 -1.9444776 0.06666667
52.950909 -26.526348 1.3156974 0.031372551
7.7744908 -4.793015 0.094261326 0
23.336746 -11.637405 -1.8382518 0.054901961
20.11804 -11.271007 -1.8926842 0.062745102
90.463234 -39.988079 2.7767317 0.24705882
50.567486 -28.492455 0.95308846 0.043137256
26.335815 -11.581647 -1.8618988 0.027450981
20.426241 -12.788799 -1.4186367 0.023529412
5.777751 -3.1601894 0.25372514 0
24.46813 -12.206212 -1.2935867 0.019607844
22.817228 -12.797578 -1.3889627 0.011764706
29.883539 -13.153182 -1.3560132 0.035294119
29.883314 -18.765388 -1.2617843 0.015686275
28.261196 -14.113226 -0.76295048 0.035294119
4.5524483 -2.4841721 -2.3446829 0.0078431377
31.283009 -13.911981 -0.63053966 0.023529412
24.04249 -13.606297 -0.82828897 0.019607844
7.774972 -3.8452303 -2.3890235 0.011764706
10.870831 -6.08986 -2.4718235 0.05882353
3.2532468 -1.5499556 -0.0051697521 0
46.940975 -29.791155 -0.70249999 0.035294119
13.220689 -6.6094136 -2.2885473 0.011764706
14.593346 -8.2141333 -2.1280851 0.011764706
52.456192 -23.388481 0.27320251 0.039215688
40.043751 -22.737597 -0.31451884 0.023529412
17.234591 -8.6468191 -2.0789769 0.05882353
17.575262 -11.074782 -1.9459152 0.047058824
55.50412 -28.071886 1.378827 0.043137256
42.989082 -27.272175 0.53819674 0.023529412
23.094944 -11.621463 -1.8231663 0.050980393
20.018244 -11.309906 -1.8876042 0.043137256
90.548508 -40.437504 2.7789671 0.24705882
50.786797 -28.868145 0.95629567 0.047058824
26.278706 -11.672185 -1.8618058 0.027450981
11.481281 -5.7263899 0.72225291 0
50.316414 -28.599583 2.2909684 0.05882353
24.384203 -12.275855 -1.2925071 0.035294119
29.411808 -13.074474 -1.3379761 0.035294119
29.871035 -18.911522 -1.265685 0.015686275
6.3292952 -3.497802 1.2776173 0
26.337097 -13.2671 -0.71337992 0.0039215689
4.5414791 -2.4960341 -2.3429875 0.0078431377
43.946407 -19.744936 -0.88798004 0.054901961
23.895643 -13.621359 -0.82466996 0.023529412
7.7765651 -3.87603 -2.3933511 0.011764706
10.861842 -6.1292238 -2.4741855 0.062745102
43.898411 -22.353939 -0.05126008 0.043137256
42.79776 -27.338991 -0.64164376 0.035294119
13.171713 -6.6358948 -2.2835946 0.011764706
14.533072 -8.239543 -2.1229901 0.011764706
53.22464 -23.932646 0.27763718 0.039215688
39.777927 -22.751026 -0.31297913 0.023529412
17.186098 -8.6894312 -2.0763803 0.05882353
17.483408 -11.092752 -1.9395183 0.054901961
4.3049989 -2.1000535 0.10092224 0
43.155655 -27.568489 0.54141039 0.023529412
22.990829 -11.658811 -1.8177853 0.050980393
19.941141 -11.348275 -1.8836445 0.062745102
90.698006 -40.846146 2.7874994 0.24705882
50.362995 -28.835579 0.94999611 0.043137256
25.99815 -11.644043 -1.8443962 0.015686275
20.282049 -12.8888 -1.4153513 0.039215688
21.602947 -10.948705 1.3740081 0.0039215689
49.848629 -28.539768 2.273674 0.05882353
24.306389 -12.331757 -1.2904122 0.035294119
22.833727 -13.010989 -1.3962574 0.011764706
29.989622 -17.124037 2.7685063 0.011764706
29.239452 -13.106998 -1.3319701 0.050980393
21.2463 -13.507561 -0.90006751 0.0078431377
14.740516 -7.4381223 4.3568797 0.0039215689
10.000134 -5.6334229 2.047502 0
10.851751 -5.4490404 -0.29220381 0
4.535872 -2.5129976 -2.3446801 0.011764706
31.13183 -14.091299 -0.6293605 0.023529412
23.886 -13.726042 -0.82598561 0.023529412
7.7629867 -3.9024608 -2.3933499 0.011764706
10.877702 -6.1880393 -2.4828541 0.054901961
43.557068 -22.370615 -0.050954409 0.043137256
43.11853 -27.756847 -0.64788938 0.035294119
13.123884 -6.6684566 -2.2792599 0.015686275
14.476762 -8.2736187 -2.1189125 0.0078431377
52.55109 -23.848955 0.27452382 0.039215688
41.065292 -23.681213 -0.32373717 0.023529412
17.137993 -8.7395601 -2.0742157 0.047058824
17.401108 -11.124904 -1.9346235 0.06666667
52.708202 -27.092157 1.3135048 0.031372551
43.018864 -27.692192 0.54092443 0.023529412
22.889713 -11.707198 -1.8129697 0.050980393
19.822077 -11.371148 -1.8760594 0.050980393
90.751373 -41.251293 2.7935619 0.24705882
50.113239 -28.924274 0.94718546 0.043137256
25.724871 -11.628124 -1.8277659 0.035294119
18.858896 -12.067591 -1.3181174 0.031372551
10.821996 -5.4806371 0.68226421 0
49.897411 -28.799061 2.2805207 0.05882353
24.039503 -12.300415 -1.2784284 0.023529412
22.919497 -13.166022 -1.404357 0.019607844
5.8671112 -2.9241176 0.77473986 0
18.72846 -10.737029 1.7247787 0.0039215689
28.673443 -12.971362 -1.3081092 0.031372551
18.946733 -12.124311 -0.80370182 0.0078431377
15.789486 -8.0434666 4.6797028 0.0039215689
25.97225 -14.934344 5.3981776 0.011764706
27.240009 -13.951719 -0.74046016 0.011764706
4.5203719 -2.525223 -2.3412902 0.0078431377
30.691204 -14.025747 -0.62145919 0.023529412
23.956354 -13.883371 -0.8301897 0.023529412
7.7520456 -3.9319406 -2.3944309 0.0078431377
10.878649 -6.2409921 -2.4883687 0.070588239
43.655731 -22.623577 -0.051152404 0.043137256
43.063412 -27.944551 -0.6485706 0.035294119
14.394956 -8.2958679 -2.1112707 0.011764706
52.310703 -23.970461 0.273716 0.039215688
41.043839 -23.869179 -0.32423916 0.023529412
17.07057 -8.7832251 -2.0698881 0.05882353
17.343536 -11.177009 -1.9327341 0.06666667
52.207737 -27.075748 1.3034555 0.031372551
42.746201 -27.737543 0.53878015 0.023529412
22.7971 -11.764491 -1.8090029 0.050980393
19.701103 -11.396735 -1.868474 0.05882353
90.828423 -41.68816 2.8006365 0.24705882
50.17955 -29.207912 0.95049453 0.043137256
25.707466 -11.733282 -1.8295854 0.027450981
20.256201 -13.075795 -1.4200584 0.054901961
54.909069 -31.971655 2.5160549 0.10588235
23.972992 -12.376642 -1.2772831 0.023529412
22.740042 -13.172626 -1.3962404 0.019607844
28.734632 -13.125743 -1.3131157 0.031372551
21.544241 -13.91543 -0.91698653 0.0078431377
15.715343 -8.0773344 4.6662974 0.0039215689
11.318844 -6.4977093 2.3329165 0
4.5084066 -2.5384567 -2.3395946 0.0078431377
42.84861 -19.798672 -0.86996359 0.050980393
23.201544 -13.550197 -0.80550212 0.023529412
7.74509 -3.9618659 -2.3965936 0.011764706
10.887204 -6.2961521 -2.4954603 0.05882353
43.328594 -22.644966 -0.050861754 0.043137256
42.510975 -27.795343 -0.6416682 0.035294119
13.012851 -6.7277126 -2.268115 0.043137256
14.321469 -8.3191938 -2.1046474 0.011764706
44.143356 -20.399725 0.23092242 0.019607844
41.373829 -24.255232 -0.32749546 0.023529412
16.930662 -8.7847614 -2.0564806 0.043137256
17.25449 -11.203988 -1.9270873 0.06666667
52.930794 -27.686556 1.3240283 0.031372551
42.886471 -28.041805 0.54182827 0.023529412
22.681711 -11.804354 -1.8030546 0.043137256
19.630285 -11.44653 -1.865501 0.062745102
90.932602 -42.120419 2.8083861 0.24705882
51.428112 -30.177946 0.9763034 0.047058824
25.720655 -11.847464 -1.8334835 0.027450981
49.97934 -29.324341 2.2938998 0.05882353
23.940258 -12.465127 -1.2778491 0.027450981
21.138344 -12.334846 -1.2997929 0.019607844
7.8217912 -4.001946 1.046453 0
20.983742 -12.2434 1.9430575 0.0039215689
28.772013 -13.263977 -1.3169539 0.050980393
26.888107 -14.012876 -0.73355705 0.011764706
4.4995165 -2.553488 -2.3395927 0.0078431377
28.749147 -13.374695 -0.58386976 0.019607844
23.800406 -14.014186 -0.82812423 0.023529412
7.7278085 -3.9863844 -2.39551 0.011764706
10.90562 -6.3574548 -2.5049169 0.050980393
43.263424 -22.802864 -0.0508692 0.043137256
23.990044 -15.747613 -0.3623524 0.0039215689
12.978808 -6.7668562 -2.2662559 0.035294119
14.275287 -8.3583164 -2.1020966 0.011764706
44.086365 -20.55978 0.23099954 0.019607844
41.075684 -24.27219 -0.32578811 0.023529412
16.840153 -8.8114796 -2.0491266 0.047058824
17.168783 -11.232685 -1.9218161 0.054901961
53.137772 -28.031387 1.3316945 0.031372551
42.137943 -27.760132 0.5335539 0.023529412
22.56632 -11.843554 -1.797106 0.043137256
19.569645 -11.502081 -1.8635164 0.062745102
91.023994 -42.548824 2.8158002 0.24705882
49.936592 -29.533653 0.94981062 0.043137256
25.588779 -11.89415 -1.8269868 0.035294119
54.749836 -32.391575 2.5191159 0.10588235
23.886007 -12.542315 -1.2772739 0.019607844
21.09516 -12.407865 -1.2997843 0.0039215689
3.4986057 -1.7467905 0.45275068 0
12.8571 -7.5158072 1.1850845 0
3.93855 -1.7515758 -0.174086 0.011764706
15.669319 -9.1854572 3.259788 0.0039215689
26.966255 -14.173318 -0.73704672 0.047058824
4.4941316 -2.5695989 -2.341285 0.0039215689
30.653635 -14.390244 -0.62367409 0.023529412
23.846439 -14.147797 -0.83136505 0.023529412
7.7213387 -4.0149598 -2.3976727 0.011764706
10.897937 -6.4009824 -2.5080662 0.062745102
47.748543 -31.701462 -0.72407508 0.035294119
12.928406 -6.7943153 -2.261302 0.054901961
14.210037 -8.3825436 -2.0964911 0.011764706
44.386829 -20.879505 0.23295949 0.019607844
43.054443 -25.639786 -0.34213147 0.023529412
16.726646 -8.8216791 -2.0387456 0.050980393
16.412434 -10.809515 -1.8402678 0.031372551
52.82579 -28.090027 1.3261862 0.031372551
41.712864 -27.677172 0.52932221 0.015686275
22.410759 -11.855661 -1.7877606 0.050980393
19.456135 -11.521227 -1.8562605 0.062745102
91.124611 -42.964218 2.8233273 0.24705882
49.907028 -29.739489 0.95114648 0.047058824
25.426489 -11.9203 -1.818151 0.035294119
18.356352 -12.105446 -1.2944174 0.023529412
19.298334 -10.194154 1.2371392 0.0039215689
50.269062 -29.955925 2.3166504 0.05882353
23.801985 -12.598217 -1.2749872 0.035294119
3.48579 -1.7539784 0.45178443 0
28.29804 -13.277173 -1.2992654 0.06666667
21.07387 -13.917173 -0.90287572 0.0078431377
4.4482684 -2.2676656 1.2833848 0
14.287762 -8.4284229 2.9743855 0.0039215689
26.852077 -14.226226 -0.73519659 0.035294119
4.4846816 -2.5853276 -2.3412831 0.0039215689
42.191338 -20.030689 -0.86080354 0.050980393
23.797852 -14.236435 -0.8314746 0.015686275
7.7099605 -4.0443335 -2.3987532 0.019607844
10.894547 -6.452311 -2.5127919 0.05882353
29.210978 -19.496164 -0.44351289 0.011764706
12.889495 -6.8334332 -2.2588234 0.062745102
14.148644 -8.4153967 -2.0919032 0.011764706
44.021194 -20.903545 0.23142448 0.019607844
42.963608 -25.798748 -0.3421391 0.023529412
16.610167 -8.8369493 -2.0283642 0.062745102
17.053591 -11.326452 -1.9176611 0.047058824
52.454891 -28.138617 1.3194333 0.031372551
41.700783 -27.889368 0.53050029 0.023529412
22.328514 -11.916183 -1.7846417 0.050980393
19.325029 -11.538191 -1.8476856 0.078431375
91.211952 -43.414234 2.8309689 0.24705882
49.503185 -29.743795 0.94551092 0.043137256
25.270948 -11.959412 -1.8100944 0.035294119
19.826427 -13.189752 -1.4025038 0.054901961
50.42588 -30.300262 2.3290608 0.05882353
22.844524 -12.19401 -1.2257318 0.019607844
21.945433 -11.709573 3.0054929 0.0039215689
19.56052 -11.67979 1.8212528 0.0039215689
28.101294 -13.309525 -1.2924228 0.031372551
20.830288 -13.864269 -0.89453328 0.0078431377
9.2049885 -5.432466 1.9048209 0
26.746946 -14.295376 -0.73373389 0.011764706
42.103142 -20.168476 -0.86043227 0.050980393
23.768507 -14.331188 -0.83218616 0.015686275
7.6957946 -4.0705314 -2.3987513 0.011764706
10.88871 -6.4997988 -2.5167289 0.050980393
43.370281 -23.44153 -0.051238745 0.043137256
29.099691 -19.568165 -0.44283623 0.011764706
12.848199 -6.8682652 -2.2557259 0.06666667
14.081892 -8.4413681 -2.0862973 0.011764706
43.836227 -21.002605 0.23083115 0.019607844
48.174133 -29.171064 -0.38440478 0.039215688
16.491856 -8.8467445 -2.0175502 0.074509807
16.954594 -11.34503 -1.9108862 0.054901961
52.145496 -28.206352 1.3141049 0.031372551
41.676041 -28.083399 0.53146482 0.023529412
22.167562 -11.928624 -1.7750127 0.050980393
19.250574 -11.584174 -1.8443824 0.062745102
91.319252 -43.856506 2.8390601 0.24705882
49.665615 -30.077789 0.9506653 0.043137256
25.139132 -12.003581 -1.8035966 0.062745102
18.646189 -12.490287 -1.3213581 0.0078431377
50.012447 -30.288506 2.31479 0.05882353
20.91971 -12.599027 -1.2969835 0.0039215689
28.324749 -13.536836 -1.3049365 0.031372551
20.818172 -13.960854 -0.89609879 0.0078431377
8.516737 -5.0569472 1.7628335 0
26.760138 -14.422306 -0.73547494 0.011764706
4.4859767 -2.6250572 -2.351444 0.0039215689
42.104343 -20.331446 -0.86175936 0.050980393
23.702909 -14.392635 -0.83145404 0.019607844
7.6998568 -4.1033077 -2.4041605 0.015686275
10.878265 -6.5394979 -2.5190897 0.050980393
43.240276 -23.546322 -0.051164199 0.043137256
23.889133 -16.148867 -0.36406034 0.0039215689
12.805755 -6.8965936 -2.2520094 0.050980393
14.024848 -8.4662962 -2.0817099 0.011764706
43.899586 -21.202448 0.23152503 0.019607844
43.238426 -26.355446 -0.34567311 0.039215688
16.390717 -8.85781 -2.008466 0.050980393
16.876091 -11.368455 -1.9059912 0.054901961
51.172523 -27.885735 1.2916834 0.031372551
41.81234 -28.36676 0.5343858 0.023529412
22.017965 -11.936304 -1.7659501 0.050980393
19.186886 -11.627316 -1.8417387 0.050980393
49.294601 -30.063864 0.94535661 0.043137256
24.792454 -11.932033 -1.7812471 0.027450981
18.263727 -12.314269 -1.296747 0.0078431377
8.3070784 -4.4352794 0.52710748 0
49.910233 -30.440668 2.3144934 0.05882353
23.709557 -12.861691 -1.2770619 0.019607844
8.1110373 -4.3279872 1.0962595 0
25.639278 -12.342883 -1.1822886 0.0078431377
21.646196 -14.619992 -0.93399179 0.023529412
9.168767 -5.4920592 1.9048288 0
26.697153 -14.496083 -0.73498333 0.011764706
4.4789443 -2.6434066 -2.3531358 0
42.18399 -20.56962 -0.86500525 0.050980393
23.64407 -14.480674 -0.83132124 0.015686275
7.6840439 -4.1320825 -2.4041581 0.019607844
10.873095 -6.5928245 -2.5238144 0.047058824
43.349152 -23.821604 -0.051381044 0.043137256
28.820641 -19.672029 -0.44062245 0.011764706
12.751504 -6.9296722 -2.2470548 0.06666667
13.955108 -8.4963894 -2.0761032 0.011764706
44.726639 -21.815327 0.23638824 0.019607844
48.088413 -29.578844 -0.38531336 0.039215688
16.314808 -8.8968554 -2.0032725 0.050980393
16.159542 -10.969977 -1.828951 0.043137256
3.5889556 -1.8710982 0.084460989 0
41.492157 -28.38133 0.53169286 0.023529412
21.266384 -11.630457 -1.708768 0.050980393
19.053919 -11.645675 -1.8331629 0.05882353
55.029095 -26.862825 1.7134743 0.086274512
47.256271 -29.064678 0.90820676 0.043137256
24.649675 -11.978961 -1.7742288 0.027450981
15.659736 -8.5349646 1.0088552 0
49.796391 -30.633408 2.3146787 0.05882353
23.646011 -12.944147 -1.2762944 0.011764706
9.9123859 -5.3619852 1.3491199 0
19.09794 -11.672355 1.7891338 0.0039215689
21.771086 -14.82677 -0.94187212 0.0078431377
7.2623339 -4.3620453 1.5031173 0
26.634298 -14.593855 -0.73478127 0.011764706
4.4420042 -2.6410985 -2.3378866 0
41.932663 -20.627443 -0.86130905 0.050980393
23.491552 -14.499037 -0.82769841 0.0039215689
7.6830306 -4.1656814 -2.4084849 0.015686275
10.866657 -6.6404104 -2.5277512 0.054901961
42.336063 -23.454588 -0.050296679 0.043137256
22.938196 -15.745988 -0.35123691 0.0039215689
12.678893 -6.9465408 -2.2383864 0.078431375
13.891678 -8.5233898 -2.0710056 0.015686275
44.008343 -21.653362 0.23295394 0.019607844
42.626396 -26.410221 -0.34227616 0.023529412
16.193314 -8.9027719 -1.9920256 0.047058824
16.690811 -11.420118 -1.8943182 0.054901961
50.743126 -28.134146 1.2860159 0.031372551
41.290901 -28.454699 0.53040254 0.015686275
21.121069 -11.645709 -1.7002707 0.015686275
18.843939 -11.606086 -1.8166807 0.062745102
56.98531 -28.067461 1.7777287 0.090196081
47.028904 -29.150558 0.90579563 0.043137256
24.450262 -11.986418 -1.7627928 0.027450981
18.31741 -12.546382 -1.3071272 0.0078431377
49.583973 -30.740858 2.3097799 0.05882353
22.577799 -12.456535 -1.2205737 0.0039215689
21.18338 -13.062293 -1.3219153 0.027450981
20.147005 -12.416695 1.8926535 0.0039215689
25.576775 -12.543204 -1.1836191 0.023529412
22.816845 -15.662089 -0.9898113 0.027450981
7.0398998 -4.2577124 1.458882 0
26.443432 -14.608245 -0.73089033 0.011764706
4.4523139 -2.6601603 -2.3432977 0
31.127323 -15.403075 -0.64129287 0.023529412
21.907221 -13.601694 -0.77399325 0.0039215689
7.6793194 -4.1891465 -2.4089854 0.019607844
10.851827 -6.6717854 -2.5276492 0.054901961
43.876549 -24.486872 -0.054632813 0.050980393
22.468287 -15.517736 -0.34597841 0.0039215689
12.659531 -6.9818316 -2.237922 0.070588239
13.850727 -8.5516043 -2.0682962 0.0078431377
43.878002 -21.755287 0.23013479 0.019607844
42.57642 -26.558317 -0.34492695 0.039215688
16.112259 -8.9179592 -1.9852046 0.043137256
16.595676 -11.424043 -1.8874553 0.054901961
50.684963 -28.304634 1.283695 0.031372551
41.529087 -28.805609 0.53208119 0.023529412
21.118174 -11.725048 -1.7034881 0.043137256
18.701973 -11.592616 -1.8066045 0.062745102
56.366001 -27.976616 1.7576627 0.090196081
47.32954 -29.537664 0.91050529 0.043137256
24.261143 -11.982461 -1.7524812 0.035294119
49.578018 -30.946924 2.3107405 0.05882353
21.141539 -13.121804 -1.3225369 0.0039215689
24.452089 -12.077566 -1.1339508 0.0078431377
22.934391 -15.842824 -0.99809265 0.0078431377
41.965206 -20.98464 -0.86696345 0.050980393
24.016157 -15.039731 -0.85089767 0.0039215689
7.6747041 -4.2208896 -2.4122298 0.015686275
10.845045 -6.7193751 -2.5315864 0.05882353
40.810181 -22.954037 -0.051006291 0.043137256
22.459806 -15.627524 -0.34667107 0.0039215689
12.635081 -7.0252562 -2.2379179 0.074509807
13.787249 -8.5779886 -2.0631964 0.015686275
42.906155 -26.973083 -0.34833425 0.039215688
16.022184 -8.9401541 -1.9778455 0.023529412
16.477486 -11.426244 -1.8784201 0.043137256
50.387432 -28.368469 1.278648 0.031372551
41.366089 -28.905985 0.53130823 0.023529412
20.896507 -11.695858 -1.6887531 0.031372551
18.607468 -11.623037 -1.80132 0.078431375
55.264095 -27.667942 1.72616 0.090196081
47.063843 -29.599432 0.90738201 0.043137256
23.698462 -11.804667 -1.7145107 0.015686275
18.51119 -12.854472 -1.3276479 0.031372551
96.992958 -61.140713 4.5418015 0.24705882
20.126438 -12.582531 -1.2612405 0.011764706
24.431204 -12.172886 -1.1349502 0.0078431377
22.401356 -15.586616 -0.97708547 0.0078431377
11.133968 -6.9011135 2.3401072 0
24.245951 -13.589392 -0.67346126 0.015686275
4.4305758 -2.6877844 -2.3415987 0.0039215689
26.21052 -13.180951 -0.54147941 0.0078431377
35.181118 -22.264244 -1.251855 0.019607844
7.6666136 -4.2507439 -2.414392 0.015686275
10.83806 -6.7669969 -2.5355232 0.054901961
22.525928 -15.790577 -0.34853008 0.0039215689
12.607047 -7.0666366 -2.2372944 0.05882353
13.730445 -8.6082907 -2.0591147 0.011764706
42.663277 -27.027441 -0.3471024 0.039215688
15.928695 -8.9598579 -1.9700536 0.019607844
16.339979 -11.41396 -1.8671296 0.054901961
50.149128 -28.464233 1.275112 0.031372551
41.219231 -29.017128 0.53074777 0.023529412
20.782759 -11.726511 -1.6827981 0.035294119
18.536516 -11.667924 -1.7983427 0.070588239
56.215694 -28.391468 1.7591348 0.090196081
46.943367 -29.75206 0.90708059 0.043137256
23.8458 -11.982246 -1.7282902 0.035294119
17.709999 -12.383202 -1.2727157 0.023529412
8.2726841 -4.5958886 0.52886844 0
46.943329 -29.75182 2.1970534 0.054901961
22.77936 -12.864475 -1.2393843 0.023529412
20.324991 -12.806428 -1.2766036 0.011764706
22.304392 -15.633971 -0.97519875 0.0078431377
6.2870712 -3.4640083 1.8646693 0
24.180998 -13.663312 -0.67296654 0.011764706
27.385712 -13.89615 -0.56687099 0.019607844
29.971279 -19.093811 -1.0679889 0.011764706
7.6584048 -4.2805934 -2.4165542 0.011764706
10.827576 -6.8125358 -2.5386713 0.05882353
7.3991871 -4.1313901 -0.010546771 0.0039215689
23.0732 -16.297876 -0.35789591 0.011764706
12.575449 -7.1059389 -2.2360518 0.074509807
13.670259 -8.6361599 -2.0545239 0.011764706
42.841377 -27.350418 -0.34930035 0.039215688
15.886977 -9.0087366 -1.9687501 0.0078431377
16.274092 -11.45171 -1.8641088 0.054901961
50.254044 -28.755928 1.2803714 0.031372551
41.557392 -29.473522 0.536506 0.023529412
18.492319 -11.72968 -1.7980024 0.062745102
52.986984 -26.98671 1.6605775 0.062745102
50.097786 -32.005501 0.97062421 0.047058824
23.707876 -12.01562 -1.7212652 0.035294119
17.754452 -12.506797 -1.2790926 0.0078431377
47.969528 -30.639912 2.2503831 0.05882353
22.893671 -13.034752 -1.2481316 0.011764706
20.031384 -12.716964 -1.2607905 0.0039215689
7.8408332 -4.895854 0.72878039 0
24.249556 -12.29257 -1.1304328 0.023529412
19.925558 -14.054304 -0.87253827 0.0078431377
24.04648 -13.697101 -0.67052621 0.015686275
4.417789 -2.7211375 -2.3449821 0.0078431377
23.749912 -15.21875 -0.84699821 0.0039215689
7.6500778 -4.3104367 -2.418716 0.011764706
10.800434 -6.847436 -2.5378761 0.05882353
40.86871 -23.552368 -0.051329087 0.043137256
22.174734 -15.77335 -0.3447395 0.0039215689
12.533467 -7.139163 -2.2329516 0.074509807
13.603378 -8.6594048 -2.0489142 0.011764706
45.48259 -23.349274 0.24039148 0.035294119
42.752365 -27.503407 -0.34932959 0.039215688
15.834785 -9.0514517 -1.9661489 0.0078431377
16.195204 -11.479848 -1.8595843 0.043137256
49.866146 -28.764065 1.2730168 0.031372551
41.061138 -29.335377 0.53140962 0.023529412
20.60371 -11.813864 -1.6748523 0.043137256
18.484737 -11.815075 -1.8012877 0.062745102
52.856926 -27.152441 1.659465 0.062745102
47.745506 -30.731161 0.92688704 0.043137256
23.637405 -12.082939 -1.7191808 0.035294119
19.930712 -11.423694 1.3013729 0.0039215689
47.660896 -30.676233 2.2408936 0.05882353
22.892977 -13.139894 -1.2505974 0.015686275
18.936956 -12.107319 -1.1939435 0.0039215689
10.895242 -6.1897945 1.5012357 0
24.210049 -12.378245 -1.1305959 0.043137256
7.6205282 -4.2928014 2.2833424 0
24.095407 -13.836349 -0.67324066 0.027450981
4.3986783 -2.7306151 -2.3398967 0.0078431377
23.509748 -15.184866 -0.84035271 0.0039215689
7.6442013 -4.3435144 -2.4219599 0.015686275
10.808115 -6.9076271 -2.5457551 0.050980393
41.079151 -23.874744 -0.051674746 0.043137256
21.983927 -15.757611 -0.34264022 0.0039215689
12.479919 -7.168345 -2.2279942 0.074509807
13.548282 -8.6932802 -2.0453408 0.011764706
43.274853 -22.410852 0.22902682 0.019607844
42.926067 -27.838226 -0.35155183 0.039215688
15.774035 -9.0926199 -1.9626817 0.0078431377
16.149792 -11.536032 -1.859194 0.050980393
49.988293 -29.078995 1.2789006 0.031372551
40.95335 -29.484903 0.53144646 0.023529412
20.474148 -11.838223 -1.6677632 0.054901961
18.424614 -11.871101 -1.7996277 0.086274512
52.597454 -27.26215 1.6544288 0.062745102
5.6679311 -3.5573363 0.10509086 0
23.507984 -12.124506 -1.7129353 0.035294119
18.36322 -13.137679 -1.3301902 0.031372551
9.76122 -5.5798492 0.63072121 0
3.3505287 -2.0470977 0.14700224 0
22.848114 -13.224962 -1.2507784 0.027450981
20.150696 -12.995878 -1.2742178 0.0039215689
24.118433 -12.442146 -1.1284196 0.035294119
20.394442 -14.607494 -0.8978042 0.0078431377
29.841087 -19.309639 6.4083853 0.011764706
24.075609 -13.941954 -0.67410618 0.039215688
4.3860888 -2.7432401 -2.3381996 0.0078431377
42.056263 -21.962746 -0.87670159 0.050980393
21.32774 -13.868125 -0.76354855 0.0039215689
7.622355 -4.3655391 -2.4197924 0.0078431377
10.826548 -6.9725752 -2.556 0.047058824
40.957649 -23.994936 -0.051611666 0.043137256
22.862844 -16.514452 -0.35727826 0.0039215689
12.441198 -7.2031193 -2.2255127 0.078431375
13.491323 -8.722374 -2.0412583 0.011764706
42.941357 -22.427206 0.22766581 0.019607844
10.898615 -7.0194445 -0.089515693 0
15.725067 -9.1368132 -1.9605124 0.0078431377
16.03863 -11.539999 -1.8509098 0.062745102
49.74176 -29.167347 1.2751898 0.031372551
40.526978 -29.391333 0.52724099 0.015686275
20.312363 -11.838033 -1.6578419 0.054901961
18.31642 -11.890855 -1.7930235 0.043137256
53.16758 -27.794178 1.6755207 0.062745102
47.611309 -31.127604 0.92865431 0.043137256
23.274664 -12.105599 -1.6988881 0.050980393
17.4622 -12.577628 -1.2674483 0.031372551
11.066545 -6.3932948 0.71863985 0
47.233044 -30.878965 2.2311184 0.05882353
21.961748 -12.809227 -1.2043278 0.023529412
20.262131 -13.168463 -1.2842411 0.011764706
7.8549385 -5.0205827 0.73522037 0
24.032391 -12.503246 -1.1264102 0.035294119
9.790988 -5.6419072 2.9649756 0
19.189583 -12.463148 4.1135406 0.0039215689
23.906195 -13.954163 -0.67069221 0.023529412
4.376966 -2.7570825 -2.338197 0.0078431377
29.695114 -19.503088 -1.0676733 0.011764706
7.6210809 -4.397965 -2.4241188 0.015686275
10.809907 -7.0120792 -2.5575705 0.05882353
41.562424 -24.536104 -0.052433353 0.043137256
20.96694 -15.23801 -0.32830128 0.0039215689
12.379858 -7.2214656 -2.218698 0.074509807
13.442469 -8.7532425 -2.0381949 0.0078431377
43.174343 -22.731529 0.22932911 0.019607844
47.71981 -31.425081 -0.3924838 0.043137256
15.663901 -9.1699562 -1.9566129 0.0078431377
15.920018 -11.533517 -1.8414987 0.062745102
50.081547 -29.59059 1.2864927 0.031372551
40.816204 -29.808895 0.53236508 0.023529412
20.310738 -11.927032 -1.6609492 0.062745102
18.103994 -11.836479 -1.7758715 0.043137256
53.255367 -28.065001 1.6812501 0.086274512
47.584549 -31.335367 0.93019301 0.043137256
23.252031 -12.191358 -1.7001836 0.035294119
17.236925 -12.500089 -1.2539419 0.0078431377
12.501495 -7.2932615 0.81546527 0
47.327076 -31.164816 2.2405078 0.05882353
21.867611 -12.850712 -1.2014642 0.011764706
20.221684 -13.237093 -1.2844421 0.0039215689
23.990797 -12.582181 -1.1264056 0.035294119
3.8790865 -2.1772838 1.1366487 0
11.532021 -7.4887595 2.4585643 0
24.021427 -14.128572 -0.67525399 0.023529412
4.3673139 -2.77162 -2.3381944 0.0078431377
27.124935 -14.360802 -0.56654841 0.019607844
21.365931 -14.100246 -0.76834321 0.0039215689
7.5924621 -4.4159107 -2.419786 0.019607844
10.775572 -7.0425215 -2.5551977 0.06666667
41.064579 -24.433933 -0.051909927 0.043137256
20.775337 -15.208117 -0.32610181 0.0039215689
12.32405 -7.245656 -2.2131212 0.082352944
13.382118 -8.7795849 -2.0336032 0.0078431377
43.059441 -22.862535 0.22914854 0.019607844
47.766258 -31.69499 -0.39374128 0.043137256
15.60108 -9.2054834 -1.952713 0.0078431377
15.89887 -11.602499 -1.8437397 0.054901961
49.86813 -29.698812 1.2836716 0.031372551
39.644192 -29.160912 0.51831949 0.015686275
20.279253 -12.003272 -1.6617901 0.062745102
17.989588 -11.850237 -1.7686076 0.035294119
52.934837 -28.131411 1.6741974 0.062745102
42.163273 -27.960581 0.82548457 0.039215688
23.149464 -12.23978 -1.6957577 0.043137256
16.949186 -12.379018 -1.2359375 0.023529412
11.941301 -7.0163651 0.77984756 0
47.251266 -31.351255 2.2421257 0.05882353
22.755304 -13.484048 -1.2532243 0.027450981
18.503506 -12.192629 -1.1770273 0.0039215689
23.939676 -12.66136 -1.1260661 0.023529412
18.706619 -13.678486 -0.82904214 0.0078431377
22.703791 -14.99078 4.8975472 0.0039215689
24.006281 -14.232133 -0.67621613 0.011764706
4.3636265 -2.7901647 -2.3415799 0.0039215689
27.025335 -14.428136 -0.5655055 0.019607844
20.446943 -13.590031 -0.73674685 0.0039215689
7.5901914 -4.449616 -2.4241121 0.015686275
10.75092 -7.0793691 -2.5551906 0.062745102
43.058453 -25.829884 -0.054445937 0.050980393
20.834394 -15.363437 -0.32785743 0.0039215689
12.291912 -7.2838268 -2.2118773 0.094117649
13.305276 -8.7945528 -2.0264649 0.0078431377
43.490143 -23.286774 0.23191699 0.019607844
47.642044 -31.851879 -0.39359894 0.043137256
15.548417 -9.2468414 -1.9501104 0.0078431377
15.784822 -11.602484 -1.8350796 0.054901961
49.490173 -29.706806 1.2765868 0.031372551
39.384983 -29.181301 0.51627755 0.015686275
20.185974 -12.042364 -1.6575327 0.050980393
17.613861 -11.687772 -1.7353034 0.050980393
16.213097 -8.6106625 0.50786269 0.0039215689
41.823044 -27.944088 0.82072246 0.039215688
23.064421 -12.297091 -1.6926317 0.035294119
17.033962 -12.532791 -1.2453895 0.023529412
5.4253035 -3.1442335 0.34643617 0
47.523129 -31.771498 2.2604029 0.05882353
22.550695 -13.467784 -1.244459 0.027450981
20.049196 -13.323045 -1.2792906 0.019607844
19.494671 -11.625055 2.7389894 0.0039215689
23.877741 -12.734647 -1.1252252 0.035294119
23.932487 -14.300664 -0.67552447 0.0039215689
4.3483458 -2.7998719 -2.3381886 0.0078431377
21.650324 -14.501523 -0.78217667 0.0039215689
7.5852647 -4.4800701 -2.4273558 0.015686275
10.756618 -7.134069 -2.5622807 0.050980393
49.912823 -30.186928 -0.062967137 0.062745102
20.089008 -14.910962 -0.31683585 0.0039215689
12.233912 -7.3033447 -2.2056811 0.090196081
13.253033 -8.8223791 -2.0228918 0.0078431377
43.440811 -23.445425 0.23207965 0.019607844
23.720463 -15.901518 -0.19642423 0.0039215689
15.493876 -9.2832127 -1.9470756 0.0039215689
15.746258 -11.654074 -1.8350655 0.062745102
50.235641 -30.382797 1.2985538 0.031372551
40.004738 -29.84864 0.52581567 0.015686275
20.166389 -12.120973 -1.6592231 0.050980393
51.213192 -27.66045 1.6254423 0.062745102
41.842785 -28.158108 0.82298166 0.039215688
22.900705 -12.306217 -1.6835246 0.035294119
17.07855 -12.653208 -1.251765 0.015686275
41.931606 -28.217943 1.9975455 0.050980393
20.86331 -12.544171 -1.1529016 0.0078431377
18.423395 -12.319114 -1.1772161 0.011764706
5.3003325 -3.0919089 0.72314769 0
15.09799 -10.069485 1.4465822 0
23.737009 -12.75972 -1.120542 0.035294119
5.2537956 -3.0635281 1.5728563 0
10.078477 -6.6744561 2.1575477 0
23.761887 -14.304523 -0.67201251 0.015686275
4.3410473 -2.8170722 -2.33988 0.0039215689
26.692389 -14.488314 -0.56060523 0.019607844
7.5753598 -4.5111055 -2.4295166 0.011764706
10.697994 -7.1505976 -2.5543871 0.05882353
48.382786 -29.499912 -0.061192274 0.05882353
20.579857 -15.396119 -0.32548571 0.0039215689
12.196949 -7.3411846 -2.2038178 0.082352944
13.168158 -8.8343763 -2.0147345 0.0078431377
43.18615 -23.511572 0.23117872 0.019607844
29.201242 -19.763634 -0.24236944 0.011764706
15.439397 -9.3267183 -1.9444724 0.0078431377
15.66849 -11.684536 -1.8309149 0.054901961
49.448689 -30.152447 1.2809875 0.031372551
39.652573 -29.811018 0.52263165 0.015686275
20.135439 -12.202381 -1.6603458 0.035294119
17.46596 -11.764094 -1.7286862 0.050980393
50.760689 -27.655298 1.6142427 0.062745102
41.435272 -28.103256 0.81697476 0.031372551
22.70837 -12.308847 -1.6725961 0.043137256
17.054359 -12.731811 -1.2534046 0.015686275
9.8033533 -5.8750196 0.64147937 0
41.692513 -28.278368 1.9910723 0.050980393
18.483732 -12.457788 -1.1840349 0.011764706
5.3329897 -3.1375008 0.7294333 0
9.4933548 -6.3286829 0.90360481 0
23.63048 -12.813266 -1.1176956 0.023529412
20.249357 -15.146488 -0.90502465 0.023529412
23.846478 -16.1122 5.182941 0.0039215689
4.337605 -2.8293993 -2.3385115 0.0078431377
26.777185 -14.650248 -0.56480932 0.019607844
21.84548 -14.853803 -0.79408729 0.0039215689
7.5689645 -4.5367675 -2.4300175 0.015686275
10.711449 -7.207128 -2.5621719 0.054901961
42.869972 -26.323467 -0.056960121 0.050980393
21.394711 -16.121309 -0.34049588 0.0039215689
12.173927 -7.3788218 -2.2033365 0.082352944
43.733234 -24.003485 0.23208337 0.019607844
41.687149 -28.481346 -0.34916431 0.039215688
15.392474 -9.3652039 -1.94238 0.0039215689
15.570484 -11.687768 -1.8240038 0.043137256
50.087727 -30.77791 1.2973148 0.031372551
39.726429 -30.077002 0.52249599 0.015686275
19.830515 -12.104226 -1.6388702 0.035294119
17.457209 -11.840062 -1.7320641 0.05882353
50.83094 -27.918606 1.6164399 0.062745102
41.52446 -28.369347 0.81808245 0.039215688
22.461489 -12.269715 -1.6580372 0.023529412
17.13998 -12.882458 -1.2634727 0.031372551
101.1203 -62.273331 6.772665 0.078431375
10.877265 -7.3203282 0.51075035 0
20.895891 -14.20173 -1.3439419 0.0039215689
7.0582252 -4.2210269 0.97592896 0
15.245462 -10.320277 1.4662112 0
23.791019 -13.003065 -1.1284267 0.015686275
19.108513 -14.380982 -0.8566246 0.023529412
9.2209635 -5.5555415 2.8200347 0
23.603729 -14.432828 -0.67154449 0.011764706
4.3281965 -2.843049 -2.3385084 0.0078431377
26.399887 -14.555569 -0.55782449 0.0078431377
22.177532 -15.189281 -0.80807483 0.0039215689
7.5440664 -4.5550232 -2.4267659 0.015686275
10.710063 -7.2575083 -2.5676854 0.050980393
21.414141 -16.247412 -0.34164512 0.0039215689
12.125898 -7.4038262 -2.1989958 0.082352944
13.097554 -8.9088345 -2.0124946 0.047058824
6.7880764 -3.652252 0.033492461 0
22.69368 -15.546165 -0.19052032 0.0039215689
15.341068 -9.4028759 -1.9397755 0.0039215689
15.439985 -11.668355 -1.8130825 0.050980393
49.754456 -30.79952 1.2913115 0.031372551
39.635998 -30.215145 0.5226621 0.015686275
19.26507 -11.842642 -1.5949318 0.027450981
17.345722 -11.847275 -1.7247956 0.043137256
50.884865 -28.167885 1.6211569 0.062745102
41.505814 -28.558495 0.8196187 0.039215688
22.316017 -12.285226 -1.6502235 0.035294119
17.160545 -12.987087 -1.2681931 0.047058824
41.935959 -28.855759 2.0092635 0.050980393
20.90991 -12.865282 -1.1636412 0.015686275
18.315969 -12.518282 -1.1791645 0.0039215689
23.768726 -13.092817 -1.129423 0.023529412
18.588013 -14.081184 -0.83516252 0.015686275
12.684982 -8.6223688 2.7445767 0
23.932684 -14.744672 -0.68234873 0.0039215689
4.3271618 -2.8635988 -2.3435884 0.0039215689
7.5542235 -4.5969319 -2.4354222 0.015686275
10.707183 -7.3097878 -2.5731981 0.06666667
42.957584 -26.78096 -0.057261158 0.050980393
21.224335 -16.218634 -0.3394855 0.011764706
12.069842 -7.426465 -2.1934159 0.078431375
13.030572 -8.9287882 -2.0068808 0.050980393
44.605137 -24.87999 0.23770466 0.035294119
44.38673 -30.780022 -0.37344864 0.039215688
15.274459 -9.434495 -1.9354396 0.0039215689
15.351879 -11.684914 -1.8074249 0.062745102
47.230515 -29.458248 1.2281228 0.031372551
39.330837 -30.198551 0.52004248 0.015686275
19.240522 -11.919651 -1.5963383 0.035294119
17.147278 -11.797586 -1.7089512 0.043137256
50.580452 -28.229214 1.6145685 0.062745102
41.126968 -28.508064 0.81408852 0.031372551
21.016062 -11.657726 -1.5562719 0.0078431377
17.143553 -13.068112 -1.2703068 0.039215688
8.6656141 -5.2928605 0.56762207 0
41.418526 -28.710972 1.9891708 0.050980393
21.064629 -13.0626 -1.1748697 0.011764706
7.8768964 -5.3366308 0.74983019 0
24.081959 -13.37622 -1.1466407 0.050980393
18.491289 -14.108576 -0.83298415 0.0078431377
11.311742 -6.9504986 3.4902165 0
9.81633 -6.6878719 2.1176956 0
4.3018107 -2.8682315 -2.3351128 0.011764706
39.555855 -22.239685 -0.84051138 0.050980393
22.794621 -15.856177 -0.83483714 0.015686275
7.5535979 -4.6340775 -2.4408302 0.015686275
10.683525 -7.3504443 -2.5739777 0.023529412
42.646091 -26.802834 -0.056958757 0.050980393
19.49478 -14.996308 -0.31254789 0.0039215689
12.0392 -7.4677472 -2.1927896 0.070588239
12.95555 -8.9460487 -2.0002475 0.047058824
43.973938 -24.737375 0.23480111 0.035294119
40.116596 -28.022041 -0.33835411 0.023529412
15.219604 -9.4768753 -1.932834 0.0039215689
15.349808 -11.772096 -1.8122965 0.062745102
46.973469 -29.536373 1.22425 0.031372551
39.283031 -30.39082 0.5209322 0.015686275
19.159597 -11.965852 -1.5932091 0.023529412
17.054987 -11.825191 -1.7039897 0.043137256
50.47665 -28.413601 1.6145867 0.062745102
40.694916 -28.42794 0.80757844 0.031372551
22.26576 -12.464653 -1.6530708 0.015686275
17.199541 -13.210974 -1.2781039 0.039215688
41.476555 -28.976641 1.9971303 0.050980393
20.712605 -12.946865 -1.1577114 0.019607844
20.147877 -13.997367 -1.3047861 0.011764706
7.6386814 -5.2111287 0.72832215 0
23.688349 -13.268872 -1.1300757 0.023529412
17.483477 -13.431715 -0.78935933 0.023529412
9.6307106 -6.6098943 2.0820441 0
36.79834 -23.108772 -1.056199 0.019607844
4.2947283 -2.8845665 -2.3368034 0.011764706
26.747248 -15.120637 -0.56855869 0.019607844
22.393171 -15.690092 -0.82202256 0.015686275
10.677006 -7.4005265 -2.5787015 0.031372551
42.626507 -26.99803 -0.05703003 0.050980393
21.192743 -16.435139 -0.34081191 0.0039215689
11.983055 -7.4898686 -2.1872094 0.082352944
