# .PCD v0.7 - Point Cloud Data file format
VERSION 0.7
FIELDS x y z intensity
SIZE 4 4 4 4
TYPE F F F F
COUNT 1 1 1 1
WIDTH 1139
HEIGHT 1
VIEWPOINT 0 0 0 1 0 0 0
POINTS 1139
DATA ascii
-8.5089722 0.48560256 -2.1978776 0.0078431377
-11.581934 1.214239 -2.1897576 0.0039215689
-19.477428 1.1629452 0.020035185 0.0039215689
-23.636721 3.6973238 -0.24811977 0.90196079
-14.438552 0.85144466 -2.1359224 0.0039215689
-7.1405902 0.083321273 0.04719235 0
-34.310261 3.7363439 -0.16437285 0.29411766
-20.069529 1.1988635 -2.0768387 0.0039215689
-22.985886 3.5920248 -2.090611 0.035294119
-23.616493 3.6942785 0.29410496 0.89019608
-29.405949 1.7748979 -1.9870034 0.019607844
-24.140093 2.6075065 -1.9067959 0.031372551
-12.844285 1.3550915 0.22857231 0
-31.740667 0.39642844 -1.9626114 0.015686275
-23.718611 3.7100718 -1.3384295 0.85490197
-41.125954 2.4980006 -1.8508372 0.011764706
-39.784843 4.3430581 -2.0270789 0.019607844
-8.2090235 0.46801218 0.94228041 0
-35.17104 0.44030553 -1.3730693 0.10980392
-23.683949 3.7047079 -0.79209489 0.89019608
-82.321449 5.0395532 -1.8296584 0.10196079
-5.4400363 0.54898751 -2.2473395 0.0039215689
-11.298424 0.17164554 -0.17315374 0
-8.5188532 0.51245964 -2.2011101 0.011764706
-11.601233 1.2532048 -2.1944566 0.011764706
-23.640125 3.7761769 -0.24832168 0.90980393
-14.463266 0.89900857 -2.1402161 0.011764706
-17.460979 1.9229687 -2.1375818 0.13333334
-20.08132 1.2643365 -2.0785573 0.0039215689
-22.989574 3.6687031 -2.092113 0.035294119
-23.615961 3.7724183 0.29422566 0.90980393
-24.131317 2.6854391 -1.9068221 0.031372551
-31.763132 0.49996167 -1.9641511 0.015686275
-23.733767 3.7911284 -1.3400632 0.82352942
-19.384846 1.2199883 1.1143491 0
-6.9029799 0.71704519 0.26611531 0
-41.113461 2.6320024 -1.8506938 0.011764706
-39.889301 4.4864678 -2.0333009 0.019607844
-35.217346 0.55560148 -1.3750097 0.12941177
-23.683378 3.7830677 -0.7925328 0.89019608
-20.061178 2.222095 3.5861559 0.0039215689
-23.471302 1.4852294 -0.50904512 0.0039215689
-5.4354124 0.56741625 -2.2508893 0.0039215689
-36.487614 0.70759964 -0.59170145 0.023529412
-8.5032969 0.54103971 -2.2002747 0.011764706
-11.555623 1.2896451 -2.1885037 0.0039215689
-23.624298 3.8616281 -0.24893193 0.90588236
-14.454045 0.94986838 -2.1411877 0.011764706
-22.989788 3.7544246 -2.0948353 0.035294119
-23.619884 3.8610873 0.29405129 0.86666667
-24.139277 2.7746558 -1.9096214 0.039215688
-1.7947705 0.023440856 0.038649667 0.0078431377
-4.6072111 0.47044414 0.076908089 0
-31.763288 0.61408198 -1.9656333 0.015686275
-41.125671 2.7822707 -1.8530555 0.011764706
-40.037395 4.6506519 -2.0432217 0.019607844
-21.637541 1.4447149 2.6079628 0.0039215689
-35.253265 0.68306285 -1.3777189 0.090196081
-23.722706 3.8779471 -0.79523855 0.1882353
-5.4370017 0.58463973 -2.2525821 0.0039215689
-8.5013599 0.56853557 -2.2002823 0.011764706
-11.543265 1.3268449 -2.1869538 0.0039215689
-23.630392 3.945272 -0.24917819 0.90588236
-14.41516 0.99557334 -2.1356974 0.0078431377
-17.468531 2.0470443 -2.1420281 0.015686275
-14.283539 0.31749839 0.094710037 0
-153.15907 18.539959 -0.76167679 0.16862746
-20.0263 1.4007559 -2.0752251 0.0039215689
-22.980473 3.8331418 -2.0952327 0.050980393
-13.960907 0.96347797 0.32604009 0
-23.622038 3.9440415 0.29422083 0.90980393
-29.296415 2.0701518 -1.9822092 0.0039215689
-24.145275 2.8586433 -1.9109368 0.031372551
-1.8026769 0.027714927 0.038888279 0.0078431377
-31.796873 0.72360444 -1.9679313 0.015686275
-41.207378 2.9302456 -1.8572987 0.011764706
-40.235054 4.8142223 -2.0543921 0.019607844
-11.597198 1.334421 0.91523904 0
-11.840858 1.3644178 2.0735381 0
-9.4662781 0.63878381 -0.19524181 0
-5.4277334 0.60053134 -2.2492127 0.0039215689
-6.652545 0.16133875 -0.096544936 0
-8.5108528 0.59689426 -2.2035155 0.011764706
-11.538568 1.3649449 -2.1869662 0.0078431377
-23.687397 4.0379658 -0.24998774 0.43137255
-14.395833 1.0425066 -2.133265 0.0039215689
-17.457348 2.1053295 -2.1415455 0.019607844
-19.989563 1.4660637 -2.0718443 0.0039215689
-23.025805 3.9214478 -2.1007898 0.043137256
-23.63571 4.0291214 0.29453957 0.85882354
-27.808786 2.058166 -1.8796962 0.0039215689
-24.131199 2.9402263 -1.9106419 0.039215688
-31.806133 0.83272266 -1.9687152 0.015686275
-10.343479 1.7017639 -0.56306952 0
-41.176979 3.0703697 -1.8564256 0.011764706
-40.436016 4.9797153 -2.0657692 0.039215688
-11.592475 1.3727186 0.9152264 0
-46.6745 1.2298865 -1.8336504 0.039215688
-15.042624 1.0920042 -0.32069877 0
-5.4184141 0.61636657 -2.2458434 0.0039215689
-8.4933567 0.62320012 -2.1992233 0.011764706
-11.51428 1.4005296 -2.1830728 0.0078431377
-9.0610819 0.66882646 0.010698448 0.0039215689
-14.388171 1.0902566 -2.1326673 0.0039215689
-17.453831 2.1645777 -2.142067 0.019607844
-9.7951393 0.27735788 0.064751409 0
-142.79834 18.288754 -0.71065301 0.16862746
-19.960537 1.5317651 -2.0693138 0.0039215689
-23.039425 4.0045204 -2.1033993 0.043137256
-6.0927877 0.43368977 0.13585085 0
-24.112883 3.0212431 -1.9100248 0.039215688
-8.5643368 0.24022783 0.24157625 0
-8.5528488 1.0203676 0.14972946 0
-31.826973 0.94228262 -1.9702564 0.015686275
-36.621376 6.4311724 -2.0962613 0.015686275
-20.609901 1.584166 1.1881511 0.0039215689
-8.7613726 1.0472566 0.34464273 0
-41.154064 3.2109578 -1.8559186 0.011764706
-40.69178 5.1538134 -2.0800314 0.039215688
-6.7203984 0.78477138 0.51050335 0
-5.4270186 0.63451862 -2.2509115 0.0039215689
-8.4949722 0.65098 -2.2003064 0.011764706
-11.513214 1.4390471 -2.183867 0.0078431377
-14.396097 1.139272 -2.134516 0
-17.465841 2.2259104 -2.1445956 0.019607844
-11.085354 0.35288769 0.073359892 0
-8.114274 0.99048424 -0.034107666 0
-19.94318 1.5982698 -2.0680585 0.0039215689
-23.068413 4.0905957 -2.1074829 0.043137256
-24.11405 3.1047854 -1.911019 0.031372551
-18.09376 0.58917022 0.52726752 0.0039215689
-148.28606 19.520071 2.726867 0.10980392
-31.751678 1.0487806 -1.9657407 0.015686275
-36.665497 6.5689645 -2.1002078 0.015686275
-8.634119 0.66328502 0.47846583 0
-26.15118 3.3750739 1.0739888 0.0078431377
-41.230221 3.3596694 -1.8599808 0.011764706
-40.677502 5.2941732 -2.0802846 0.039215688
-13.953873 1.7627814 1.112457 0
-5.3075933 0.8540417 -0.15885212 0
-3.2857566 0.22059123 -0.056357607 0
-5.4248872 0.65043783 -2.250917 0.0039215689
-13.904599 0.49191314 -0.21704842 0
-9.7840548 1.2420508 -0.25783369 0
-8.5004473 0.6777333 -2.2024641 0.011764706
-11.512268 1.4756715 -2.1846604 0.0078431377
-14.368614 1.1828985 -2.1308601 0
-17.474096 2.2838757 -2.1466219 0.019607844
-23.874571 3.1522238 -0.11341056 0.0039215689
-23.105631 4.1744504 -2.1123025 0.027450981
-27.237488 2.2907646 -1.8417369 0.019607844
-24.095724 3.1815906 -1.9104012 0.031372551
-31.752018 1.1521425 -1.9660193 0.015686275
-36.792713 6.7161474 -2.1089675 0.015686275
-24.535921 3.2422593 1.006675 0.0078431377
-41.330326 3.5038979 -1.8651381 0.011764706
-40.885357 5.4575472 -2.0920739 0.039215688
-7.7409902 0.26373193 -0.28051475 0
-5.4118114 0.66568857 -2.2458603 0.0039215689
-8.4826832 0.70384234 -2.1981721 0.0078431377
-11.503166 1.5131223 -2.1838923 0.0078431377
-8.3565435 0.69320601 0.010083364 0
-12.209062 2.1935778 -0.12419078 0
-14.348651 1.2294509 -2.1284282 0
-17.458158 2.3415778 -2.1456382 0.023529412
-13.516661 0.52270168 0.089583471 0
-132.31367 18.320473 -0.65935814 0.16862746
-19.916006 1.7283019 -2.0663977 0.0039215689
-23.133974 4.2610388 -2.1163869 0.027450981
-116.58262 21.953514 1.4729434 0.062745102
-27.265102 2.3868439 -1.8442459 0.027450981
-24.104221 3.2662399 -1.9120399 0.031372551
-13.600353 1.8057128 0.24306807 0
-3.1563861 0.10290404 -0.1567363 0
-9.5539646 1.6907798 -0.51840174 0
-22.183374 1.9324664 1.2824572 0.0039215689
-5.5108223 0.43816137 -0.22088285 0
-41.059933 5.6250067 -2.1022182 0.039215688
-46.549328 1.8604828 -1.8296663 0.039215688
-11.818089 2.1194603 -0.38509521 0
-16.707041 1.4412951 -0.35860503 0
-8.4953947 0.73406625 -2.202481 0.0039215689
-11.50143 1.5535355 -2.1846871 0.011764706
-97.853424 18.776234 -1.0693657 0.082352944
-14.355861 1.2808421 -2.1302783 0
-13.765938 1.8777701 -0.062660225 0
-19.901621 1.7982556 -2.0655689 0.011764706
-23.157312 4.351059 -2.1201046 0.027450981
-117.48316 22.567984 1.4852262 0.062745102
-27.283987 2.4870627 -1.8462051 0.027450981
-24.08025 3.3505819 -1.9111032 0.039215688
-5.9319596 0.23492767 0.16273339 0
-31.635298 1.3700877 -1.9592618 0.015686275
-36.83783 6.9929433 -2.1145716 0.015686275
-16.187902 2.2240105 0.65708703 0
-41.574753 3.8203139 -1.8776537 0.011764706
-8.0185366 1.0566125 -0.38176364 0
-9.9318857 0.86910838 1.1594169 0
-46.594112 2.0310845 -1.8317825 0.039215688
-66.319023 12.68607 -2.2789006 0.090196081
-5.4141006 0.70097017 -2.2492468 0.0039215689
-8.4927835 0.76153147 -2.2024896 0.0078431377
-11.49206 1.5909202 -2.1839192 0.0078431377
-96.288116 18.820559 -1.0529425 0.082352944
-14.3395 1.3276175 -2.128458 0
-17.393858 2.4550695 -2.1396587 0.062745102
-12.665574 0.57455659 0.083906926 0
-19.895226 1.8655273 -2.0655897 0.015686275
-23.153709 4.4319859 -2.1212411 0.015686275
-4.7589769 0.40074396 0.10371759 0
-95.254021 18.618002 1.2040669 0.062745102
-27.31089 2.5835586 -1.8487147 0.019607844
-24.088139 3.4353178 -1.9127427 0.039215688
-4.7706022 0.60756671 0.080160215 0
-31.6383 1.4786983 -1.9597951 0.015686275
-36.813198 7.1192985 -2.1146212 0.015686275
-14.685116 1.3619919 0.83819336 0
-41.728203 3.9793928 -1.8853738 0.011764706
-41.398098 5.9697471 -2.1220999 0.039215688
-8.4643784 0.37412509 -0.30954847 0
-7.2015495 1.2943722 -0.22515655 0
-5.426096 0.71899307 -2.2560027 0.0039215689
-10.948154 1.5469342 -0.29168698 0
-8.4978828 0.78838402 -2.2046478 0.011764706
-11.482841 1.6263658 -2.1831505 0.0078431377
-94.719154 18.836214 -1.036423 0.082352944
-14.331089 1.3726947 -2.1278605 0
-17.432713 2.5177157 -2.1456997 0.019607844
-19.900808 1.9306082 -2.0668845 0.015686275
-23.197472 4.518394 -2.1267993 0.0078431377
-15.858828 1.5264981 0.37268677 0
-116.21694 23.140694 1.4708246 0.062745102
-27.329969 2.6748219 -1.8506718 0.027450981
-24.088444 3.5148768 -1.9137366 0.039215688
-11.48053 0.55420691 0.32920638 0
-31.597345 1.5797048 -1.9575508 0.015686275
-37.180965 7.3176408 -2.1376033 0.015686275
-9.4598074 0.88558459 0.52819991 0
-41.913578 4.1355848 -1.8945546 0.011764706
-23.742527 3.4633071 -1.2023042 0.0039215689
-46.663044 2.3482027 -1.8352132 0.039215688
-66.231148 13.132923 -2.2790766 0.090196081
-5.4092169 0.73355031 -2.2492585 0.0039215689
-8.4835844 0.81467015 -2.201431 0.0078431377
-11.480977 1.6648531 -2.1839454 0.0078431377
-34.27906 3.4901769 0.031887375 0.090196081
-93.100815 18.848263 -1.0193864 0.082352944
-17.419901 2.5757723 -2.1452188 0.019607844
-23.622292 3.5278125 -0.11257382 0.98431373
-19.886038 1.9970654 -2.0660555 0.015686275
-23.220589 4.6051168 -2.1305165 0.0078431377
-13.331666 1.3181696 0.31155133 0
-116.06882 23.530504 1.4698175 0.062745102
-27.340317 2.770088 -1.8520793 0.019607844
-24.079971 3.5973687 -1.9140878 0.039215688
-23.622663 3.5280626 0.42881063 0.054901961
-31.571709 1.6867304 -1.9563177 0.015686275
-37.155197 7.4452095 -2.1376541 0.015686275
-6.7241092 0.6330303 0.36589062 0
-13.987541 2.0502872 0.56550306 0
-15.033466 2.2109387 1.205721 0
-46.654564 2.5089033 -1.8352566 0.039215688
-10.627931 2.0392473 -0.34478605 0
-7.7559862 1.0947698 1.3253243 0
-34.318367 3.4940054 -0.75632805 0.13333334
-5.3995919 0.74828655 -2.2458892 0.0078431377
-8.4923325 0.84195191 -2.2046647 0.0078431377
-11.471519 1.7002325 -2.183177 0.011764706
-34.291164 3.6043112 0.031872295 0.31764707
-91.667023 18.870682 -1.0043346 0.082352944
-14.33715 1.4676373 -2.1303363 0.0039215689
-17.415186 2.6320615 -2.1457405 0.019607844
-23.630226 3.6071527 -0.11270096 0.98431373
-19.88722 2.0617676 -2.0669255 0.015686275
-23.251995 4.689714 -2.1349697 0.0078431377
-146.12962 15.577231 3.5312228 0.074509807
-95.612923 19.689451 1.2107031 0.062745102
-27.346855 2.8603563 -1.8532099 0.019607844
-23.760679 3.6269655 -1.8889849 0.047058824
-8.4110088 0.45078024 0.2372074 0
-23.62269 3.6061659 0.42900258 0.039215688
-37.13031 7.566298 -2.1377027 0.015686275
-8.5596352 1.2446296 0.33742225 0
-42.12286 4.4420462 -1.9056098 0.011764706
-8.2048216 0.43870848 -0.29936644 0
-66.140236 13.579183 -2.2792554 0.090196081
-21.894194 2.2790813 5.7548037 0.0039215689
-9.6258621 1.4122671 1.6726946 0
-34.322502 3.6074157 -0.75672203 0.14509805
-5.3907619 0.76549643 -2.2477701 0.0039215689
-8.5058794 0.48430985 -0.12800446 0
-23.658125 3.6951604 -0.657103 0.90196079
-8.4872351 0.87020999 -2.2070775 0.0078431377
-11.459629 1.7386409 -2.1842821 0.011764706
-34.288563 3.7237821 0.031062359 0.090196081
-90.029411 18.858458 -0.98901236 0.082352944
-14.302535 1.5132395 -2.1276681 0.0039215689
-17.403978 2.6918099 -2.1471958 0.023529412
-23.635437 3.6917121 -0.11342594 0.87450981
-19.866194 2.1284392 -2.0670123 0.015686275
-23.288097 4.7816806 -2.1414363 0.0078431377
-95.761024 20.068167 1.2114919 0.062745102
-27.338858 2.9547668 -1.8547119 0.011764706
-24.119993 3.768779 -1.920833 0.031372551
-4.8519316 0.26027632 0.13055204 0
-23.616066 3.6887949 0.42871022 0.047058824
-37.484699 7.7758594 -2.1615069 0.015686275
-9.1650753 1.371605 0.36322674 0
-42.295944 4.608572 -1.9157506 0.015686275
-23.676184 3.6978664 -1.2019161 0.89411765
-46.730392 2.8282225 -1.840559 0.039215688
-66.376106 13.869261 -2.2909625 0.090196081
-13.925085 1.4732615 3.603673 0
-5.3842082 0.78323728 -2.246089 0.0039215689
-23.718733 3.7959244 -0.65928423 0.59215689
-8.4800081 0.89998859 -2.2060118 0.0078431377
-11.468358 1.7828062 -2.187422 0.011764706
-34.293888 3.8553231 0.031038789 0.078431375
-88.579865 18.905792 -0.9738543 0.082352944
-14.288768 1.5648805 -2.126461 0.0039215689
-17.40135 2.7575352 -2.1482222 0.023529412
-23.632936 3.782021 -0.11351705 0.97647059
-19.877636 2.2045965 -2.0691605 0.023529412
-23.304619 4.8762269 -2.1447883 0.0078431377
-12.098623 2.4687138 0.14937538 0
-27.359034 3.0609789 -1.8569498 0.019607844
-23.070637 3.6890364 -1.8361053 0.027450981
-23.617521 3.7796795 0.42897132 0.047058824
-37.454575 7.9173598 -2.1615624 0.015686275
-8.3497086 0.88590175 0.46327642 0
-97.817574 15.971092 4.0954418 0.24705882
-42.46056 4.7894688 -1.924212 0.015686275
-23.693354 3.7915635 -1.2035964 0.87843138
-25.145594 2.8091521 3.0556571 0.0039215689
-97.702087 15.953533 8.1145639 0.16862746
-46.71122 3.0047395 -1.8402873 0.039215688
-5.7103963 1.0956136 -0.17451467 0
-16.448423 1.8140607 4.2879753 0.0039215689
-5.3924532 0.80001009 -2.251157 0.0039215689
-23.667259 3.8618855 -0.65817809 0.87058824
-8.4771404 0.92469114 -2.2060194 0.0078431377
-11.470441 1.8181884 -2.1889968 0.015686275
-87.16011 18.885309 -0.95884293 0.082352944
-14.28771 1.6082907 -2.1270859 0.0078431377
-17.396517 2.8109114 -2.1487427 0.023529412
-12.366125 0.80351031 0.081661098 0
-23.636721 3.8569636 -0.11362284 0.98039216
-23.339773 4.9585199 -2.1496093 0.0078431377
-10.153221 1.1226336 0.23477471 0
-125.48543 27.249334 1.5909199 0.062745102
-27.305687 3.1398547 -1.8539422 0.019607844
-24.175686 3.946605 -1.9276586 0.031372551
-23.625256 3.8552351 0.42931077 0.039215688
-31.248997 2.093456 -1.9389998 0.054901961
-19.887817 4.2056689 -1.1300131 0.0039215689
-97.743286 16.27244 4.0943384 0.24705882
-42.611973 4.9405136 -1.9319338 0.015686275
-23.724665 3.8713078 -1.2058898 0.22352941
-97.639694 16.256512 8.1134701 0.16862746
-46.709522 3.1500862 -1.8406453 0.039215688
-66.37532 14.349304 -2.2945557 0.090196081
-9.5737438 1.50183 1.6673442 0
-5.3964949 0.81957012 -2.2545385 0.0039215689
-8.4735317 0.9548701 -2.2060289 0.011764706
-11.482712 1.8631678 -2.1929183 0.023529412
-85.618866 18.891222 -0.94263583 0.082352944
-14.277509 1.6602991 -2.1264908 0.0078431377
-17.397335 2.8773365 -2.1502714 0.019607844
-17.417683 1.2135944 0.11528872 0
-23.641453 3.9487152 -0.11375466 0.96862745
-19.810448 2.3327811 -2.0636759 0.050980393
-23.390556 5.0612893 -2.1562803 0.0078431377
-5.3971987 0.58171308 0.11949506 0
-90.275139 19.926855 1.1441267 0.062745102
-27.329088 3.2466474 -1.8564566 0.011764706
-24.203588 4.0444508 -1.931236 0.031372551
-23.629993 3.9469452 0.42964426 0.031372551
-31.192953 2.2076156 -1.9360014 0.074509807
-38.006538 8.3094873 -2.1974595 0.015686275
-10.547249 1.2077899 0.59436226 0
-117.95836 20.12261 4.9488096 0.24705882
-42.886234 5.137403 -1.9455178 0.015686275
-14.591711 1.6997089 1.7439656 0
-15.434431 2.5419805 1.2430413 0
-46.772831 3.3325188 -1.8437246 0.039215688
-66.998779 14.752595 -2.3184061 0.094117649
-7.7297807 1.2209295 1.3257655 0
-15.710885 1.8350736 -0.33808151 0
-5.3757429 0.83312958 -2.2461069 0.0039215689
-8.4854412 0.98420495 -2.2103384 0.011764706
-152.97847 19.058393 0.12788998 0.24705882
-13.063347 2.8126478 -0.13523073 0
-14.267708 1.7074878 -2.1258943 0.0078431377
-17.383282 2.9352145 -2.1497905 0.011764706
-194.72595 14.696993 1.2954463 0.10980392
-23.643291 4.0318322 -0.11386384 0.84705883
-23.403828 5.147778 -2.1592619 0.0078431377
-8.954361 1.0436285 0.20586468 0
-17.631607 3.8447764 0.22010234 0.0039215689
-27.305714 3.3383913 -1.8556587 0.0039215689
-24.263947 4.1398258 -1.9373891 0.031372551
-23.627899 4.0293331 0.42983434 0.015686275
-31.137291 2.3107228 -1.9330004 0.074509807
-4.6454115 0.91096979 -0.23403324 0
-5.9587531 0.66896945 0.32154 0
-117.69845 20.499033 4.9406943 0.24705882
-42.81649 5.2784786 -1.9431869 0.015686275
-13.900295 1.6627381 1.6585693 0
-46.9841 3.5105147 -1.8527027 0.039215688
-66.088997 14.790442 -2.2884698 0.090196081
-9.1633158 1.4975713 1.593099 0
-5.383812 0.84998763 -2.2511749 0.0039215689
-6.8734941 0.49399003 -0.10097071 0
-83.260872 14.73547 -2.3731253 0.15294118
-8.4784889 1.0084343 -2.209271 0.011764706
-11.427631 1.9276285 -2.1843493 0.23137255
-9.6636457 1.1611727 0.010841236 0.0039215689
-82.77433 18.831749 -0.91256672 0.082352944
-14.258354 1.7498667 -2.1252964 0.0078431377
-17.381788 2.9892702 -2.1508133 0.015686275
-10.50287 0.78028977 0.069284476 0
-19.845837 2.4666126 -2.0692432 0.023529412
-23.457426 5.2353601 -2.1659274 0.0078431377
-17.385529 3.8446054 0.21710098 0.0039215689
-27.291136 3.4217186 -1.8554099 0.0039215689
-24.301846 4.2231965 -1.9416059 0.031372551
-7.4853687 0.54233617 0.20974459 0
-23.693869 4.1156569 0.43126774 0.0078431377
-31.098043 2.4040899 -1.9310068 0.074509807
-37.92725 8.551939 -2.1961827 0.015686275
-13.85007 1.6984323 0.79146004 0
-118.47545 21.016918 4.9760852 0.24705882
-43.089027 5.4481421 -1.9565806 0.015686275
-6.8628168 1.114396 -0.32415843 0
-16.425859 2.8200929 1.3274609 0
-47.156132 3.670625 -1.8600821 0.039215688
-65.192741 14.80137 -2.2587957 0.090196081
-18.7173 2.3240948 4.9099107 0.0039215689
-27.603807 4.8144727 5.0245628 0.0039215689
-5.384232 0.86810601 -2.2528689 0.0039215689
-81.93573 14.806921 -2.3366733 0.15294118
-8.4709206 1.0367407 -2.2082052 0.011764706
-11.432073 1.9693487 -2.186708 0.082352944
-9.9964066 1.2388266 0.011105309 0.0039215689
-81.828308 18.928465 -0.90290821 0.082352944
-14.263606 1.8014066 -2.1271474 0.0078431377
-17.366816 3.0499876 -2.1503341 0.015686275
-19.114443 1.5277551 0.12662594 0
-19.860327 2.5401964 -2.0718172 0.015686275
-23.496271 5.3325987 -2.1714919 0.0078431377
-15.688565 3.5138404 0.19562459 0
-27.294239 3.5215497 -1.8565446 0.0039215689
-24.341125 4.3199759 -1.9461498 0.031372551
-8.8062391 0.67674708 0.24946211 0
-117.83447 21.345182 2.1775322 0.10980392
-31.065157 2.5138214 -1.9295229 0.074509807
-37.778984 8.661438 -2.1893544 0.015686275
-7.0427198 0.84905922 0.38636866 0
-95.160141 17.217205 3.9949119 0.24705882
-43.239117 5.6262517 -1.9644953 0.015686275
-12.003163 2.0739198 -0.59405917 0
-8.9219112 1.0973262 1.0392945 0
-64.339928 14.851935 -2.2309082 0.086274512
-5.384738 0.88540757 -2.2545626 0.0039215689
-9.2685986 0.74523425 -0.14102976 0
-80.507629 14.835208 -2.2971573 0.15294118
-8.4596176 1.06312 -2.2060637 0.011764706
-142.81325 19.276058 0.11927053 0.24705882
-80.983299 19.027546 -0.89432907 0.082352944
-17.367771 3.1106143 -2.1518614 0.015686275
-116.50718 21.520712 -0.58847946 0.16862746
-19.855286 2.6078925 -2.0722642 0.015686275
-23.578289 5.4362884 -2.1811111 0.0078431377
-96.114151 22.610672 1.2217243 0.062745102
-27.273874 3.6135836 -1.8560233 0.019607844
-24.36902 4.4107738 -1.9497257 0.031372551
-13.850896 1.1398115 0.40104872 0
-117.22054 21.654198 2.1673846 0.10980392
-31.016428 2.616673 -1.9270277 0.074509807
-38.17598 8.8923016 -2.2146499 0.015686275
-5.9792833 0.7277295 0.32317263 0
-43.437 5.8045211 -1.9746032 0.015686275
-10.723327 1.8773866 -0.52726918 0
-63.754745 14.948116 -2.2122974 0.086274512
-13.44135 2.3831859 2.3929162 0
-5.3709273 0.90002865 -2.249506 0.0078431377
-79.799271 14.98982 -2.2783549 0.15294118
-8.4825697 1.0942097 -2.213599 0.015686275
-11.429623 2.0470042 -2.18908 0.011764706
-79.516373 18.971378 -0.87879115 0.082352944
-14.235034 1.8944691 -2.1247318 0.011764706
-17.352911 3.1683381 -2.151381 0.015686275
-10.714281 1.9123837 -0.048179459 0
-19.834242 2.6733973 -2.0710108 0.015686275
-23.605642 5.5275884 -2.1855688 0.0078431377
-95.910194 22.914003 1.2199975 0.062745102
-29.814371 4.0617533 -2.0342274 0.0039215689
-24.392654 4.5010834 -1.9529797 0.031372551
-95.960114 18.050688 1.7738791 0.10980392
-30.967342 2.719223 -1.9245327 0.074509807
-38.416504 9.0887117 -2.230768 0.015686275
-29.164583 3.9725976 1.7055111 0.0039215689
-95.819077 18.02483 4.027698 0.24705882
-43.75684 6.0013156 -1.9903824 0.015686275
-47.564255 4.2062049 -1.8782518 0.039215688
-63.045288 15.010505 -2.1893167 0.086274512
-5.3857217 0.91922039 -2.2579501 0.0039215689
-7.9969611 0.68644202 -0.11989021 0
-8.7291355 1.5644051 -0.23055357 0
-8.4560118 1.1170306 -2.2071567 0.0078431377
-11.407366 2.0798824 -2.1859677 0.015686275
-132.35898 18.773045 0.11056107 0.24705882
-14.240417 1.9412918 -2.1265821 0.011764706
-17.307241 3.2170622 -2.1468844 0.023529412
-16.445225 1.4716622 0.10890383 0
-97.874443 18.746515 -0.49419832 0.15294118
-19.837086 2.7387931 -2.0723076 0.015686275
-23.622011 5.6122851 -2.1889191 0.0078431377
-9.3311844 1.2425441 0.21544531 0
-89.845779 21.769081 1.1433716 0.062745102
-29.808643 4.1596766 -2.034811 0.0039215689
-24.424576 4.5889554 -1.956877 0.031372551
-16.991846 1.5225762 0.49565852 0.0039215689
-95.978279 18.381895 1.7752199 0.10980392
-30.918411 2.8161595 -1.9220364 0.074509807
-38.386154 9.2140064 -2.2308202 0.015686275
-12.959344 1.7597042 0.739766 0
-117.66431 22.562939 4.9540663 0.24705882
-43.831642 6.1578617 -1.9948195 0.015686275
-43.204308 8.2085295 -2.2354317 0.039215688
-47.796791 4.3847885 -1.8881893 0.039215688
-62.210648 15.026062 -2.1618252 0.082352944
-5.6081944 0.7124275 1.3595881 0
-5.5975876 0.96125567 0.93299842 0
-9.6126184 1.2825074 -0.20073622 0
-5.3789248 0.93516839 -2.2562687 0.0039215689
-11.64109 1.0639375 -0.18084304 0
-77.847443 15.165601 -2.2252321 0.082352944
-8.4558773 1.1449504 -2.208241 0.011764706
-11.407738 2.1190538 -2.1875448 0.015686275
-23.688967 3.3705864 0.022198368 0.0078431377
-66.755714 16.380276 -0.73752642 0.047058824
-14.241381 1.9899853 -2.1278214 0.011764706
-17.311483 3.2783692 -2.1489141 0.023529412
-96.572037 18.843147 -0.48799437 0.15686275
-19.811663 2.8035784 -2.0706294 0.015686275
-23.671873 5.7097964 -2.19559 0.0078431377
-10.854141 1.4960595 0.25259393 0
-66.746605 16.378693 0.84891379 0.043137256
-29.778149 4.2592559 -2.0337417 0.0039215689
-24.447536 4.6797247 -1.9601316 0.031372551
-95.799713 18.692347 1.7729787 0.10980392
-30.864687 2.917712 -1.9192891 0.090196081
-6.5988545 1.4823819 -0.35087878 0
-11.941641 1.6550392 0.67939562 0
-118.02797 23.058453 4.9726667 0.24705882
-43.964085 6.3312087 -2.0020037 0.015686275
-48.003983 4.5709548 -1.8971727 0.039215688
-61.595158 15.101655 -2.1421187 0.082352944
-5.3754649 0.95261914 -2.2562754 0.0039215689
-76.568108 15.203702 -2.1900141 0.078431375
-8.4478168 1.1731062 -2.2071755 0.011764706
-11.399899 2.1585922 -2.1875598 0.015686275
-76.431358 19.071611 -0.84681708 0.054901961
-14.245723 2.041666 -2.1296737 0.011764706
-17.303249 3.3403161 -2.1494391 0.019607844
-94.764832 18.846899 -0.47922057 0.15686275
-19.797327 2.8733234 -2.0702279 0.015686275
-23.72418 5.812716 -2.2026315 0.0078431377
-126.9668 18.929192 3.079011 0.074509807
-66.852928 16.662914 0.85094512 0.043137256
-29.78602 4.3696532 -2.0354328 0.0039215689
-24.465408 4.7740793 -1.9630657 0.031372551
-13.117602 1.2527955 0.37946102 0
-95.177635 18.930391 1.76256 0.10980392
-30.82201 3.0253723 -1.9173015 0.074509807
-38.454803 9.5181408 -2.2389669 0.015686275
-15.41119 2.9626334 0.63014722 0
-43.536175 8.5914764 -2.2561679 0.039215688
-14.389998 2.0645881 1.7251935 0
-18.132143 1.754727 -0.69940603 0.0039215689
-60.946232 15.175839 -2.1213233 0.082352944
-24.72304 3.6141319 6.5566497 0.0039215689
-23.682541 3.4558597 -0.52060109 0.0039215689
-5.3591027 0.96682549 -2.2548251 0.0039215689
-34.296001 3.4814494 -0.56105429 0.19607843
-76.584702 15.456953 -2.1942437 0.078431375
-8.4457283 1.1994154 -2.2107196 0.011764706
-11.383282 2.1924064 -2.187953 0.015686275
-14.22946 2.0844052 -2.1301427 0.011764706
-17.282898 3.3926368 -2.1499848 0.023529412
-34.287979 3.4808505 0.22697194 0.23137255
-7.894629 1.4834819 -0.034246251 0
-19.766636 2.9316633 -2.0695651 0.023529412
-23.800253 5.9117174 -2.2132971 0.0078431377
-23.522604 3.5072348 0.56086981 0.0039215689
-73.344559 18.541067 0.93288279 0.043137256
-29.817608 4.4695621 -2.0401688 0.0039215689
-10.781298 1.0519844 0.30921462 0
-98.012123 19.817638 1.8139834 0.10980392
-30.778763 3.117626 -1.9166905 0.090196081
-39.049603 9.798501 -2.2777061 0.015686275
-93.992744 19.000738 3.9585729 0.24705882
-43.694946 8.7658491 -2.2677064 0.039215688
-17.097071 3.3561552 1.390213 0
-14.447275 1.43053 -0.55260897 0
-60.675488 15.310658 -2.1154709 0.082352944
-8.0259953 1.5107393 1.390237 0
-5.3556981 0.98341149 -2.2548313 0.0039215689
-34.311478 3.6020079 -0.56155527 0.19607843
-76.491127 15.713971 -2.1932099 0.078431375
-8.4491062 1.2279658 -2.2128797 0.0039215689
-11.383245 2.2316043 -2.1895304 0.015686275
-23.61566 3.6035447 0.02140693 0.97254902
-74.357353 19.072895 -0.82718402 0.050980393
-14.222099 2.131948 -2.1301587 0.011764706
-17.286495 3.4540484 -2.152015 0.023529412
-34.291531 3.6001091 0.22704309 0.30980393
-91.666962 18.857191 -0.46660858 0.15686275
-19.764145 2.9997602 -2.0704384 0.023529412
-23.821892 6.0036125 -2.2173882 0.0078431377
-23.676149 3.613199 0.5648815 0.0039215689
-102.29068 26.297476 1.3037982 0.062745102
-117.08105 24.120869 2.1698396 0.10980392
-30.731968 3.2191143 -1.9144472 0.090196081
-6.0631928 1.4119264 -0.32085732 0
-14.107697 2.1150208 0.80998248 0
-118.90977 24.500626 5.0173035 0.24705882
-23.66268 3.6105423 -1.0657096 0.90196079
-43.859669 8.9567032 -2.2780786 0.039215688
-3.7024333 0.48558918 0.39088145 0
-48.552689 5.1233778 -1.923056 0.039215688
-60.671993 15.533259 -2.1173346 0.082352944
-11.923553 2.3451135 2.1200531 0
-5.3554358 1.0023905 -2.256526 0.0039215689
-75.49913 15.8087 -2.1663465 0.078431375
-8.4823751 1.2641753 -2.2236428 0
-11.370756 2.2721601 -2.1887643 0.015686275
-23.617453 3.694412 0.021389548 0.97647059
-73.355133 19.112045 -0.81683606 0.050980393
-14.217716 2.1848414 -2.1307881 0.011764706
-17.300291 3.5238078 -2.1555538 0.015686275
-34.285412 3.7303143 0.22705758 0.39607844
-24.344624 5.0115337 -0.11930951 0.0039215689
-19.760338 3.0745606 -2.0713136 0.015686275
-23.79096 6.0906882 -2.2166879 0.0078431377
-117.22487 18.721191 2.8432932 0.074509807
-89.330299 23.309629 1.1390426 0.062745102
-29.87468 4.6981192 -2.0465872 0.0039215689
-117.16759 24.605932 2.1730213 0.10980392
-30.671776 3.3294954 -1.9114494 0.090196081
-95.246971 19.979523 4.0175252 0.24705882
-23.727554 3.7117159 -1.0694001 0.81176472
-44.21582 9.2052135 -2.2987733 0.039215688
-48.822662 5.3395548 -1.9347667 0.039215688
-60.546173 15.746515 -2.1151087 0.082352944
-23.655102 3.7002714 -0.52182198 0.94117647
-5.3448148 1.0174417 -2.2531569 0.0039215689
-8.6585178 0.92070365 -0.13176855 0
-75.521683 16.086819 -2.1687129 0.078431375
-11.378101 2.3130162 -2.1919045 0.015686275
-23.628099 3.778609 0.021380788 0.96862745
-72.325607 19.109467 -0.80608261 0.050980393
-14.206104 2.2317033 -2.1301923 0.019607844
-17.295647 3.5837274 -2.1565802 0.011764706
-88.616661 18.899414 -0.45181483 0.16078432
-19.773039 3.1452687 -2.0738883 0.011764706
-23.800352 6.1797857 -2.2196729 0.0078431377
-97.795502 15.950451 2.3713751 0.074509807
-71.821754 18.975952 0.91566914 0.043137256
-29.901419 4.8073673 -2.0496576 0.019607844
-8.0720901 0.85379678 0.22803099 0
-117.32343 25.064737 2.1773818 0.10980392
-2.8568654 0.25770608 -0.14018142 0.015686275
-39.327202 10.316728 -2.3008423 0.027450981
-12.582684 1.9662697 0.71969765 0
-93.390945 19.926296 3.941606 0.24705882
-23.686853 3.7878785 -1.0681462 0.96470588
-11.008739 2.2343321 -0.54630768 0
-18.423962 3.8274169 1.5051103 0
-49.069778 5.5382328 -1.9455155 0.039215688
-60.429035 15.939186 -2.1130106 0.078431375
-23.645988 3.781359 -0.52193928 1
-5.3376913 1.0332035 -2.2514756 0.0039215689
-5.2909927 0.55246973 -0.075316399 0
-75.418198 16.337976 -2.1674533 0.078431375
-8.4277592 1.3114892 -2.2107575 0.011764706
-11.366129 2.3497653 -2.1911376 0.015686275
-23.642385 3.8635805 0.021374842 0.84705883
-71.37809 19.12183 -0.79624307 0.050980393
-14.194334 2.2785068 -2.1295965 0.015686275
-17.30242 3.6461928 -2.1591129 0.015686275
-17.646181 3.7220664 -0.084880888 0
-19.750172 3.2101786 -2.0726352 0.015686275
-23.767105 6.2575903 -2.218601 0.0078431377
-97.703743 16.283648 2.3703935 0.074509807
-70.924934 19.000122 0.90491974 0.043137256
-29.888395 4.9102526 -2.0499685 0.019607844
-26.744768 5.7082872 -2.1606205 0.0078431377
-2.9865093 0.28101408 0.075048648 0
-118.01667 25.642656 2.1917903 0.10980392
-30.5804 3.5313692 -1.9072169 0.074509807
-10.78949 2.7519648 -0.60331553 0
-97.70076 16.284334 5.8132482 0.078431375
-18.037748 3.8079 0.74383682 0.0039215689
-23.728664 3.8776722 -1.0707365 0.12941177
-20.80839 4.4122758 -1.0648292 0.0039215689
-97.67543 16.282272 12.16584 0.10196079
-95.836555 20.801039 8.0349817 0.16862746
-49.447086 5.7541194 -1.9615346 0.039215688
-60.226379 16.108274 -2.1079068 0.078431375
-23.719419 3.8763101 -0.52394611 0.53333336
-5.3379617 1.0488491 -2.2531691 0.0039215689
-15.560881 1.8100202 -0.24777898 0
-8.9812622 1.8572861 -0.23990802 0
-8.4235992 1.3360581 -2.2107661 0.015686275
-11.351034 2.3818638 -2.1895878 0.019607844
-23.630133 3.9359448 0.021349816 0.97254902
-70.349297 19.079201 -0.78538769 0.050980393
-14.18321 2.3205233 -2.1289995 0.015686275
-17.298632 3.7003508 -2.1601374 0.015686275
-85.615181 18.84557 -0.43714711 0.16078432
-19.755674 3.2729919 -2.0743573 0.015686275
-7.7037883 1.9421854 -0.67829961 0
-70.683563 19.171368 0.9024983 0.043137256
-29.912155 5.0089526 -2.0527596 0.0039215689
-26.792877 5.8050518 -2.1661339 0.0078431377
-20.601185 2.4201634 0.60542059 0.0039215689
-95.336044 21.001366 1.770153 0.10980392
-30.541414 3.6221731 -1.9054767 0.090196081
-10.703737 1.7267596 0.6079796 0
-94.813576 20.886415 4.0075383 0.24705882
-44.740501 9.7836523 -2.3317499 0.039215688
-97.604225 16.583864 12.163283 0.10196079
-95.860245 21.120012 8.0424204 0.16862746
-49.825558 5.9555531 -1.97755 0.039215688
-59.300171 16.056086 -2.0769646 0.078431375
-13.695114 2.903311 2.4585991 0
-5.3340855 1.0661848 -2.2531757 0
-118.09739 14.653623 -1.9703591 0.24705882
-77.614304 17.367563 -2.2347579 0.082352944
-8.4186497 1.3647008 -2.2107761 0.015686275
-11.353712 2.4238167 -2.1919475 0.019607844
-23.63526 4.0237498 0.021335794 0.9254902
-69.565895 19.136824 -0.77742565 0.050980393
-14.170721 2.3695884 -2.1284051 0.015686275
-17.300444 3.7649958 -2.1621697 0.015686275
-13.118822 1.5611897 0.086549059 0
-19.751387 3.3445222 -2.0752325 0.015686275
-23.789221 6.4332023 -2.2249396 0.0078431377
-70.763138 19.46979 0.90431744 0.043137256
-30.003672 5.135551 -2.060524 0.0039215689
-26.81032 5.9097571 -2.1693959 0.0078431377
-7.8407288 0.90294027 0.22131537 0
-93.916374 21.045734 1.7449687 0.10980392
-30.496246 3.7279103 -1.903489 0.10980392
-6.6954722 1.6905099 -0.36016533 0
-118.22659 20.550858 7.049366 0.078431375
-5.492939 1.1029767 0.21129771 0
-44.86412 9.9813662 -2.3402731 0.039215688
-19.441208 3.2918909 2.3662386 0.0039215689
-17.955849 3.9142315 1.4689094 0
-49.803406 6.1359015 -1.9776056 0.039215688
-59.183151 16.255056 -2.0750074 0.078431375
-16.049427 2.700012 4.2175961 0.0039215689
-5.333869 1.0834925 -2.2548699 0.0078431377
-118.1923 15.082485 -1.9729534 0.24705882
-11.766052 2.558521 -0.32132488 0
-8.4024591 1.3899368 -2.2075596 0.015686275
-11.345184 2.4613192 -2.1919622 0.015686275
-68.682396 19.147844 -0.7682786 0.050980393
-14.17404 2.4190056 -2.1302574 0.019607844
-17.302671 3.8267944 -2.164201 0.019607844
-19.73568 3.4106352 -2.0748305 0.011764706
-23.835634 6.5334969 -2.2316144 0.0078431377
-96.342033 17.070688 2.3410151 0.074509807
-72.920219 20.340528 0.93281454 0.043137256
-30.095562 5.2577477 -2.0682869 0.035294119
-26.843935 6.0136614 -2.1739464 0.0078431377
-16.225031 2.0041218 0.47404727 0
-94.380302 21.49464 1.7548885 0.10980392
-30.447414 3.8276556 -1.901247 0.090196081
-39.565704 10.957732 -2.3240356 0.027450981
-15.025326 3.3059218 0.61723953 0
-45.218372 10.225033 -2.3609681 0.039215688
-95.885445 21.842108 8.0572624 0.16862746
-50.019539 6.3381038 -1.9872404 0.039215688
-59.137596 16.462677 -2.0755067 0.078431375
-9.9401093 1.6657723 2.5522327 0
-88.412849 15.655428 -2.0035651 0.10196079
-5.3406544 1.1024555 -2.2599399 0.0039215689
-118.01998 15.47717 -1.9710817 0.24705882
-16.410625 3.6811299 -0.45681348 0
-8.4165115 1.4205893 -2.2129462 0.019607844
-11.340349 2.4996812 -2.1927588 0.019607844
-67.576569 19.089346 -0.75659811 0.050980393
-14.165512 2.4663532 -2.1302743 0.019607844
-17.308537 3.8895533 -2.1667345 0.015686275
-148.49347 19.495045 0.98717606 0.10980392
-82.448997 19.060053 -0.42211181 0.16470589
-19.754961 3.4830837 -2.0782568 0.015686275
-23.824179 6.6178203 -2.2327566 0.0078431377
-117.62926 21.288031 2.8624465 0.074509807
-72.664154 20.540215 0.93032867 0.043137256
-30.22229 5.3870745 -2.0785341 0.011764706
-26.915979 6.126914 -2.1817222 0.0078431377
-12.983383 1.6322361 0.37652281 0
-90.14473 20.85306 1.6770022 0.10980392
-30.40221 3.9276273 -1.8992581 0.090196081
-8.8226643 2.3426621 -0.48809534 0
-9.243 1.5718999 0.52146941 0
-5.4851222 1.1370819 0.21128424 0
-45.464264 8.1595631 -2.0855436 0.015686275
-45.571468 10.471294 -2.3816652 0.039215688
-16.328367 2.8612363 1.9781882 0.0039215689
-94.764206 21.931335 7.9687786 0.16862746
-58.776054 16.580328 -2.0647984 0.078431375
-88.511108 15.989748 -2.0071831 0.10196079
-5.3263836 1.1156486 -2.2548828 0.0078431377
-5.633605 0.68023616 -0.081275865 0
-79.318596 18.605682 -2.2900567 0.15294118
-8.4041805 1.4450775 -2.2108045 0.019607844
-11.347269 2.5388708 -2.195899 0.023529412
-67.117073 19.197071 -0.75219995 0.050980393
-14.165033 2.5127428 -2.1315141 0.019607844
-17.307131 3.947655 -2.168263 0.015686275
-81.12413 19.033216 -0.4156571 0.16470589
-19.762861 3.5501847 -2.0804062 0.011764706
-23.809759 6.6969824 -2.2335284 0.0078431377
-117.96302 21.751024 2.8722076 0.074509807
-66.59314 19.046564 0.85294175 0.043137256
-30.282738 5.4997921 -2.0840886 0.011764706
-26.97312 6.2324629 -2.1882064 0.0078431377
-19.574038 4.4845109 0.3581723 0.0039215689
-30.36133 4.0226655 -1.8975204 0.090196081
-39.68206 11.278026 -2.3356349 0.027450981
-8.142334 1.3975075 0.45572263 0
-10.588064 2.3604634 0.42899698 0
-45.829853 8.381072 -2.1039033 0.015686275
-45.536499 10.620337 -2.3817246 0.039215688
-14.355433 2.5494149 1.7314389 0
-8.7200851 1.9190214 0.69043708 0
-58.398113 16.680012 -2.0534017 0.078431375
-14.528139 2.5821679 3.8095136 0
-10.984497 2.454783 1.9563956 0
-88.430084 16.276045 -2.0066574 0.10196079
-5.3257885 1.1337904 -2.2565775 0.0039215689
-12.821022 1.6975048 -0.20231552 0
-78.437332 18.69887 -2.2664773 0.15294118
-8.3799038 1.4700743 -2.2054381 0.011764706
-11.322634 2.5745611 -2.1927888 0.015686275
-100.82746 18.954594 0.081345052 0.24705882
-7.3757305 1.9816395 -0.073672637 0
-16.362623 3.7854798 -2.0472786 0.015686275
-79.540901 18.96475 -0.40789387 0.16470589
-19.773169 3.6248138 -2.0829837 0.011764706
-23.85004 6.8010006 -2.2398372 0.0078431377
-96.719902 18.178595 2.3544006 0.074509807
-65.520973 18.995155 0.83992261 0.043137256
-30.380009 5.6307774 -2.092407 0.011764706
-27.027632 6.3476934 -2.1946948 0.0078431377
-17.216995 2.3084512 0.50458384 0.0039215689
-10.325752 2.3360205 0.18532918 0
-30.306849 4.1262136 -1.8950282 0.074509807
-39.832088 11.477246 -2.3471816 0.027450981
-7.5871477 1.6781161 0.30130672 0
-14.420444 2.6130283 -0.64087719 0
-7.7082033 1.7069269 -0.37409437 0
-34.995956 6.5060711 4.3281984 0.011764706
-66.297302 15.785387 5.5696359 0.062745102
-3.6958804 0.42980272 -0.1213892 0
-60.07082 17.399137 -2.1152818 0.082352944
-18.538082 3.3937659 4.9089808 0.0039215689
-15.030634 3.4673939 2.7200174 0
-91.749069 17.236904 -2.0841684 0.10196079
-5.332572 1.1520104 -2.261647 0.0039215689
-13.642872 1.8557711 -0.21626669 0
-76.914268 18.600838 -2.2239499 0.082352944
-8.3787689 1.4965743 -2.2065227 0.015686275
-11.314037 2.6100855 -2.1928031 0.015686275
-65.42823 19.200909 -0.73472279 0.047058824
-14.127752 2.6036098 -2.1284885 0.039215688
-17.352417 4.0820122 -2.1778502 0.015686275
-8.1676884 1.076692 0.053705059 0
-78.894646 19.084318 -0.40495986 0.16470589
-19.780569 3.6921153 -2.0851336 0.015686275
-23.857914 6.8870926 -2.2428226 0.0078431377
-117.10544 22.434505 2.8547084 0.074509807
-6.690196 1.8030556 0.081841096 0
-30.4513 5.7468352 -2.0987904 0.011764706
-27.049044 6.445662 -2.1982777 0.0078431377
-3.4698908 0.40816623 0.089846358 0
-73.263992 17.712503 1.3645095 0.074509807
-30.265333 4.2207489 -1.893291 0.074509807
-94.084824 18.002737 5.6204023 0.078431375
-46.021362 8.7449522 -2.1157341 0.015686275
-8.4437857 1.911154 -0.41352004 0
-34.919617 6.6095843 4.3212895 0.011764706
-95.695335 23.183111 8.0669184 0.16862746
-22.375204 3.0982444 -0.87538862 0.0039215689
-23.910414 5.6832676 4.3956656 0.0039215689
-18.671528 3.4791725 -0.41074422 0
-5.3081856 1.16587 -2.2568195 0.0039215689
-14.671397 2.0535843 -0.23435389 0
-8.367506 1.5243992 -2.2079139 0.015686275
-11.314137 2.6521008 -2.1971011 0.015686275
-6.3984342 1.741468 -0.063072875 0
-14.108819 2.6507196 -2.1289532 0.023529412
-17.343719 4.1441622 -2.1804042 0.015686275
-19.789032 3.7650409 -2.089148 0.015686275
-23.850697 6.9760938 -2.2461147 0.0078431377
-95.167816 18.553925 2.3170247 0.074509807
-65.223526 19.389074 0.83602917 0.043137256
-30.519207 5.8700104 -2.1065798 0.011764706
-27.059216 6.5483093 -2.2026212 0.0078431377
-126.05796 18.302343 3.7889481 0.24705882
-30.224874 4.3217778 -1.8931668 0.074509807
-39.743343 11.743758 -2.3483565 0.027450981
-95.45784 18.612026 5.7047672 0.078431375
-66.728775 16.366766 2.8280385 0.11372549
-46.514095 9.0077686 -2.1419368 0.015686275
-45.800877 11.18596 -2.4037669 0.039215688
-34.886772 6.7291036 4.3202868 0.011764706
-66.712898 16.363945 5.6130528 0.062745102
-50.751148 7.3158169 -2.0235364 0.05882353
-59.899223 17.790518 -2.115499 0.078431375
-11.257341 2.0931387 2.9234812 0
-18.476494 4.426682 3.3757143 0.0039215689
-91.619965 17.856358 -2.0867522 0.10196079
-5.2970524 1.1805456 -2.2534504 0.0039215689
-23.655054 3.4461956 -0.38619938 0.0078431377
-66.763893 16.618891 -1.9332215 0.070588239
-8.3583593 1.5507628 -2.2068481 0.015686275
-11.293399 2.6866322 -2.1947711 0.019607844
-6.0172696 1.6477771 -0.058792453 0
-14.126617 2.7032924 -2.1332541 0.015686275
-17.3407 4.2054973 -2.1819344 0.011764706
-76.49205 19.062868 -0.39534155 0.070588239
-19.791372 3.8351314 -2.0908742 0.015686275
-23.860504 7.0676451 -2.2494714 0.0078431377
-95.843605 19.032028 2.3350503 0.074509807
-66.571442 20.044746 0.85419309 0.043137256
-15.03773 2.8857355 -1.0158035 0
-27.105801 6.6581235 -2.2084646 0.0078431377
-66.860756 16.644497 1.2449659 0.070588239
-30.185917 4.4216375 -1.8916829 0.027450981
-39.702114 11.880336 -2.3484166 0.027450981
-118.44374 23.549267 7.0910287 0.078431375
-66.717758 16.609211 2.8299346 0.11372549
-46.874218 9.2462826 -2.1603124 0.015686275
-45.761555 11.343687 -2.4038298 0.039215688
-34.882545 6.8526678 4.3226957 0.011764706
-66.469803 16.548042 5.5972013 0.062745102
-59.806156 17.988119 -2.1144958 0.078431375
-12.87047 3.0845423 2.3204448 0
-91.878647 18.23823 -2.0942547 0.10196079
-5.2858734 1.1951578 -2.2500811 0.0078431377
-75.713745 19.145666 -2.1971872 0.078431375
-8.3453484 1.5763139 -2.2047071 0.015686275
-11.29536 2.7268624 -2.1971312 0.019607844
-94.667442 19.137943 0.073850296 0.23137255
-63.065487 19.217379 -0.71209335 0.047058824
-14.109351 2.7489314 -2.1320472 0.023529412
-17.35668 4.2717619 -2.1859758 0.015686275
-23.606039 3.521208 0.15603836 0.87058824
-75.572319 19.110346 -0.39096481 0.070588239
-19.812946 3.9092474 -2.0947275 0.015686275
-23.934671 7.179255 -2.2591014 0.0078431377
-98.006264 19.818012 2.3895509 0.074509807
-66.531647 20.28434 0.85448575 0.043137256
-30.602633 6.1042233 -2.1154897 0.011764706
-27.171255 6.7732658 -2.2159214 0.0078431377
-125.3343 19.087107 3.7707627 0.24705882
-10.298425 2.473727 0.18521561 0
-30.154514 4.5224848 -1.8907046 0.027450981
-39.862698 12.078995 -2.3606548 0.027450981
-7.2306128 1.3504846 0.40262499 0
-73.01841 18.460821 3.1019151 0.1254902
-46.959122 9.4316626 -2.1658661 0.015686275
-45.721684 11.501276 -2.4038932 0.039215688
-6.5345349 1.2090057 0.75206548 0
-59.582527 18.145329 -2.1088414 0.078431375
-18.399408 4.5397692 3.3670208 0.0039215689
-90.501656 18.289707 -2.0641825 0.10196079
-5.2957168 1.2151513 -2.2568393 0.0039215689
-23.662043 3.6120584 -0.38678572 0.0078431377
-74.717415 19.16754 -2.1700535 0.078431375
-8.3360243 1.6025753 -2.2036414 0.015686275
-11.281978 2.7632143 -2.1963646 0.027450981
-14.495433 2.8788235 0.013653435 0
-62.341175 19.230772 -0.70466042 0.047058824
-14.115155 2.799294 -2.1345124 0.023529412
-17.368559 4.3371987 -2.1895149 0.015686275
-23.629173 3.6070886 0.15624861 0.4509804
-74.525391 19.118608 -0.38591367 0.070588239
-19.810863 3.9787273 -2.0960281 0.011764706
-23.913267 7.261868 -2.2595067 0.0078431377
-117.23341 24.153973 2.8624628 0.074509807
-72.299339 22.332933 0.92983621 0.043137256
-30.69055 6.2315903 -2.1232586 0.011764706
-27.21693 6.8839607 -2.221766 0.0078431377
-13.222758 1.9777515 0.3848373 0
-72.907112 18.700832 1.3604754 0.074509807
-23.749332 3.6253698 -1.4811499 0.023529412
-39.885109 12.236184 -2.3646221 0.027450981
-95.011406 19.553459 5.6895728 0.078431375
-91.893593 23.61175 3.9128702 0.24705882
-47.1959 9.6493568 -2.178565 0.015686275
-10.804447 2.640398 -0.54188859 0
-34.876637 7.1007671 4.3280034 0.011764706
-66.460739 17.035532 5.6062088 0.062745102
-23.686352 3.6156871 -0.93144351 1
-4.1211042 1.0986391 -0.12318991 0
-89.571838 18.424255 -2.0443814 0.10196079
-5.2949538 1.2324668 -2.2585337 0.0039215689
-73.509132 19.126856 -2.1366751 0.078431375
-8.3416929 1.6319633 -2.2068777 0.015686275
-11.298828 2.8074615 -2.2018516 0.05882353
-91.635139 19.183914 0.071440324 0.23529412
-61.316208 19.144312 -0.69376689 0.047058824
-14.10917 2.8472791 -2.1351418 0.023529412
-17.399382 4.4077969 -2.1955657 0.015686275
-23.608543 3.686203 0.15616983 0.94117647
-73.444511 19.110624 -0.3806769 0.06666667
-19.83967 4.0547905 -2.100733 0.015686275
-23.959953 7.365963 -2.2665546 0.0078431377
-94.668694 19.823954 2.3108835 0.074509807
-71.679283 22.412302 0.92271721 0.043137256
-30.774046 6.3588076 -2.1307518 0.011764706
-27.146461 6.9646993 -2.2179325 0.0078431377
-118.01678 18.807327 3.5533631 0.24705882
-73.050301 19.007925 1.3642967 0.074509807
-30.102514 4.7255774 -1.8895078 0.019607844
-39.9907 12.420072 -2.3736455 0.027450981
-19.372555 3.9575543 1.1349623 0
-76.989334 20.042021 3.2775025 0.13333334
-47.552933 9.8943338 -2.1969442 0.015686275
-46.165779 11.95387 -2.4321034 0.039215688
-5.6985559 1.076068 0.64759761 0
-11.522248 2.8673532 0.93364984 0
-23.685429 3.6981595 -0.93194938 0.95686275
-59.614544 18.607176 -2.1147723 0.078431375
-88.626549 18.549191 -2.0242181 0.10196079
-5.2695947 1.243271 -2.2484133 0.0078431377
-23.675732 3.7794678 -0.38750669 0.015686275
-72.727081 19.191074 -2.1157801 0.078431375
-8.332181 1.6581838 -2.2058122 0.019607844
-11.266215 2.8387542 -2.1971767 0.035294119
-116.97834 24.948711 0.090343215 0.24705882
-60.967026 19.266171 -0.69062209 0.047058824
-14.099147 2.8944318 -2.1351593 0.023529412
-17.399231 4.4705048 -2.1975989 0.015686275
-23.599483 3.767163 0.15616959 0.95686275
-72.526962 19.138546 -0.37629449 0.06666667
-19.868179 4.1311083 -2.1054382 0.015686275
-9.4771824 2.8346076 -0.86063921 0
-118.25842 25.224155 2.8915329 0.074509807
-72.400787 22.915657 0.93296546 0.043137256
-30.80629 6.4758196 -2.1346564 0.011764706
-27.079605 7.0460601 -2.214422 0.0078431377
-97.791985 15.916206 2.943439 0.24705882
-73.068527 19.283354 1.3657914 0.074509807
-40.046017 12.589072 -2.3796821 0.027450981
-5.6856055 1.0917909 0.31029192 0
-3.7999539 0.85324281 0.14074208 0
-47.713455 10.100058 -2.2061648 0.015686275
-46.255032 12.147784 -2.4391897 0.039215688
-34.865055 7.3482676 4.332819 0.011764706
-94.547829 25.000881 8.0098448 0.16862746
-23.715767 3.7858419 -0.93373418 0.80392158
-59.073177 18.661165 -2.0977619 0.078431375
-88.6903 18.884027 -2.0273056 0.10196079
-5.2722287 1.2614638 -2.2517958 0.0039215689
-23.662401 3.8600078 -0.38753346 0.035294119
-71.760201 19.200062 -2.0894351 0.074509807
-8.3489323 1.6900977 -2.2122753 0.019607844
-11.278967 2.8821099 -2.2018824 0.019607844
-88.52095 19.169748 0.068977639 0.23921569
-60.218109 19.256742 -0.68287814 0.047058824
-14.092825 2.9423878 -2.1357884 0.023529412
-17.402681 4.5342956 -2.200134 0.019607844
-23.621702 3.8533795 0.15637906 0.9137255
-71.575356 19.150906 -0.37172666 0.06666667
-19.876957 4.2034335 -2.1080163 0.015686275
-23.968605 7.5484715 -2.2725327 0.0078431377
-12.319442 2.5566695 0.29124641 0
-72.000648 23.062899 0.92870766 0.043137256
-30.869276 6.5999241 -2.1407697 0.011764706
-27.05485 7.1384568 -2.2144601 0.0078431377
-117.26746 19.523685 3.5344729 0.24705882
-73.062553 19.552876 1.3668493 0.074509807
-40.00563 12.727919 -2.3799744 0.027450981
-94.290405 20.429676 5.6583605 0.078431375
-25.918186 6.8331561 1.0905482 0.0078431377
-10.432697 2.1450484 -0.4584491 0
-46.39362 12.355982 -2.4489613 0.039215688
-15.542768 3.2600064 1.8931442 0
-6.8910494 1.6993827 0.54031992 0
-58.577812 18.726332 -2.0823927 0.078431375
-14.16332 3.6622951 2.5760555 0
-87.381348 18.920527 -1.9987587 0.10196079
-5.2712946 1.2787353 -2.2534904 0.0039215689
-23.66456 3.9432023 -0.38782781 0.023529412
-70.647568 19.162466 -2.0587742 0.074509807
-8.3166542 1.7113163 -2.204757 0.015686275
-11.261274 2.9173136 -2.2003345 0.015686275
-87.121826 19.181358 0.067867592 0.23921569
-59.572647 19.275885 -0.67631519 0.047058824
-14.086329 2.9903381 -2.1364183 0.023529412
-17.41737 4.6013098 -2.2041767 0.015686275
-23.61994 3.9357591 0.1564308 0.95294118
-70.358337 19.084053 -0.36574891 0.062745102
-19.900997 4.2793179 -2.1122961 0.015686275
-24.014046 7.6535172 -2.2795818 0.0078431377
-15.039391 3.2025492 0.35831344 0
-72.128815 23.380356 0.93130612 0.043137256
-30.931763 6.7245564 -2.146884 0.011764706
-27.064383 7.2402396 -2.2174022 0.0078431377
-6.391643 0.99120182 0.17878668 0
-72.908997 19.782511 1.3651456 0.074509807
-40.097614 12.910066 -2.3883104 0.027450981
-92.608482 20.399687 5.5609889 0.078431375
-68.105568 18.469177 2.9045832 0.11764706
-48.422024 10.601685 -2.2429299 0.015686275
-46.392593 12.527365 -2.4512992 0.039215688
-2.8151155 0.49269757 0.28421146 0
-58.466496 18.91371 -2.0808434 0.078431375
-7.2695613 1.4807261 1.8406539 0
-8.5906258 2.1883147 1.5208389 0
-85.690613 18.863331 -1.9613757 0.10196079
-5.2702961 1.2960163 -2.2551851 0.0039215689
-5.8228598 1.4501312 -0.15082835 0
-8.3181496 1.7399507 -2.206918 0.019607844
-11.243464 2.9524305 -2.1987867 0.019607844
-6.5139036 1.3342214 0.0076456051 0
-58.912586 19.285746 -0.66957575 0.047058824
-14.087377 3.0400198 -2.1382723 0.019607844
-17.431799 4.6684852 -2.2082195 0.015686275
-23.645468 4.0229921 0.15666592 0.8509804
